# .PCD v.7 - Point Cloud Data file format
VERSION .7
FIELDS x y z rgb
SIZE 4 4 4 4
TYPE F F F I
COUNT 1 1 1 1
WIDTH 1313
HEIGHT 1
POINTS 1313
DATA ascii
-0.124929 0.052748 0.583000 4347789
-0.123643 0.055502 0.577000 3686530
-0.122786 0.058391 0.573000 4740233
-0.122143 0.061343 0.570000 3162244
-0.121286 0.064147 0.566000 3425157
-0.120214 0.066786 0.561000 3884677
-0.119571 0.069617 0.558000 3228804
-0.118500 0.072153 0.553000 3951750
-0.117857 0.074905 0.550000 4476807
-0.117214 0.077622 0.547000 5067656
-0.116143 0.080010 0.542000 5790604
-0.115286 0.082493 0.538000 6317709
-0.114857 0.085250 0.536000 6714523
-0.114643 0.088148 0.535000 14205128
-0.115071 0.091546 0.537000 14667488
-0.116143 0.095495 0.542000 14799333
-0.116357 0.098774 0.543000 15325678
-0.158224 -0.060310 0.745000 6909325
-0.157162 -0.055676 0.740000 6186123
-0.156312 -0.051170 0.736000 5331338
-0.154613 -0.046453 0.728000 6452877
-0.153339 -0.041945 0.722000 4605571
-0.151640 -0.037400 0.714000 4869248
-0.150366 -0.033040 0.708000 3423357
-0.148879 -0.028708 0.701000 3226237
-0.147605 -0.024490 0.695000 3225722
-0.146543 -0.020371 0.690000 3225724
-0.144419 -0.016190 0.680000 3095165
-0.143357 -0.012214 0.675000 3225725
-0.142295 -0.008295 0.670000 2698875
-0.141446 -0.004440 0.666000 6188707
-0.140171 -0.000629 0.660000 5136018
-0.138685 0.003110 0.653000 3090807
-0.138048 0.006810 0.650000 8354175
-0.136349 0.010394 0.642000 9869927
-0.135711 0.013997 0.639000 3287164
-0.134650 0.017510 0.634000 2898303
-0.133375 0.020933 0.628000 2898049
-0.132526 0.024366 0.624000 2963329
-0.131251 0.027663 0.618000 2963585
-0.130614 0.031043 0.615000 3095168
-0.129128 0.034164 0.608000 2963841
-0.128278 0.037390 0.604000 3094914
-0.127853 0.040707 0.602000 3160710
-0.126154 0.043560 0.594000 3094661
-0.125517 0.046717 0.591000 3556483
-0.124455 0.049670 0.586000 3949956
-0.123818 0.052748 0.583000 3819911
-0.122544 0.055502 0.577000 3947392
-0.121907 0.058493 0.574000 4543113
-0.121270 0.061450 0.571000 3095941
-0.120208 0.064147 0.566000 3293061
-0.118933 0.066667 0.560000 3621766
-0.118509 0.069617 0.558000 3359875
-0.117447 0.072153 0.553000 3820166
-0.116597 0.074769 0.549000 4477062
-0.116172 0.077622 0.547000 5067401
-0.115323 0.080157 0.543000 5659019
-0.114473 0.082647 0.539000 6382988
-0.114049 0.085409 0.537000 7763357
-0.113836 0.088312 0.536000 14668752
-0.114686 0.092057 0.540000 14602209
-0.115110 0.095495 0.542000 14864871
-0.115323 0.098774 0.543000 15260142
-0.156805 -0.060310 0.745000 6909327
-0.155752 -0.055676 0.740000 5988747
-0.154910 -0.051170 0.736000 5724041
-0.153227 -0.046453 0.728000 7168136
-0.151543 -0.041829 0.720000 4342147
-0.150280 -0.037400 0.714000 5391999
-0.148807 -0.032993 0.707000 3488380
-0.147544 -0.028708 0.701000 3160957
-0.146281 -0.024490 0.695000 3159932
-0.145229 -0.020371 0.690000 3226237
-0.143124 -0.016190 0.680000 3226238
-0.142071 -0.012214 0.675000 3356797
-0.141230 -0.008308 0.671000 2305658
-0.140177 -0.004440 0.666000 3296658
-0.139125 -0.000630 0.661000 5865117
-0.137862 0.003119 0.655000 3157368
-0.136389 0.006789 0.648000 6115712
-0.135126 0.010394 0.642000 11573878
-0.134284 0.013975 0.638000 2236796
-0.133442 0.017510 0.634000 2898046
-0.131969 0.020900 0.627000 2898049
-0.131337 0.024366 0.624000 2963585
-0.130074 0.027663 0.618000 2963585
-0.129443 0.031043 0.615000 2898305
-0.127970 0.034164 0.608000 2963585
-0.127128 0.037390 0.604000 3226244
-0.126496 0.040639 0.601000 3096202
-0.125023 0.043560 0.594000 3029125
-0.124391 0.046717 0.591000 4016004
-0.123339 0.049670 0.586000 4280456
-0.122708 0.052748 0.583000 3294600
-0.121655 0.055598 0.578000 4213123
-0.121024 0.058595 0.575000 4347278
-0.120182 0.061450 0.571000 3031172
-0.119340 0.064260 0.567000 3161221
-0.118077 0.066786 0.561000 3294086
-0.117446 0.069617 0.558000 3490948
-0.116393 0.072153 0.553000 3688837
-0.115551 0.074769 0.549000 4477063
-0.114920 0.077480 0.546000 5002120
-0.114078 0.080010 0.542000 5527433
-0.113447 0.082647 0.539000 6448015
-0.113026 0.085409 0.537000 8812702
-0.112815 0.088312 0.536000 15061464
-0.113657 0.092057 0.540000 14602211
-0.114289 0.095671 0.543000 14931177
-0.155386 -0.060310 0.745000 6843792
-0.154760 -0.055827 0.742000 6052491
-0.153509 -0.051170 0.736000 5593735
-0.151840 -0.046453 0.728000 5723779
-0.150589 -0.041945 0.722000 4409218
-0.149337 -0.037505 0.716000 4604029
-0.147669 -0.033040 0.708000 3686010
-0.146209 -0.028708 0.701000 3357822
-0.144957 -0.024490 0.695000 3291518
-0.143914 -0.020371 0.690000 3816574
-0.142454 -0.016262 0.683000 3292030
-0.140786 -0.012214 0.675000 3225725
-0.139951 -0.008308 0.671000 3548537
-0.138909 -0.004440 0.666000 6114434
-0.137657 -0.000629 0.660000 4810919
-0.136823 0.003124 0.656000 3159673
-0.135571 0.006810 0.650000 5523840
-0.133903 0.010394 0.642000 9608838
-0.133069 0.013975 0.638000 2239355
-0.132234 0.017510 0.634000 2832253
-0.130983 0.020933 0.628000 2897792
-0.129940 0.024327 0.623000 3029634
-0.128897 0.027663 0.618000 2963585
-0.128271 0.031043 0.615000 3028865
-0.126811 0.034164 0.608000 3029376
-0.125769 0.037329 0.603000 3423109
-0.125351 0.040639 0.601000 3819405
-0.124100 0.043633 0.595000 3029381
-0.123266 0.046717 0.591000 3950469
-0.122223 0.049670 0.586000 5200268
-0.121597 0.052748 0.583000 3622024
-0.120554 0.055598 0.578000 4873863
-0.119929 0.058595 0.575000 4150163
-0.118886 0.061343 0.570000 2900354
-0.118260 0.064260 0.567000 3096197
-0.117217 0.066905 0.562000 3228551
-0.116591 0.069742 0.559000 3490949
-0.115340 0.072153 0.553000 3753861
-0.114297 0.074632 0.548000 4477063
-0.113463 0.077196 0.544000 5001864
-0.113046 0.080010 0.542000 5462407
-0.112211 0.082493 0.538000 6054034
-0.112003 0.085409 0.537000 9734302
-0.112211 0.088642 0.538000 14996960
-0.113046 0.092398 0.542000 14667749
-0.113254 0.095671 0.543000 14996972
-0.153967 -0.060310 0.745000 6778515
-0.153347 -0.055827 0.742000 6053770
-0.152107 -0.051170 0.736000 5529227
-0.150453 -0.046453 0.728000 4215429
-0.148800 -0.041829 0.720000 4409476
-0.147973 -0.037505 0.716000 3817598
-0.146113 -0.032993 0.707000 3883387
-0.144873 -0.028708 0.701000 3488637
-0.143633 -0.024490 0.695000 3488893
-0.142600 -0.020371 0.690000 4342401
-0.141153 -0.016262 0.683000 3291775
-0.139707 -0.012232 0.676000 3028860
-0.138467 -0.008295 0.670000 4795260
-0.137640 -0.004440 0.666000 8880799
-0.136400 -0.000629 0.660000 3824773
-0.135367 0.003119 0.655000 3093115
-0.134540 0.006820 0.651000 4926847
-0.132680 0.010394 0.642000 7626114
-0.131853 0.013975 0.638000 2241406
-0.131027 0.017510 0.634000 2766719
-0.129787 0.020933 0.628000 2832259
-0.128753 0.024327 0.623000 3029378
-0.127720 0.027663 0.618000 2963585
-0.127100 0.031043 0.615000 3160194
-0.125653 0.034164 0.608000 3094913
-0.124620 0.037329 0.603000 3619971
-0.124000 0.040571 0.600000 4543881
-0.122760 0.043560 0.594000 3029124
-0.122140 0.046717 0.591000 3884676
-0.121313 0.049755 0.587000 6051463
-0.120487 0.052748 0.583000 3947143
-0.119453 0.055598 0.578000 5525894
-0.118627 0.058493 0.574000 3952777
-0.117800 0.061343 0.570000 2704004
-0.116973 0.064147 0.566000 3030661
-0.115733 0.066667 0.560000 3096966
-0.115113 0.069492 0.557000 3556486
-0.114287 0.072153 0.553000 3819653
-0.113253 0.074632 0.548000 4476807
-0.112633 0.077338 0.545000 5002120
-0.112013 0.080010 0.542000 5397385
-0.111187 0.082493 0.538000 5661075
-0.110980 0.085409 0.537000 10655405
-0.111600 0.088971 0.540000 14865892
-0.112013 0.092398 0.542000 14733287
-0.112220 0.095671 0.543000 15063533
-0.152548 -0.060310 0.745000 6778261
-0.152138 -0.055902 0.743000 5988233
-0.150705 -0.051170 0.736000 5462926
-0.149067 -0.046453 0.728000 4542086
-0.147429 -0.041829 0.720000 4805253
-0.146610 -0.037505 0.716000 3817855
-0.144971 -0.033040 0.708000 4540796
-0.143538 -0.028708 0.701000 3684988
-0.142310 -0.024490 0.695000 3554939
-0.141286 -0.020371 0.690000 4082051
-0.139852 -0.016262 0.683000 3226496
-0.138419 -0.012232 0.676000 3094140
-0.137395 -0.008308 0.671000 4933246
-0.136576 -0.004447 0.667000 8301244
-0.135348 -0.000630 0.661000 4992610
-0.134119 0.003119 0.655000 1979005
-0.133300 0.006820 0.651000 3486334
-0.131457 0.010394 0.642000 4732030
-0.130229 0.013931 0.636000 2569601
-0.129614 0.017483 0.633000 2832513
-0.128590 0.020933 0.628000 2898054
-0.127567 0.024327 0.623000 3029121
-0.126748 0.027708 0.619000 3029377
-0.126133 0.031093 0.616000 3225730
-0.124495 0.034164 0.608000 2963841
-0.123471 0.037329 0.603000 3422081
-0.122857 0.040571 0.600000 4081285
-0.121424 0.043487 0.593000 3029123
-0.120810 0.046638 0.590000 3422595
-0.119786 0.049586 0.585000 4870530
-0.119171 0.052657 0.582000 3487877
-0.118148 0.055502 0.577000 4540293
-0.117329 0.058391 0.573000 3687295
-0.116714 0.061343 0.570000 3294086
-0.115895 0.064147 0.566000 3030149
-0.114667 0.066667 0.560000 3227782
-0.114052 0.069492 0.557000 3556742
-0.113643 0.072414 0.555000 3819653
-0.112824 0.075041 0.551000 4345478
-0.111595 0.077338 0.545000 5067400
-0.110981 0.080010 0.542000 5396875
-0.110162 0.082493 0.538000 5530516
-0.110162 0.085568 0.538000 11774395
-0.110776 0.089136 0.541000 14733544
-0.110981 0.092398 0.542000 14799080
-0.111800 0.096200 0.546000 15195118
-0.151129 -0.060310 0.745000 6712724
-0.150723 -0.055902 0.743000 5857418
-0.149303 -0.051170 0.736000 5396617
-0.147680 -0.046453 0.728000 4803715
-0.146057 -0.041829 0.720000 5201025
-0.145246 -0.037505 0.716000 3817852
-0.143623 -0.033040 0.708000 5197697
-0.142203 -0.028708 0.701000 3882876
-0.140986 -0.024490 0.695000 3687805
-0.139971 -0.020371 0.690000 3753857
-0.138551 -0.016262 0.683000 3159936
-0.136929 -0.012214 0.675000 3094397
-0.136117 -0.008308 0.671000 5125503
-0.135103 -0.004440 0.666000 7694505
-0.134089 -0.000630 0.661000 6168179
-0.133074 0.003124 0.656000 808316
-0.132060 0.006820 0.651000 2045057
-0.130234 0.010394 0.642000 1847420
-0.129423 0.013975 0.638000 2963584
-0.128409 0.017483 0.633000 2898049
-0.127394 0.020933 0.628000 2963588
-0.125771 0.024210 0.620000 2963841
-0.125366 0.027663 0.618000 3095170
-0.124554 0.030992 0.614000 3291779
-0.123134 0.034108 0.607000 2833026
-0.122323 0.037329 0.603000 3160706
-0.121511 0.040504 0.599000 3620998
-0.120294 0.043487 0.593000 3029638
-0.119686 0.046638 0.590000 2896771
-0.118874 0.049670 0.586000 3621506
-0.118063 0.052657 0.582000 3029125
-0.117049 0.055502 0.577000 3489668
-0.116237 0.058391 0.573000 3423363
-0.115629 0.061343 0.570000 3819656
-0.114614 0.064033 0.565000 3095685
-0.113803 0.066786 0.561000 3293061
-0.112991 0.069492 0.557000 3622278
-0.112586 0.072414 0.555000 3819652
-0.111369 0.074769 0.549000 4279687
-0.110557 0.077338 0.545000 5067400
-0.110151 0.080157 0.543000 5462668
-0.109340 0.082647 0.539000 5397655
-0.109137 0.085568 0.538000 12896713
-0.109949 0.089301 0.542000 14602471
-0.110151 0.092569 0.543000 14930154
-0.110963 0.096376 0.547000 15260911
-0.149710 -0.060310 0.745000 6778514
-0.149308 -0.055902 0.743000 5791884
-0.147901 -0.051170 0.736000 5592452
-0.146293 -0.046453 0.728000 4801919
-0.144686 -0.041829 0.720000 4608124
-0.143882 -0.037505 0.716000 4013946
-0.142274 -0.033040 0.708000 4738438
-0.141270 -0.028790 0.703000 3356796
-0.140064 -0.024561 0.697000 3686527
-0.138657 -0.020371 0.690000 4081022
-0.137250 -0.016262 0.683000 3160191
-0.135844 -0.012232 0.676000 3290751
-0.134839 -0.008308 0.671000 4932991
-0.133834 -0.004440 0.666000 5439894
-0.132830 -0.000630 0.661000 8091268
-0.131825 0.003124 0.656000 6062971
-0.130619 0.006810 0.650000 1716868
-0.129011 0.010394 0.642000 2504315
-0.127806 0.013931 0.636000 3029119
-0.127002 0.017455 0.632000 2898049
-0.125997 0.020900 0.627000 2832769
-0.124590 0.024210 0.620000 2963841
-0.124189 0.027663 0.618000 3226498
-0.123385 0.030992 0.614000 3555203
-0.121978 0.034108 0.607000 2963843
-0.121576 0.037452 0.605000 3225987
-0.120370 0.040504 0.599000 4146055
-0.119366 0.043560 0.594000 3423881
-0.118562 0.046638 0.590000 3818115
-0.117758 0.049670 0.586000 3487874
-0.116954 0.052657 0.582000 2767492
-0.115950 0.055502 0.577000 3226756
-0.115146 0.058391 0.573000 3555975
-0.114744 0.061450 0.571000 4542858
-0.113538 0.064033 0.565000 3227269
-0.112734 0.066786 0.561000 3161988
-0.111730 0.069368 0.556000 3622022
-0.111328 0.072284 0.554000 3884932
-0.110323 0.074769 0.549000 4213895
-0.109519 0.077338 0.545000 4935816
-0.109117 0.080157 0.543000 5397388
-0.108514 0.082800 0.540000 5722778
-0.108112 0.085568 0.538000 13683671
-0.108916 0.089301 0.542000 14667750
-0.109318 0.092739 0.544000 14996459
-0.110122 0.096552 0.548000 15326705
-0.148689 -0.060471 0.747000 6844305
-0.147892 -0.055902 0.743000 5660299
-0.146499 -0.051170 0.736000 5788546
-0.145106 -0.046517 0.729000 4737918
-0.143314 -0.041829 0.720000 4084861
-0.142518 -0.037505 0.716000 4146045
-0.140926 -0.033040 0.708000 4213635
-0.139532 -0.028708 0.701000 2767997
-0.138736 -0.024561 0.697000 3686273
-0.137343 -0.020371 0.690000 4408190
-0.135750 -0.016238 0.682000 3225471
-0.134357 -0.012214 0.675000 3488127
-0.133362 -0.008295 0.670000 4800127
-0.132367 -0.004433 0.665000 3234709
-0.130973 -0.000627 0.658000 10058881
-0.130376 0.003119 0.655000 11311474
-0.129381 0.006810 0.650000 1454463
-0.127789 0.010394 0.642000 3159934
-0.126992 0.013975 0.638000 3094400
-0.125798 0.017455 0.632000 2898049
-0.124803 0.020900 0.627000 2767232
-0.123410 0.024210 0.620000 2898305
-0.123011 0.027663 0.618000 3422851
-0.122414 0.031043 0.615000 3820168
-0.120822 0.034108 0.607000 3094917
-0.119827 0.037267 0.602000 3227524
-0.119230 0.040504 0.599000 4735879
-0.118234 0.043560 0.594000 3752327
-0.117637 0.046717 0.591000 4671874
-0.116642 0.049670 0.586000 3293060
-0.115846 0.052657 0.582000 2570629
-0.114651 0.055406 0.576000 2964612
-0.114054 0.058391 0.573000 3752579
-0.113457 0.061343 0.570000 5262728
-0.112462 0.064033 0.565000 3423876
-0.111666 0.066786 0.561000 3030917
-0.110870 0.069492 0.557000 3622022
-0.110272 0.072284 0.554000 3885191
-0.109277 0.074769 0.549000 4213640
-0.108680 0.077480 0.546000 4739464
-0.107884 0.080010 0.542000 5332113
-0.107486 0.082800 0.540000 5990814
-0.107287 0.085727 0.539000 14474210
-0.107884 0.089301 0.542000 14668262
-0.108481 0.092910 0.545000 15062509
-0.109078 0.096552 0.548000 15392497
-0.147463 -0.060552 0.748000 6778511
-0.146477 -0.055902 0.743000 5595019
-0.145294 -0.051239 0.737000 5395072
-0.143717 -0.046517 0.729000 4342396
-0.141746 -0.041770 0.719000 4148093
-0.140760 -0.037400 0.714000 4212864
-0.139577 -0.033040 0.708000 3949696
-0.138000 -0.028667 0.700000 3161214
-0.137014 -0.024490 0.695000 3686786
-0.135831 -0.020342 0.689000 4014975
-0.134451 -0.016238 0.682000 3159935
-0.132874 -0.012196 0.674000 3423102
-0.132086 -0.008295 0.670000 3947391
-0.131100 -0.004433 0.665000 6063509
-0.129720 -0.000627 0.658000 8224126
-0.129129 0.003119 0.655000 10926696
-0.128143 0.006810 0.650000 3558521
-0.126960 0.010427 0.644000 3094401
-0.125383 0.013931 0.636000 3028865
-0.124594 0.017455 0.632000 2898049
-0.123609 0.020900 0.627000 2898303
-0.122229 0.024210 0.620000 2963841
-0.121834 0.027663 0.618000 3357572
-0.121243 0.031043 0.615000 4807565
-0.119666 0.034108 0.607000 3357575
-0.118877 0.037329 0.603000 3557509
-0.118286 0.040571 0.600000 4211847
-0.117103 0.043560 0.594000 3421829
-0.116511 0.046717 0.591000 3818368
-0.115723 0.049755 0.587000 3160966
-0.114737 0.052657 0.582000 2833030
-0.113554 0.055406 0.576000 2768260
-0.112963 0.058391 0.573000 3489663
-0.112569 0.061450 0.571000 4342407
-0.111386 0.064033 0.565000 3358339
-0.110794 0.066905 0.562000 3227526
-0.109611 0.069368 0.556000 3490693
-0.109020 0.072153 0.553000 3754634
-0.108231 0.074769 0.549000 4148360
-0.107837 0.077622 0.547000 4738696
-0.107049 0.080157 0.543000 5265557
-0.106654 0.082953 0.541000 8218274
-0.106654 0.086045 0.541000 14668781
-0.107049 0.089466 0.543000 14733798
-0.107640 0.093080 0.546000 15194606
-0.108034 0.096552 0.548000 15391985
-0.146038 -0.060552 0.748000 6778511
-0.145062 -0.055902 0.743000 5528971
-0.143305 -0.051030 0.734000 5001345
-0.142133 -0.046453 0.728000 3949950
-0.140376 -0.041770 0.719000 4211327
-0.139205 -0.037348 0.713000 4213375
-0.138229 -0.033040 0.708000 3750527
-0.136667 -0.028667 0.700000 3554683
-0.135690 -0.024490 0.695000 3753090
-0.134714 -0.020371 0.690000 3554685
-0.132567 -0.016167 0.679000 3159935
-0.131786 -0.012214 0.675000 3291775
-0.130810 -0.008295 0.670000 3030143
-0.129833 -0.004433 0.665000 8804739
-0.128857 -0.000629 0.660000 6391665
-0.128076 0.003124 0.656000 10443883
-0.126514 0.006789 0.648000 5660284
-0.125343 0.010394 0.642000 2963328
-0.123976 0.013910 0.635000 2898049
-0.123390 0.017455 0.632000 2898049
-0.122414 0.020900 0.627000 2964096
-0.121438 0.024288 0.622000 2963842
-0.120657 0.027663 0.618000 3357315
-0.119876 0.030992 0.614000 5722760
-0.118314 0.034051 0.606000 3618692
-0.117729 0.037329 0.603000 3820419
-0.116948 0.040504 0.599000 3687814
-0.115971 0.043560 0.594000 3094915
-0.115190 0.046638 0.590000 2965377
-0.114605 0.049755 0.587000 3030404
-0.113629 0.052657 0.582000 3095431
-0.112652 0.055502 0.577000 2571396
-0.111871 0.058391 0.573000 3226498
-0.111286 0.061343 0.570000 3423620
-0.110310 0.064033 0.565000 3292803
-0.109529 0.066786 0.561000 3358853
-0.108748 0.069492 0.557000 3359878
-0.107967 0.072153 0.553000 3623304
-0.107186 0.074769 0.549000 4148360
-0.106795 0.077622 0.547000 4739464
-0.105819 0.080010 0.542000 5198226
-0.105624 0.082953 0.541000 10391469
-0.105819 0.086204 0.542000 14864875
-0.106210 0.089630 0.544000 14733800
-0.106795 0.093250 0.547000 15326192
-0.144613 -0.060552 0.748000 6712719
-0.143647 -0.055902 0.743000 5528971
-0.142293 -0.051170 0.736000 4804226
-0.140747 -0.046453 0.728000 4014976
-0.139007 -0.041770 0.719000 4145793
-0.138427 -0.037505 0.716000 4081534
-0.136687 -0.032993 0.707000 3553661
-0.135333 -0.028667 0.700000 3751801
-0.134367 -0.024490 0.695000 3819138
-0.133400 -0.020371 0.690000 3488123
-0.131467 -0.016190 0.680000 3094399
-0.130500 -0.012214 0.675000 3291263
-0.129727 -0.008308 0.671000 3095166
-0.128760 -0.004440 0.666000 4796273
-0.127600 -0.000629 0.660000 7700067
-0.126827 0.003124 0.656000 6750573
-0.125280 0.006789 0.648000 6057598
-0.124120 0.010394 0.642000 3095166
-0.123733 0.014019 0.640000 2963585
-0.121993 0.017428 0.631000 2963586
-0.121220 0.020900 0.627000 2964097
-0.120253 0.024288 0.622000 2963586
-0.119480 0.027663 0.618000 3226241
-0.118707 0.030992 0.614000 4606339
-0.117353 0.034108 0.607000 3160705
-0.116580 0.037329 0.603000 4083328
-0.115807 0.040504 0.599000 3950980
-0.114840 0.043560 0.594000 3292290
-0.114260 0.046717 0.591000 2964609
-0.113487 0.049755 0.587000 3161730
-0.112520 0.052657 0.582000 3491207
-0.111553 0.055502 0.577000 2898820
-0.110780 0.058391 0.573000 3161221
-0.110200 0.061343 0.570000 3095426
-0.109233 0.064033 0.565000 3161475
-0.108460 0.066786 0.561000 3227780
-0.107687 0.069492 0.557000 3228038
-0.106913 0.072153 0.553000 3623302
-0.106140 0.074769 0.549000 4148103
-0.105753 0.077622 0.547000 4739721
-0.104787 0.080010 0.542000 5001103
-0.104787 0.083107 0.542000 11969976
-0.104787 0.086204 0.542000 14865129
-0.105367 0.089795 0.545000 14864874
-0.105947 0.093421 0.548000 15326705
-0.144146 -0.065260 0.753000 7107222
-0.143189 -0.060552 0.748000 6646415
-0.142231 -0.055902 0.743000 5462667
-0.141083 -0.051239 0.737000 4607363
-0.139360 -0.046453 0.728000 4015488
-0.137637 -0.041770 0.719000 4013700
-0.137063 -0.037505 0.716000 3948671
-0.135531 -0.033040 0.708000 3357054
-0.134000 -0.028667 0.700000 3948668
-0.133043 -0.024490 0.695000 3950728
-0.132277 -0.020401 0.691000 3356797
-0.129980 -0.016167 0.679000 3093887
-0.129214 -0.012214 0.675000 3225726
-0.128449 -0.008308 0.671000 3160190
-0.127491 -0.004440 0.666000 798071
-0.126343 -0.000629 0.660000 9018684
-0.125003 0.003110 0.653000 3094394
-0.124046 0.006789 0.648000 6455674
-0.122897 0.010394 0.642000 3159678
-0.122323 0.013997 0.639000 3094401
-0.121366 0.017510 0.634000 2963841
-0.120026 0.020900 0.627000 3029634
-0.119260 0.024327 0.623000 2963587
-0.118303 0.027663 0.618000 3029633
-0.117537 0.030992 0.614000 3489922
-0.116580 0.034220 0.609000 2767491
-0.115431 0.037329 0.603000 4279429
-0.114666 0.040504 0.599000 4214665
-0.113900 0.043633 0.595000 3490436
-0.113134 0.046717 0.591000 3029635
-0.112369 0.049755 0.587000 3227268
-0.111411 0.052657 0.582000 3822479
-0.110454 0.055502 0.577000 3227013
-0.109689 0.058391 0.573000 3095686
-0.109114 0.061343 0.570000 2768004
-0.108157 0.064033 0.565000 3095684
-0.107583 0.066905 0.562000 3096709
-0.106626 0.069492 0.557000 3096970
-0.105860 0.072153 0.553000 3622533
-0.105094 0.074769 0.549000 4148103
-0.104711 0.077622 0.547000 4674184
-0.103946 0.080157 0.543000 4804249
-0.103754 0.083107 0.542000 13546694
-0.103754 0.086204 0.542000 14864359
-0.104520 0.089960 0.546000 14930668
-0.104903 0.093421 0.548000 15392499
-0.142711 -0.065260 0.753000 7238807
-0.142143 -0.060714 0.750000 6581390
-0.140816 -0.055902 0.743000 5397130
-0.139679 -0.051239 0.737000 4738692
-0.137973 -0.046453 0.728000 3687297
-0.136268 -0.041770 0.719000 4474503
-0.135699 -0.037505 0.716000 3750783
-0.134183 -0.033040 0.708000 3553918
-0.132856 -0.028708 0.701000 3948415
-0.132098 -0.024561 0.697000 4213389
-0.130961 -0.020401 0.691000 3422079
-0.128687 -0.016167 0.679000 3159935
-0.128118 -0.012232 0.676000 3225981
-0.127170 -0.008308 0.671000 3029373
-0.126412 -0.004447 0.667000 2109822
-0.125275 -0.000630 0.661000 7960853
-0.123759 0.003110 0.653000 5779336
-0.122811 0.006789 0.648000 6319990
-0.121674 0.010394 0.642000 3225470
-0.121106 0.013997 0.639000 3094657
-0.120158 0.017510 0.634000 2963840
-0.118831 0.020900 0.627000 2963843
-0.118073 0.024327 0.623000 2963588
-0.117126 0.027663 0.618000 2964097
-0.116368 0.030992 0.614000 3226498
-0.115420 0.034220 0.609000 3095685
-0.114283 0.037329 0.603000 4542345
-0.113525 0.040504 0.599000 4739726
-0.112956 0.043707 0.596000 3755654
-0.112009 0.046717 0.591000 2833284
-0.111250 0.049755 0.587000 2898566
-0.110303 0.052657 0.582000 4018583
-0.109355 0.055502 0.577000 3030663
-0.108597 0.058391 0.573000 3030150
-0.108029 0.061343 0.570000 3029893
-0.107270 0.064147 0.566000 3030405
-0.106702 0.067024 0.563000 3096710
-0.105754 0.069617 0.558000 3162510
-0.104807 0.072153 0.553000 3622276
-0.104238 0.074905 0.550000 4082567
-0.103670 0.077622 0.547000 4739463
-0.102911 0.080157 0.543000 5985955
-0.102722 0.083107 0.542000 14273236
-0.103859 0.087158 0.548000 14799077
-0.103670 0.090125 0.547000 15061485
-0.103859 0.093421 0.548000 15458036
-0.141840 -0.065520 0.756000 7303830
-0.140714 -0.060714 0.750000 6581647
-0.139776 -0.056052 0.745000 5265291
-0.138275 -0.051239 0.737000 4869510
-0.136587 -0.046453 0.728000 3359874
-0.135086 -0.041829 0.720000 5002629
-0.134335 -0.037505 0.716000 3553663
-0.132834 -0.033040 0.708000 3685504
-0.131333 -0.028667 0.700000 3882367
-0.130770 -0.024561 0.697000 4541831
-0.129457 -0.020371 0.690000 3422591
-0.127581 -0.016190 0.680000 3225726
-0.126830 -0.012232 0.676000 3225982
-0.125892 -0.008308 0.671000 2964349
-0.125142 -0.004447 0.667000 3355262
-0.124204 -0.000630 0.662000 6839360
-0.122328 0.003105 0.652000 8422022
-0.121390 0.006778 0.647000 6256250
-0.120264 0.010378 0.641000 3225214
-0.119701 0.013975 0.638000 3160193
-0.118950 0.017510 0.634000 2963841
-0.117637 0.020900 0.627000 2963586
-0.116887 0.024327 0.623000 2963841
-0.115949 0.027663 0.618000 2963587
-0.115010 0.030942 0.613000 2964354
-0.114072 0.034164 0.608000 3488903
-0.113134 0.037329 0.603000 4804488
-0.112384 0.040504 0.599000 5264266
-0.111821 0.043707 0.596000 3952005
-0.110883 0.046717 0.591000 2702213
-0.110320 0.049840 0.588000 2505604
-0.109194 0.052657 0.582000 4280465
-0.108256 0.055502 0.577000 2834054
-0.107506 0.058391 0.573000 2964616
-0.106943 0.061343 0.570000 3226757
-0.106192 0.064147 0.566000 2964871
-0.105442 0.066905 0.562000 3096453
-0.104691 0.069617 0.558000 3293835
-0.103753 0.072153 0.553000 3622277
-0.103190 0.074905 0.550000 4016519
-0.102815 0.077764 0.548000 4739208
-0.102065 0.080305 0.544000 7232163
-0.101690 0.083107 0.542000 14928855
-0.102815 0.087158 0.548000 14733286
-0.102815 0.090290 0.548000 15194094
-0.103003 0.093591 0.549000 15589107
-0.140214 -0.065433 0.755000 7500694
-0.139286 -0.060714 0.750000 6580879
-0.138357 -0.056052 0.745000 5329548
-0.137243 -0.051378 0.739000 5197703
-0.135200 -0.046453 0.728000 3816580
-0.133714 -0.041829 0.720000 4473730
-0.132971 -0.037505 0.716000 3553407
-0.131486 -0.033040 0.708000 3949697
-0.130186 -0.028708 0.701000 3423103
-0.129443 -0.024561 0.697000 4079232
-0.128143 -0.020371 0.690000 3554176
-0.126657 -0.016238 0.682000 3226237
-0.125543 -0.012232 0.676000 3291520
-0.124614 -0.008308 0.671000 3029373
-0.124243 -0.004460 0.669000 2961279
-0.122757 -0.000630 0.661000 4866922
-0.121271 0.003110 0.653000 10272900
-0.120343 0.006789 0.648000 5459837
-0.119043 0.010378 0.641000 3160703
-0.118671 0.013997 0.639000 3094401
-0.117929 0.017538 0.635000 3094915
-0.116443 0.020900 0.627000 2898305
-0.115886 0.024366 0.624000 2963583
-0.114771 0.027663 0.618000 2963589
-0.113843 0.030942 0.613000 3161219
-0.112914 0.034164 0.608000 3620745
-0.111986 0.037329 0.603000 4673415
-0.111243 0.040504 0.599000 4870534
-0.110500 0.043633 0.595000 3819141
-0.109943 0.046796 0.592000 2833030
-0.109200 0.049840 0.588000 2767235
-0.108086 0.052657 0.582000 3687050
-0.107157 0.055502 0.577000 2899590
-0.106043 0.058188 0.571000 2964873
-0.105671 0.061235 0.569000 3095685
-0.105114 0.064147 0.566000 2964873
-0.104557 0.067024 0.563000 3161989
-0.103629 0.069617 0.558000 3359111
-0.102700 0.072153 0.553000 3621766
-0.102143 0.074905 0.550000 4016519
-0.101771 0.077764 0.548000 4345738
-0.101214 0.080452 0.545000 8220834
-0.100657 0.083107 0.542000 14930650
-0.101771 0.087158 0.548000 14799334
-0.101771 0.090290 0.548000 15325935
-0.102329 0.093932 0.551000 15457778
-0.138776 -0.065433 0.755000 7697046
-0.137857 -0.060714 0.750000 6579857
-0.137306 -0.056203 0.747000 5396107
-0.135468 -0.051239 0.737000 5524869
-0.133813 -0.046453 0.728000 4211329
-0.132343 -0.041829 0.720000 3947646
-0.131791 -0.037557 0.717000 3554435
-0.130137 -0.033040 0.708000 4214406
-0.128850 -0.028708 0.701000 2899583
-0.128115 -0.024561 0.697000 3553152
-0.126645 -0.020342 0.689000 3621508
-0.125358 -0.016238 0.682000 3292031
-0.124255 -0.012232 0.676000 3291520
-0.123336 -0.008308 0.671000 3159933
-0.122601 -0.004447 0.667000 2571893
-0.121498 -0.000630 0.661000 2829428
-0.119844 0.003105 0.652000 12027771
-0.119109 0.006789 0.648000 4591743
-0.117822 0.010378 0.641000 3029631
-0.117270 0.013975 0.638000 3094145
-0.116535 0.017510 0.634000 3160450
-0.115432 0.020933 0.628000 2898561
-0.114513 0.024327 0.623000 2964353
-0.113778 0.027708 0.619000 2963335
-0.112675 0.030942 0.613000 3292549
-0.111940 0.034220 0.609000 3818896
-0.110837 0.037329 0.603000 4476809
-0.110102 0.040504 0.599000 4476296
-0.109367 0.043633 0.595000 3621510
-0.108631 0.046717 0.591000 3029382
-0.107896 0.049755 0.587000 3029635
-0.106977 0.052657 0.582000 3160711
-0.106242 0.055598 0.578000 2964612
-0.104955 0.058188 0.571000 2964871
-0.104588 0.061235 0.569000 2899332
-0.104036 0.064147 0.566000 2964871
-0.103117 0.066786 0.561000 3161475
-0.102566 0.069617 0.558000 3424390
-0.101647 0.072153 0.553000 3622023
-0.101279 0.075041 0.551000 4016520
-0.100728 0.077764 0.548000 3951756
-0.099992 0.080305 0.544000 9274286
-0.100911 0.084180 0.549000 14931424
-0.100728 0.087158 0.548000 14865384
-0.100728 0.090290 0.548000 15392239
-0.136974 -0.065260 0.753000 7566998
-0.136429 -0.060714 0.750000 6448530
-0.135519 -0.056052 0.745000 5396363
-0.134064 -0.051239 0.737000 5000066
-0.132427 -0.046453 0.728000 4079487
-0.130971 -0.041829 0.720000 4210298
-0.130426 -0.037557 0.717000 3882375
-0.128789 -0.033040 0.708000 4674186
-0.127515 -0.028708 0.701000 3293056
-0.126970 -0.024596 0.698000 3553664
-0.125332 -0.020342 0.689000 4084103
-0.124059 -0.016238 0.682000 3685761
-0.123331 -0.012269 0.678000 3423105
-0.122058 -0.008308 0.671000 2634621
-0.121330 -0.004447 0.667000 6187883
-0.120421 -0.000630 0.662000 2502269
-0.118602 0.003105 0.652000 6511218
-0.118238 0.006810 0.650000 3420032
-0.116601 0.010378 0.641000 3095167
-0.116237 0.013997 0.639000 3094401
-0.115510 0.017538 0.635000 3226242
-0.114236 0.020933 0.628000 3029889
-0.113327 0.024327 0.623000 3161731
-0.112417 0.027663 0.618000 3160969
-0.111690 0.030992 0.614000 3423623
-0.110780 0.034220 0.609000 3952278
-0.109870 0.037390 0.604000 4345483
-0.108779 0.040436 0.598000 4015497
-0.108415 0.043707 0.596000 3489415
-0.107688 0.046796 0.592000 3029638
-0.106778 0.049755 0.587000 2964099
-0.105869 0.052657 0.582000 3095428
-0.105141 0.055598 0.578000 2964610
-0.103868 0.058188 0.571000 2899076
-0.103504 0.061235 0.569000 2899588
-0.102958 0.064147 0.566000 2964613
-0.102230 0.066905 0.562000 3161218
-0.101503 0.069617 0.558000 3358852
-0.100593 0.072153 0.553000 3622024
-0.100048 0.074905 0.550000 4017032
-0.099684 0.077764 0.548000 3884174
-0.099138 0.080452 0.545000 10787514
-0.099866 0.084180 0.549000 14799334
-0.099866 0.087317 0.549000 14865641
-0.100775 0.091278 0.554000 15458288
-0.135540 -0.065260 0.753000 7434647
-0.135000 -0.060714 0.750000 6381969
-0.134100 -0.056052 0.745000 5330314
-0.132660 -0.051239 0.737000 4540290
-0.131040 -0.046453 0.728000 3948672
-0.129420 -0.041770 0.719000 4537981
-0.128880 -0.037505 0.716000 4211331
-0.127800 -0.033133 0.710000 5132934
-0.126180 -0.028708 0.701000 3688320
-0.125460 -0.024561 0.697000 3488385
-0.124020 -0.020342 0.689000 4473730
-0.122940 -0.016262 0.683000 4078721
-0.122040 -0.012269 0.678000 3489666
-0.120780 -0.008308 0.671000 2109823
-0.120060 -0.004447 0.667000 9728882
-0.119160 -0.000630 0.662000 2240384
-0.118080 0.003124 0.656000 996985
-0.117000 0.006810 0.650000 2307456
-0.115560 0.010394 0.642000 3160703
-0.114840 0.013975 0.638000 3094658
-0.114300 0.017538 0.635000 3226498
-0.112860 0.020900 0.627000 3160706
-0.112320 0.024366 0.624000 3358851
-0.111420 0.027708 0.619000 3358602
-0.110520 0.030992 0.614000 3489415
-0.109620 0.034220 0.609000 4151692
-0.108900 0.037452 0.605000 4148360
-0.108000 0.040571 0.600000 3554951
-0.107280 0.043707 0.596000 3292550
-0.106380 0.046717 0.591000 3095430
-0.105660 0.049755 0.587000 2833028
-0.104760 0.052657 0.582000 3030405
-0.104040 0.055598 0.578000 2899332
-0.103140 0.058391 0.573000 2899077
-0.102420 0.061235 0.569000 2899332
-0.101700 0.064033 0.565000 3030149
-0.101160 0.066905 0.562000 3161476
-0.100440 0.069617 0.558000 3293317
-0.099540 0.072153 0.553000 3622023
-0.099000 0.074905 0.550000 4017545
-0.098640 0.077764 0.548000 3820688
-0.098280 0.080600 0.546000 12304064
-0.099000 0.084333 0.550000 14602469
-0.099180 0.087635 0.551000 14931691
-0.099720 0.091278 0.554000 15458545
-0.133571 -0.060714 0.750000 6316943
-0.132681 -0.056052 0.745000 5330569
-0.131256 -0.051239 0.737000 4343938
-0.129831 -0.046517 0.729000 3883905
-0.128229 -0.041829 0.720000 4013440
-0.127516 -0.037505 0.716000 3882367
-0.126626 -0.033180 0.711000 4804481
-0.124845 -0.028708 0.701000 4343936
-0.124310 -0.024596 0.698000 3554689
-0.122708 -0.020342 0.689000 4079485
-0.121817 -0.016286 0.684000 3750784
-0.120927 -0.012287 0.679000 3357828
-0.119502 -0.008308 0.671000 2960256
-0.118790 -0.004447 0.667000 9541754
-0.118077 -0.000631 0.663000 1912963
-0.116652 0.003119 0.655000 2111104
-0.115762 0.006810 0.650000 2766975
-0.114337 0.010394 0.642000 3160191
-0.113625 0.013975 0.638000 3160195
-0.112912 0.017510 0.634000 3292802
-0.111844 0.020933 0.628000 3423875
-0.110953 0.024327 0.623000 3949955
-0.110241 0.027708 0.619000 3884938
-0.109350 0.030992 0.614000 3488391
-0.108460 0.034220 0.609000 4412290
-0.107748 0.037452 0.605000 4147846
-0.106679 0.040504 0.599000 3424389
-0.106145 0.043707 0.596000 3555461
-0.105076 0.046638 0.590000 3029638
-0.104542 0.049755 0.587000 2963589
-0.103651 0.052657 0.582000 2964613
-0.103117 0.055694 0.579000 2964869
-0.102227 0.058493 0.574000 2899334
-0.101514 0.061343 0.570000 2899333
-0.100624 0.064033 0.565000 3095941
-0.100090 0.066905 0.562000 3095687
-0.099555 0.069742 0.559000 3228038
-0.098487 0.072153 0.553000 3621511
-0.097952 0.074905 0.550000 3951754
-0.097596 0.077764 0.548000 3886483
-0.097240 0.080600 0.546000 13090758
-0.098130 0.084487 0.551000 14667748
-0.098130 0.087635 0.551000 14996973
-0.098843 0.091443 0.555000 15458802
-0.132143 -0.060714 0.750000 6317966
-0.131262 -0.056052 0.745000 5264521
-0.129852 -0.051239 0.737000 4212610
-0.128443 -0.046517 0.729000 3752321
-0.126681 -0.041770 0.719000 3488895
-0.126152 -0.037505 0.716000 3554430
-0.125271 -0.033180 0.711000 4476545
-0.123510 -0.028708 0.701000 5000325
-0.122981 -0.024596 0.698000 3620227
-0.121395 -0.020342 0.689000 3685501
-0.120514 -0.016286 0.684000 3356800
-0.119810 -0.012305 0.680000 3225985
-0.118224 -0.008308 0.671000 3813500
-0.117343 -0.004440 0.666000 9341054
-0.116814 -0.000631 0.663000 1586811
-0.115581 0.003124 0.656000 3225472
-0.114524 0.006810 0.650000 3225471
-0.113467 0.010427 0.644000 3160192
-0.112410 0.013975 0.638000 3225478
-0.111705 0.017510 0.634000 3357826
-0.110648 0.020933 0.628000 3687305
-0.109943 0.024366 0.624000 4475272
-0.109062 0.027708 0.619000 4477578
-0.108181 0.030992 0.614000 3423366
-0.107300 0.034220 0.609000 4609669
-0.106595 0.037452 0.605000 4147336
-0.105890 0.040639 0.601000 3358087
-0.105186 0.043780 0.597000 3819400
-0.103952 0.046638 0.590000 3028867
-0.103424 0.049755 0.587000 3029381
-0.102543 0.052657 0.582000 2898822
-0.102014 0.055694 0.579000 2964871
-0.101310 0.058595 0.575000 2964871
-0.100429 0.061343 0.570000 2899333
-0.099548 0.064033 0.565000 3227268
-0.098843 0.066786 0.561000 2965127
-0.098490 0.069742 0.559000 3228038
-0.097610 0.072284 0.554000 3622023
-0.096905 0.074905 0.550000 3886476
-0.096552 0.077764 0.548000 3886492
-0.096376 0.080748 0.547000 13884375
-0.097081 0.084487 0.551000 14667491
-0.097081 0.087635 0.551000 15062252
-0.097786 0.091443 0.555000 15392499
-0.130366 -0.060552 0.748000 6185869
-0.129843 -0.056052 0.745000 5264777
-0.128449 -0.051239 0.737000 4278402
-0.127403 -0.046645 0.731000 3817857
-0.125311 -0.041770 0.719000 3488638
-0.124789 -0.037505 0.716000 3487869
-0.123917 -0.033180 0.711000 4212864
-0.122174 -0.028708 0.701000 4607882
-0.121477 -0.024561 0.697000 3423108
-0.120257 -0.020371 0.690000 3751038
-0.119211 -0.016286 0.684000 3160447
-0.118514 -0.012305 0.680000 3159679
-0.117120 -0.008320 0.672000 4801912
-0.116074 -0.004440 0.666000 10925442
-0.115203 -0.000630 0.661000 2634866
-0.114331 0.003124 0.656000 3225727
-0.113460 0.006820 0.651000 3159935
-0.112414 0.010443 0.645000 3094401
-0.111194 0.013975 0.638000 3160456
-0.110671 0.017538 0.635000 3422850
-0.109451 0.020933 0.628000 4081039
-0.108754 0.024366 0.624000 4542094
-0.107883 0.027708 0.619000 4081545
-0.106837 0.030942 0.613000 3159941
-0.106140 0.034220 0.609000 4080008
-0.105791 0.037576 0.607000 4870538
-0.104397 0.040504 0.599000 3293321
-0.104049 0.043780 0.597000 4675467
-0.103003 0.046717 0.591000 3094656
-0.102306 0.049755 0.587000 2898821
-0.101609 0.052748 0.583000 2964614
-0.100911 0.055694 0.579000 2964616
-0.100214 0.058595 0.575000 2965127
-0.099343 0.061343 0.570000 2833797
-0.098471 0.064033 0.565000 3096195
-0.097949 0.066905 0.562000 3030662
-0.097426 0.069742 0.559000 3293829
-0.096554 0.072284 0.554000 3622023
-0.096031 0.075041 0.551000 3951502
-0.095509 0.077764 0.548000 6044325
-0.095334 0.080748 0.547000 14341351
-0.096206 0.084640 0.552000 14731747
-0.096206 0.087794 0.552000 15128299
-0.096729 0.091443 0.555000 15457779
-0.128941 -0.060552 0.748000 6056080
-0.128424 -0.056052 0.745000 5198729
-0.127045 -0.051239 0.737000 4343682
-0.126010 -0.046645 0.731000 3882881
-0.124114 -0.041829 0.720000 3487871
-0.123425 -0.037505 0.716000 3357822
-0.122563 -0.033180 0.711000 3949184
-0.120839 -0.028708 0.701000 4147846
-0.120150 -0.024561 0.697000 3225474
-0.119115 -0.020401 0.691000 3817856
-0.117736 -0.016262 0.683000 2897790
-0.116874 -0.012269 0.678000 3094398
-0.115840 -0.008320 0.672000 5847162
-0.114806 -0.004440 0.666000 12426626
-0.113944 -0.000630 0.661000 3682690
-0.112910 0.003119 0.655000 3160447
-0.112220 0.006820 0.651000 3159936
-0.111013 0.010427 0.644000 2963842
-0.110151 0.013997 0.639000 3095174
-0.109462 0.017538 0.635000 3423106
-0.108255 0.020933 0.628000 4408714
-0.107393 0.024327 0.623000 4606602
-0.106704 0.027708 0.619000 3686792
-0.105670 0.030942 0.613000 2898053
-0.104980 0.034220 0.609000 3552646
-0.104463 0.037514 0.606000 5588870
-0.103601 0.040639 0.601000 3227527
-0.102911 0.043780 0.597000 5459594
-0.101705 0.046638 0.590000 3225731
-0.101188 0.049755 0.587000 2767748
-0.100670 0.052838 0.584000 3030661
-0.099636 0.055598 0.578000 2964616
-0.099119 0.058595 0.575000 3030663
-0.098257 0.061343 0.570000 2702726
-0.097395 0.064033 0.565000 2965378
-0.096706 0.066786 0.561000 3031174
-0.096361 0.069742 0.559000 3425158
-0.095499 0.072284 0.554000 3622280
-0.094982 0.075041 0.551000 3950990
-0.094465 0.077764 0.548000 8155301
-0.094637 0.081043 0.549000 14802407
-0.095327 0.084793 0.553000 14732515
-0.095499 0.088112 0.554000 15258607
-0.095671 0.091443 0.555000 15523827
-0.127516 -0.060552 0.748000 5857426
-0.127005 -0.056052 0.745000 5198730
-0.125641 -0.051239 0.737000 4343681
-0.124618 -0.046645 0.731000 3882881
-0.123084 -0.041945 0.722000 3423103
-0.122061 -0.037505 0.716000 3292287
-0.121209 -0.033180 0.711000 3883392
-0.119504 -0.028708 0.701000 3884929
-0.118822 -0.024561 0.697000 3356543
-0.117799 -0.020401 0.691000 4541827
-0.116435 -0.016262 0.683000 3226236
-0.115583 -0.012269 0.678000 3159933
-0.114560 -0.008320 0.672000 5458300
-0.113537 -0.004440 0.666000 9404035
-0.112685 -0.000630 0.661000 5400209
-0.111832 0.003124 0.656000 3029887
-0.110980 0.006820 0.651000 3160449
-0.109787 0.010427 0.644000 3095171
-0.108934 0.013997 0.639000 3160707
-0.108423 0.017566 0.636000 3357571
-0.107059 0.020933 0.628000 3751301
-0.106377 0.024366 0.624000 4607110
-0.105525 0.027708 0.619000 3818887
-0.104502 0.030942 0.613000 2963333
-0.103820 0.034220 0.609000 3291267
-0.103138 0.037452 0.605000 4538755
-0.102456 0.040639 0.601000 3424388
-0.101774 0.043780 0.597000 4736393
-0.100922 0.046796 0.592000 3094661
-0.100240 0.049840 0.588000 2964099
-0.099388 0.052748 0.583000 2964867
-0.098535 0.055598 0.578000 2964615
-0.098024 0.058595 0.575000 2965127
-0.097171 0.061343 0.570000 2833287
-0.096319 0.064033 0.565000 3030657
-0.095808 0.066905 0.562000 3096709
-0.095296 0.069742 0.559000 3425159
-0.094614 0.072414 0.555000 3687304
-0.093932 0.075041 0.551000 3687821
-0.093421 0.077764 0.548000 10191526
-0.093591 0.081043 0.549000 14799846
-0.094614 0.085100 0.555000 14797283
-0.094614 0.088271 0.555000 15325938
-0.094785 0.091608 0.556000 15523059
-0.126091 -0.060552 0.748000 5723542
-0.125586 -0.056052 0.745000 5198472
-0.124237 -0.051239 0.737000 4408961
-0.123226 -0.046645 0.731000 3817601
-0.121709 -0.041945 0.722000 3423102
-0.120697 -0.037505 0.716000 3226750
-0.119854 -0.033180 0.711000 3817600
-0.118169 -0.028708 0.701000 3555713
-0.117494 -0.024561 0.697000 3552126
-0.116820 -0.020460 0.693000 5261183
-0.115303 -0.016286 0.684000 3488125
-0.114460 -0.012287 0.679000 3225982
-0.113280 -0.008320 0.672000 5059965
-0.112437 -0.004447 0.667000 6380150
-0.111426 -0.000630 0.661000 7050897
-0.110583 0.003124 0.656000 2897281
-0.109740 0.006820 0.651000 3160962
-0.108560 0.010427 0.644000 3225986
-0.107717 0.013997 0.639000 3225985
-0.107043 0.017538 0.635000 3227268
-0.106031 0.020967 0.629000 3029126
-0.105189 0.024366 0.624000 4542084
-0.104514 0.027752 0.620000 3885707
-0.103166 0.030891 0.612000 2963588
-0.102660 0.034220 0.609000 3029634
-0.102154 0.037514 0.606000 3488900
-0.101143 0.040571 0.600000 3687303
-0.100637 0.043780 0.597000 3951242
-0.099794 0.046796 0.592000 2963590
-0.099120 0.049840 0.588000 3095428
-0.098446 0.052838 0.584000 2899332
-0.097434 0.055598 0.578000 2899079
-0.096929 0.058595 0.575000 2965127
-0.096423 0.061558 0.572000 2898822
-0.095243 0.064033 0.565000 3096708
-0.094737 0.066905 0.562000 3096966
-0.094231 0.069742 0.559000 3425414
-0.093557 0.072414 0.555000 3753609
-0.092883 0.075041 0.551000 3421842
-0.092546 0.077906 0.549000 12165049
-0.093220 0.081633 0.553000 14798567
-0.093557 0.085100 0.555000 14864101
-0.093557 0.088271 0.555000 15459060
-0.124167 -0.056052 0.745000 5067143
-0.123167 -0.051378 0.739000 4277889
-0.121833 -0.046645 0.731000 3686273
-0.120500 -0.042003 0.723000 3423356
-0.119500 -0.037557 0.717000 3291518
-0.118500 -0.033180 0.711000 3818368
-0.117167 -0.028790 0.703000 3489154
-0.116167 -0.024561 0.697000 3356028
-0.115500 -0.020460 0.693000 4670332
-0.113833 -0.016262 0.683000 3554942
-0.113000 -0.012269 0.678000 3357311
-0.112333 -0.008345 0.674000 3879805
-0.111667 -0.004467 0.670000 3610729
-0.110167 -0.000630 0.661000 8231313
-0.109167 0.003119 0.655000 2436740
-0.108333 0.006810 0.650000 3160706
-0.107333 0.010427 0.644000 3291522
-0.106500 0.013997 0.639000 3423358
-0.105667 0.017510 0.634000 3556229
-0.104833 0.020967 0.629000 3423367
-0.104000 0.024366 0.624000 4806018
-0.103333 0.027752 0.620000 4476559
-0.102333 0.030992 0.614000 3029122
-0.101500 0.034220 0.609000 3029633
-0.101000 0.037514 0.606000 3291525
-0.100167 0.040639 0.601000 3753353
-0.099500 0.043780 0.597000 4872843
-0.098500 0.046717 0.591000 3094662
-0.098000 0.049840 0.588000 3030405
-0.097333 0.052838 0.584000 2964612
-0.096333 0.055598 0.578000 2964359
-0.095833 0.058595 0.575000 2899078
-0.095000 0.061343 0.570000 2964358
-0.094167 0.064033 0.565000 2965126
-0.093667 0.066905 0.562000 3096711
-0.093000 0.069617 0.558000 3425413
-0.092500 0.072414 0.555000 3818890
-0.092000 0.075177 0.552000 4537750
-0.091500 0.077906 0.549000 13419725
-0.092333 0.081781 0.554000 14799335
-0.092500 0.085100 0.555000 14930407
-0.092667 0.088430 0.556000 15459061
-0.122748 -0.056052 0.745000 4934789
-0.121430 -0.051239 0.737000 4212098
-0.120441 -0.046645 0.731000 3555201
-0.118629 -0.041829 0.720000 3358077
-0.118464 -0.037662 0.719000 3357823
-0.116981 -0.033133 0.710000 3754368
-0.115828 -0.028790 0.703000 3423104
-0.114839 -0.024561 0.697000 3224700
-0.114180 -0.020460 0.693000 4079997
-0.112532 -0.016262 0.683000 3620733
-0.111709 -0.012269 0.678000 3488896
-0.111050 -0.008345 0.674000 2766721
-0.110390 -0.004467 0.670000 796276
-0.108743 -0.000629 0.660000 9412230
-0.108084 0.003124 0.656000 1981568
-0.107095 0.006810 0.650000 3160706
-0.106107 0.010427 0.644000 3291777
-0.105448 0.014019 0.640000 3686018
-0.104459 0.017510 0.634000 3884678
-0.103635 0.020967 0.629000 3884421
-0.102811 0.024366 0.624000 5001349
-0.102482 0.027842 0.622000 5068937
-0.101164 0.030992 0.614000 3029125
-0.100340 0.034220 0.609000 3095170
-0.099681 0.037452 0.605000 3030149
-0.099187 0.040707 0.602000 3817607
-0.098363 0.043780 0.597000 5723272
-0.097374 0.046717 0.591000 3291014
-0.096880 0.049840 0.588000 2964870
-0.096221 0.052838 0.584000 2964871
-0.095232 0.055598 0.578000 2964614
-0.094738 0.058595 0.575000 2898822
-0.094079 0.061450 0.571000 2964615
-0.093090 0.064033 0.565000 2899591
-0.092596 0.066905 0.562000 3096710
-0.092102 0.069742 0.559000 3359620
-0.091443 0.072414 0.555000 3818377
-0.090949 0.075177 0.552000 5591446
-0.090784 0.078190 0.551000 14665682
-0.091443 0.081929 0.555000 14865127
-0.091443 0.085100 0.555000 14996714
-0.091772 0.088590 0.557000 15460084
-0.121329 -0.056052 0.745000 3949956
-0.119863 -0.051170 0.736000 4081539
-0.118723 -0.046517 0.729000 3686273
-0.117746 -0.042003 0.723000 3488893
-0.117094 -0.037662 0.719000 3488895
-0.115791 -0.033180 0.711000 3621759
-0.114489 -0.028790 0.703000 3357311
-0.113511 -0.024561 0.697000 3356283
-0.113023 -0.020490 0.694000 3948926
-0.111231 -0.016262 0.683000 3686268
-0.110417 -0.012269 0.678000 3555201
-0.109766 -0.008345 0.674000 2832516
-0.109114 -0.004467 0.670000 1978751
-0.107486 -0.000629 0.660000 6053755
-0.106834 0.003124 0.656000 2635133
-0.105857 0.006810 0.650000 3554690
-0.105043 0.010443 0.645000 3291520
-0.104229 0.014019 0.640000 3752581
-0.103577 0.017566 0.636000 4212616
-0.102437 0.020967 0.629000 4082819
-0.101623 0.024366 0.624000 4673160
-0.100971 0.027752 0.620000 4541058
-0.100157 0.031043 0.615000 3291016
-0.099180 0.034220 0.609000 3095170
-0.098529 0.037452 0.605000 3292806
-0.098040 0.040707 0.602000 3752325
-0.097063 0.043707 0.596000 4671621
-0.096086 0.046638 0.590000 3160454
-0.095760 0.049840 0.588000 2965128
-0.095109 0.052838 0.584000 2964873
-0.094131 0.055598 0.578000 2964614
-0.093480 0.058493 0.574000 2899078
-0.092829 0.061343 0.570000 3095431
-0.092177 0.064147 0.566000 2965127
-0.091526 0.066905 0.562000 3096453
-0.091037 0.069742 0.559000 3424898
-0.090223 0.072284 0.554000 3948936
-0.089897 0.075177 0.552000 6381718
-0.089734 0.078190 0.551000 14930647
-0.090386 0.081929 0.555000 14865383
-0.090549 0.085253 0.556000 15128045
-0.090874 0.088749 0.558000 15459059
-0.118622 -0.051239 0.737000 4016258
-0.117656 -0.046645 0.731000 3817345
-0.116369 -0.042003 0.723000 3554174
-0.115725 -0.037662 0.719000 3555200
-0.114759 -0.033273 0.713000 3424129
-0.113150 -0.028790 0.703000 3225981
-0.112184 -0.024561 0.697000 3487611
-0.111701 -0.020490 0.694000 3752575
-0.109930 -0.016262 0.683000 3816572
-0.109126 -0.012269 0.678000 3621503
-0.108482 -0.008345 0.674000 2961789
-0.107677 -0.004460 0.669000 3094144
-0.106229 -0.000629 0.660000 2700671
-0.105585 0.003124 0.656000 3292285
-0.104619 0.006810 0.650000 3948168
-0.103653 0.010427 0.644000 3292034
-0.102849 0.013997 0.639000 3752836
-0.102044 0.017510 0.634000 4541063
-0.101239 0.020967 0.629000 4280709
-0.100595 0.024405 0.625000 4344200
-0.099790 0.027752 0.620000 4014469
-0.098986 0.031043 0.615000 3555466
-0.098020 0.034220 0.609000 3160193
-0.097376 0.037452 0.605000 3555976
-0.096893 0.040707 0.602000 3752582
-0.095767 0.043633 0.595000 3555460
-0.095123 0.046717 0.591000 3029638
-0.094640 0.049840 0.588000 2964871
-0.093835 0.052748 0.583000 2965127
-0.093191 0.055694 0.579000 2899077
-0.092548 0.058595 0.575000 2965127
-0.091743 0.061343 0.570000 3161223
-0.091260 0.064260 0.567000 3030664
-0.090455 0.066905 0.562000 3030918
-0.089811 0.069617 0.558000 3425156
-0.089168 0.072284 0.554000 4080267
-0.089007 0.075313 0.553000 7232676
-0.089168 0.078615 0.554000 15193567
-0.089329 0.081929 0.555000 14930666
-0.089650 0.085407 0.557000 15260655
-0.089811 0.088749 0.558000 15523827
-0.117059 -0.051170 0.736000 3819137
-0.116264 -0.046645 0.731000 3686017
-0.114991 -0.042003 0.723000 3751294
-0.114037 -0.037557 0.717000 3555458
-0.113401 -0.033273 0.713000 3357826
-0.111810 -0.028790 0.703000 3225724
-0.110856 -0.024561 0.697000 3357050
-0.110220 -0.020460 0.693000 3622016
-0.109107 -0.016333 0.686000 4079227
-0.107834 -0.012269 0.678000 3489405
-0.107357 -0.008357 0.675000 4545397
-0.106562 -0.004467 0.670000 2701184
-0.104971 -0.000629 0.660000 3161730
-0.104335 0.003124 0.656000 3293054
-0.103540 0.006820 0.651000 3686541
-0.102586 0.010443 0.645000 3291523
-0.101631 0.013997 0.639000 4014979
-0.100836 0.017510 0.634000 4542087
-0.100041 0.020967 0.629000 4673159
-0.099405 0.024405 0.625000 4146568
-0.098610 0.027752 0.620000 4277128
-0.097814 0.031043 0.615000 3886732
-0.096860 0.034220 0.609000 3160448
-0.096224 0.037452 0.605000 3557002
-0.095747 0.040707 0.602000 3883142
-0.094474 0.043560 0.594000 3357570
-0.094156 0.046796 0.592000 2964358
-0.093520 0.049840 0.588000 3030151
-0.092725 0.052748 0.583000 3095941
-0.092089 0.055694 0.579000 3029637
-0.091293 0.058493 0.574000 2965127
-0.090657 0.061343 0.570000 3095686
-0.090180 0.064260 0.567000 2965129
-0.089226 0.066786 0.561000 3030919
-0.088749 0.069617 0.558000 3425157
-0.088112 0.072284 0.554000 3622031
-0.088112 0.075450 0.554000 8944049
-0.088271 0.078757 0.555000 15129319
-0.088590 0.082224 0.557000 14931181
-0.088590 0.085407 0.557000 15392241
-0.088908 0.088908 0.559000 15524082
-0.115657 -0.051170 0.736000 3620988
