# .PCD v.7 - Point Cloud Data file format
VERSION .7
FIELDS x y z rgb
SIZE 4 4 4 4
TYPE F F F I
COUNT 1 1 1 1
WIDTH 1287
HEIGHT 1
POINTS 1287
DATA ascii
-0.143067 -0.054267 0.740000 4347549
-0.144033 -0.050376 0.745000 4145822
-0.145000 -0.046429 0.750000 4542369
-0.145580 -0.042311 0.753000 4804518
-0.146160 -0.038160 0.756000 5068444
-0.146933 -0.034019 0.760000 4806312
-0.147900 -0.029871 0.765000 4410014
-0.148867 -0.025667 0.770000 4082843
-0.149833 -0.021405 0.775000 4278682
-0.150607 -0.017064 0.779000 4016795
-0.126917 -0.200163 0.663000 4677038
-0.126917 -0.196374 0.663000 14458827
-0.126726 -0.192295 0.662000 16447227
-0.126343 -0.187943 0.660000 16183285
-0.125577 -0.183055 0.656000 15985396
-0.124620 -0.177940 0.651000 15787763
-0.123854 -0.173150 0.647000 15327989
-0.121366 -0.166048 0.634000 10990050
-0.120983 -0.161912 0.632000 10132927
-0.121174 -0.158551 0.633000 8946866
-0.121749 -0.155669 0.636000 10590642
-0.122131 -0.152512 0.638000 11315897
-0.122897 -0.149800 0.642000 9475503
-0.123471 -0.146814 0.645000 8684718
-0.123854 -0.143572 0.647000 8487854
-0.124620 -0.140740 0.651000 8027308
-0.125386 -0.137862 0.655000 7699368
-0.125769 -0.134529 0.657000 7040423
-0.126343 -0.131371 0.660000 6515872
-0.126917 -0.128180 0.663000 6054306
-0.127683 -0.125142 0.667000 5592993
-0.128257 -0.121876 0.670000 5265311
-0.128640 -0.118400 0.672000 4936091
-0.129406 -0.115242 0.676000 4542621
-0.130554 -0.112368 0.682000 4279707
-0.130937 -0.108789 0.684000 4017307
-0.131511 -0.105340 0.687000 3951513
-0.132086 -0.101857 0.690000 3557274
-0.133043 -0.098624 0.695000 8292528
-0.133617 -0.095061 0.698000 8355766
-0.134000 -0.091333 0.700000 5609407
-0.134957 -0.087957 0.705000 11697032
-0.135914 -0.084524 0.710000 12369300
-0.136489 -0.080807 0.713000 12886938
-0.137254 -0.077163 0.717000 6444183
-0.137829 -0.073371 0.720000 3818650
-0.138403 -0.069546 0.723000 3622301
-0.139360 -0.065867 0.728000 3622809
-0.140126 -0.062046 0.732000 3753881
-0.141083 -0.058258 0.737000 4082073
-0.141657 -0.054267 0.740000 4280991
-0.142614 -0.050376 0.745000 4410271
-0.143571 -0.046429 0.750000 5198495
-0.144146 -0.042311 0.753000 5001122
-0.145103 -0.038261 0.758000 6054299
-0.145677 -0.034064 0.761000 4740004
-0.146826 -0.029950 0.767000 4212127
-0.147400 -0.025667 0.770000 3951259
-0.148357 -0.021405 0.775000 4147357
-0.149314 -0.017086 0.780000 4082075
-0.125654 -0.200163 0.663000 4540594
-0.125465 -0.196078 0.662000 15585741
-0.125465 -0.192295 0.662000 16447480
-0.125275 -0.188228 0.661000 16183029
-0.124328 -0.183055 0.656000 15985395
-0.123380 -0.177940 0.651000 15787764
-0.122622 -0.173150 0.647000 15327989
-0.119779 -0.165524 0.632000 11184868
-0.119779 -0.161912 0.632000 9802933
-0.120158 -0.158802 0.634000 8487093
-0.120537 -0.155669 0.636000 11051954
-0.121106 -0.152751 0.639000 10925247
-0.122053 -0.150267 0.644000 9144498
-0.122432 -0.147042 0.646000 8618924
-0.122622 -0.143572 0.647000 8422062
-0.123570 -0.140956 0.652000 7961003
-0.124328 -0.138072 0.656000 7501224
-0.124707 -0.134733 0.658000 6908328
-0.125086 -0.131371 0.660000 6252449
-0.125654 -0.128180 0.663000 5922466
-0.126412 -0.125142 0.667000 5396128
-0.127170 -0.122058 0.671000 5133982
-0.127739 -0.118752 0.674000 4805015
-0.128118 -0.115242 0.676000 4477085
-0.129255 -0.112368 0.682000 4148379
-0.129634 -0.108789 0.684000 4016794
-0.130203 -0.105340 0.687000 3885721
-0.130961 -0.102005 0.691000 3753113
-0.131719 -0.098624 0.695000 8094149
-0.132667 -0.095333 0.700000 7652567
-0.133235 -0.091725 0.703000 6659301
-0.133614 -0.087957 0.705000 7166856
-0.134562 -0.084524 0.710000 7366303
-0.135130 -0.080807 0.713000 7890835
-0.135889 -0.077163 0.717000 5130643
-0.136836 -0.073575 0.722000 3753883
-0.137405 -0.069738 0.725000 3622302
-0.138163 -0.065957 0.729000 3753625
-0.139110 -0.062215 0.734000 3819418
-0.139679 -0.058258 0.737000 4081817
-0.140248 -0.054267 0.740000 5199265
-0.141195 -0.050376 0.745000 4742817
-0.142522 -0.046552 0.752000 4805021
-0.143090 -0.042424 0.755000 4738206
-0.144038 -0.038362 0.760000 5527962
-0.144607 -0.034153 0.763000 4015776
-0.145365 -0.029950 0.767000 4081312
-0.145933 -0.025667 0.770000 3951516
-0.146881 -0.021405 0.775000 4082080
-0.147829 -0.017086 0.780000 4016539
-0.124391 -0.200163 0.663000 4338347
-0.124391 -0.196374 0.663000 16695512
-0.124204 -0.192295 0.662000 16447480
-0.124016 -0.188228 0.661000 16117493
-0.123078 -0.183055 0.656000 15984883
-0.122328 -0.178213 0.652000 15787763
-0.121952 -0.173952 0.650000 15329015
-0.118763 -0.165786 0.633000 11380706
-0.118763 -0.162169 0.633000 9536948
-0.119138 -0.159052 0.635000 8028083
-0.119701 -0.156158 0.638000 11573939
-0.119889 -0.152751 0.639000 10526135
-0.121014 -0.150500 0.645000 8881585
-0.121202 -0.147042 0.646000 8553645
-0.121390 -0.143572 0.647000 8356525
-0.122515 -0.141172 0.653000 7895466
-0.123266 -0.138283 0.657000 7304105
-0.123453 -0.134733 0.658000 6712231
-0.124016 -0.131570 0.661000 5989538
-0.124767 -0.128567 0.665000 5725601
-0.125517 -0.125517 0.669000 5264543
-0.126080 -0.122240 0.672000 5002397
-0.126455 -0.118752 0.674000 4673434
-0.127206 -0.115583 0.678000 4411292
-0.128144 -0.112532 0.683000 4016795
-0.128707 -0.109107 0.686000 3950746
-0.129270 -0.105647 0.689000 3819673
-0.130020 -0.102300 0.693000 3949976
-0.130958 -0.099050 0.698000 7952292
-0.131521 -0.095470 0.701000 6907322
-0.131896 -0.091725 0.703000 7704542
-0.132271 -0.087957 0.705000 2633869
-0.133210 -0.084524 0.710000 2294682
-0.133960 -0.080920 0.714000 2835348
-0.134523 -0.077163 0.717000 3875475
-0.135461 -0.073575 0.722000 3622298
-0.136211 -0.069834 0.726000 3622300
-0.136774 -0.065957 0.729000 3818905
-0.137712 -0.062215 0.734000 3884698
-0.138838 -0.058495 0.740000 4081818
-0.139213 -0.054413 0.742000 6051229
-0.140151 -0.050511 0.747000 5068960
-0.141090 -0.046552 0.752000 4476574
-0.141652 -0.042424 0.755000 4409757
-0.142590 -0.038362 0.760000 5068188
-0.143153 -0.034153 0.763000 3230112
-0.143904 -0.029950 0.767000 4016290
-0.144842 -0.025733 0.772000 3951260
-0.145780 -0.021460 0.777000 4016544
-0.146718 -0.017130 0.782000 3950747
-0.123500 -0.200767 0.665000 4008356
-0.123500 -0.196967 0.665000 16707810
-0.123129 -0.192586 0.663000 16447223
-0.122757 -0.188228 0.661000 16117494
-0.121829 -0.183055 0.656000 15919347
-0.121086 -0.178213 0.652000 15788019
-0.120714 -0.173952 0.650000 15131640
-0.117557 -0.165786 0.633000 9211617
-0.117557 -0.162169 0.633000 8222130
-0.118114 -0.159303 0.636000 10060721
-0.118486 -0.156158 0.638000 10326963
-0.118671 -0.152751 0.639000 9603758
-0.119971 -0.150733 0.646000 8881840
-0.120157 -0.147270 0.647000 8619438
-0.120714 -0.144238 0.650000 8422316
-0.121271 -0.141172 0.653000 7830185
-0.122014 -0.138283 0.657000 7239081
-0.122571 -0.135143 0.660000 6581670
-0.122943 -0.131770 0.662000 5989539
-0.123686 -0.128760 0.666000 5660576
-0.124429 -0.125705 0.670000 5199262
-0.124800 -0.122240 0.672000 5002396
-0.125543 -0.119105 0.676000 4542620
-0.126100 -0.115753 0.679000 4280476
-0.126843 -0.112532 0.683000 3951515
-0.127586 -0.109266 0.687000 3950234
-0.127957 -0.105647 0.689000 3753881
-0.128886 -0.102448 0.694000 3883927
-0.130000 -0.099333 0.700000 7491202
-0.130186 -0.095470 0.701000 7078813
-0.130743 -0.091855 0.704000 7898070
-0.131300 -0.088207 0.707000 3420051
-0.131857 -0.084524 0.710000 2961300
-0.132600 -0.080920 0.714000 3421589
-0.133529 -0.077378 0.719000 3880850
-0.134271 -0.073677 0.723000 3687833
-0.135200 -0.070027 0.728000 3622298
-0.135757 -0.066138 0.731000 3818906
-0.136686 -0.062385 0.736000 3950234
-0.137429 -0.058495 0.740000 4016539
-0.137986 -0.054487 0.743000 5132697
-0.138729 -0.050511 0.747000 4278176
-0.139843 -0.046614 0.753000 4409502
-0.140400 -0.042480 0.756000 4343195
-0.141143 -0.038362 0.760000 5132957
-0.141700 -0.034153 0.763000 3885472
-0.142443 -0.029950 0.767000 4675492
-0.143557 -0.025767 0.773000 4082333
-0.144671 -0.021515 0.779000 4016287
-0.145229 -0.017130 0.782000 3950492
-0.122417 -0.201069 0.666000 3606433
-0.122417 -0.197263 0.666000 16703202
-0.121866 -0.192586 0.663000 16446455
-0.121498 -0.188228 0.661000 16117493
-0.120579 -0.183055 0.656000 15919091
-0.120028 -0.178487 0.653000 15722227
-0.119476 -0.173952 0.650000 14934008
-0.116351 -0.165786 0.633000 7046107
-0.116351 -0.162169 0.633000 6907826
-0.116903 -0.159303 0.636000 12034230
-0.117270 -0.156158 0.638000 9080244
-0.117822 -0.153230 0.641000 8619695
-0.118741 -0.150733 0.646000 8947631
-0.119109 -0.147497 0.648000 8619438
-0.119660 -0.144460 0.651000 8422569
-0.120579 -0.141821 0.656000 7764393
-0.120763 -0.138283 0.657000 7173797
-0.121498 -0.135348 0.661000 6449830
-0.122233 -0.132367 0.665000 5989026
-0.122417 -0.128760 0.666000 5528992
-0.123336 -0.125892 0.671000 5133471
-0.123520 -0.122240 0.672000 5001884
-0.124255 -0.119105 0.676000 4477087
-0.125358 -0.116265 0.682000 4148892
-0.125726 -0.112697 0.684000 3951515
-0.126277 -0.109266 0.687000 3950233
-0.126829 -0.105800 0.690000 3688344
-0.127748 -0.102595 0.695000 3818905
-0.128667 -0.099333 0.700000 7024262
-0.128850 -0.095470 0.701000 7237818
-0.129402 -0.091855 0.704000 8040633
-0.130137 -0.088331 0.708000 4140685
-0.130689 -0.084643 0.711000 3688335
-0.131240 -0.080920 0.714000 3947925
-0.132343 -0.077486 0.720000 3818390
-0.133262 -0.073881 0.725000 3688091
-0.133813 -0.070027 0.728000 3622554
-0.134365 -0.066138 0.731000 3818906
-0.135284 -0.062385 0.736000 4016537
-0.136019 -0.058495 0.740000 3950746
-0.136570 -0.054487 0.743000 4214938
-0.137490 -0.050579 0.748000 3492254
-0.138409 -0.046614 0.753000 4343455
-0.139328 -0.042592 0.758000 4212381
-0.139879 -0.038412 0.761000 5198749
-0.140614 -0.034243 0.765000 4541086
-0.141166 -0.029989 0.768000 5334179
-0.142452 -0.025833 0.775000 4147356
-0.143188 -0.021515 0.779000 3951008
-0.144107 -0.017173 0.784000 3885211
-0.121330 -0.205182 0.667000 12622217
-0.121330 -0.201370 0.667000 4595358
-0.121330 -0.197559 0.667000 16710881
-0.120603 -0.192586 0.663000 16381174
-0.120239 -0.188228 0.661000 16117237
-0.119511 -0.183334 0.657000 15919347
-0.118784 -0.178487 0.653000 15787763
-0.118238 -0.173952 0.650000 14473720
-0.117510 -0.169190 0.646000 8028885
-0.115328 -0.162425 0.634000 8817329
-0.116055 -0.159804 0.638000 12306108
-0.116237 -0.156403 0.639000 8948148
-0.116601 -0.153230 0.641000 8751281
-0.117692 -0.150967 0.647000 8816301
-0.118238 -0.147952 0.650000 8553646
-0.118602 -0.144682 0.652000 8159142
-0.119330 -0.141821 0.656000 7567272
-0.119511 -0.138283 0.657000 6844833
-0.120421 -0.135552 0.662000 6318502
-0.120967 -0.132367 0.665000 5791905
-0.121149 -0.128760 0.666000 5397920
-0.122058 -0.125892 0.671000 4936608
-0.122604 -0.122604 0.674000 4805020
-0.123331 -0.119457 0.678000 4346017
-0.124059 -0.116265 0.682000 4017308
-0.124787 -0.113027 0.686000 3885722
-0.125332 -0.109584 0.689000 3950233
-0.125514 -0.105800 0.690000 3622551
-0.126424 -0.102595 0.695000 3425691
-0.127333 -0.099333 0.700000 4140682
-0.127879 -0.095742 0.703000 7705559
-0.128243 -0.091986 0.705000 4805788
-0.129152 -0.088581 0.710000 3876487
-0.129698 -0.084881 0.713000 3094410
-0.130426 -0.081260 0.717000 3292820
-0.131335 -0.077701 0.722000 3752858
-0.131881 -0.073881 0.725000 3819677
-0.132609 -0.070123 0.729000 3622298
-0.133154 -0.066229 0.732000 3818650
-0.134064 -0.062470 0.737000 4541848
-0.134973 -0.058653 0.742000 4081049
-0.135519 -0.054633 0.745000 4016283
-0.136429 -0.050714 0.750000 4148637
-0.136974 -0.046614 0.753000 4738207
-0.137884 -0.042592 0.758000 4081566
-0.138430 -0.038412 0.761000 4541853
-0.139157 -0.034243 0.765000 4147612
-0.139703 -0.029989 0.768000 4673441
-0.141340 -0.025900 0.777000 4147356
-0.141886 -0.021543 0.780000 3950753
-0.142613 -0.017173 0.784000 3885210
-0.120060 -0.205182 0.667000 12488597
-0.120420 -0.201974 0.669000 5513885
-0.120060 -0.197559 0.667000 16709095
-0.119700 -0.193167 0.665000 16249078
-0.119160 -0.188512 0.662000 16117493
-0.118260 -0.183334 0.657000 15919347
-0.117540 -0.178487 0.653000 15853556
-0.117000 -0.173952 0.650000 14016247
-0.114120 -0.166048 0.634000 9014227
-0.114300 -0.162681 0.635000 10789813
-0.114840 -0.159804 0.638000 12495033
-0.115200 -0.156648 0.640000 8814517
-0.115560 -0.153469 0.642000 8882353
-0.116460 -0.150967 0.647000 8685231
-0.117000 -0.147952 0.650000 8422063
-0.117540 -0.144904 0.653000 7830951
-0.118080 -0.141821 0.656000 7369896
-0.118440 -0.138493 0.658000 6581924
-0.119160 -0.135552 0.662000 6186405
-0.119880 -0.132566 0.666000 5594268
-0.120060 -0.128953 0.667000 5200287
-0.120960 -0.126080 0.672000 4804767
-0.121500 -0.122786 0.675000 4542364
-0.122040 -0.119457 0.678000 4214687
-0.122940 -0.116435 0.683000 3885980
-0.123660 -0.113191 0.687000 3885212
-0.124020 -0.109584 0.689000 3884441
-0.124380 -0.105953 0.691000 3622040
-0.125460 -0.102890 0.697000 3032222
-0.126180 -0.099475 0.701000 1252509
-0.126540 -0.095742 0.703000 8154566
-0.126900 -0.091986 0.705000 1638809
-0.127800 -0.088581 0.710000 3560590
-0.128880 -0.085238 0.716000 2503319
-0.129060 -0.081260 0.717000 2574486
-0.129960 -0.077701 0.722000 3621275
-0.130680 -0.073983 0.726000 3950235
-0.131220 -0.070123 0.729000 3687578
-0.132120 -0.066410 0.734000 3818907
-0.132660 -0.062470 0.737000 5002395
-0.133560 -0.058653 0.742000 4146841
-0.134460 -0.054780 0.747000 3818905
-0.135360 -0.050850 0.752000 4738972
-0.135900 -0.046738 0.755000 5131935
-0.136440 -0.042592 0.758000 3951264
-0.136980 -0.038412 0.761000 3884957
-0.138060 -0.034332 0.767000 3754396
-0.138960 -0.030145 0.772000 4080798
-0.140220 -0.025967 0.779000 4081562
-0.140400 -0.021543 0.780000 3885215
-0.118790 -0.205182 0.667000 11640225
-0.119324 -0.202276 0.670000 6175131
-0.119146 -0.198151 0.669000 16711406
-0.118611 -0.193457 0.666000 16249333
-0.117899 -0.188512 0.662000 16117494
-0.117009 -0.183334 0.657000 15919347
-0.116652 -0.179033 0.655000 15788020
-0.115762 -0.173952 0.650000 13882358
-0.113625 -0.167095 0.638000 9082065
-0.113269 -0.162937 0.636000 11185337
-0.113803 -0.160054 0.639000 10586551
-0.113981 -0.156648 0.640000 8881589
-0.114337 -0.153469 0.642000 8882353
-0.115406 -0.151200 0.648000 8619441
-0.115940 -0.148180 0.651000 8356528
-0.116296 -0.144904 0.653000 7699112
-0.117009 -0.142037 0.657000 7172776
-0.117543 -0.138914 0.660000 6449574
-0.118077 -0.135757 0.663000 6054820
-0.118611 -0.132566 0.666000 5462678
-0.118790 -0.128953 0.667000 5134494
-0.120036 -0.126455 0.674000 4673694
-0.120392 -0.122968 0.676000 4411036
-0.120749 -0.119457 0.678000 4148636
-0.121639 -0.116435 0.683000 3819676
-0.122351 -0.113191 0.687000 3819677
-0.122886 -0.109743 0.690000 3884185
-0.123420 -0.106260 0.693000 3687833
-0.124132 -0.102890 0.697000 5328033
-0.124845 -0.099475 0.701000 5726895
-0.125379 -0.095878 0.704000 10314422
-0.125913 -0.092247 0.707000 5651093
-0.126626 -0.088706 0.711000 9230230
-0.127160 -0.085000 0.714000 8494499
-0.128229 -0.081600 0.720000 5534104
-0.128763 -0.077809 0.723000 3358619
-0.129653 -0.074187 0.728000 3884186
-0.130188 -0.070315 0.731000 3687578
-0.130722 -0.066410 0.734000 3818395
-0.131256 -0.062470 0.737000 4607902
-0.132325 -0.058732 0.743000 4015001
-0.133215 -0.054853 0.748000 3884439
-0.133928 -0.050850 0.752000 4542363
-0.134462 -0.046738 0.755000 5002142
-0.135352 -0.042705 0.760000 4278691
-0.135887 -0.038513 0.763000 3884444
-0.136599 -0.034332 0.767000 3819933
-0.137490 -0.030145 0.772000 3950491
-0.138736 -0.025967 0.779000 4015513
-0.139270 -0.021598 0.782000 3885213
-0.118048 -0.206105 0.670000 10781089
-0.117871 -0.201974 0.669000 6761885
-0.117871 -0.198151 0.669000 16709360
-0.117343 -0.193457 0.666000 16249590
-0.116638 -0.188512 0.662000 16051701
-0.115757 -0.183334 0.657000 15919348
-0.115405 -0.179033 0.655000 15722228
-0.114524 -0.173952 0.650000 13817333
-0.112410 -0.167095 0.638000 9146828
-0.112057 -0.162937 0.636000 11646142
-0.112586 -0.160054 0.639000 8622004
-0.112938 -0.156892 0.641000 8947893
-0.113467 -0.153947 0.644000 8816817
-0.114171 -0.151200 0.648000 8618929
-0.114700 -0.148180 0.651000 8224943
-0.115405 -0.145348 0.655000 7566761
-0.115757 -0.142037 0.657000 6976424
-0.116462 -0.139125 0.661000 6316710
-0.117167 -0.136167 0.665000 5923236
-0.117343 -0.132566 0.666000 5396635
-0.117871 -0.129340 0.669000 5068446
-0.118929 -0.126643 0.675000 4542366
-0.119105 -0.122968 0.676000 4279964
-0.119633 -0.119633 0.679000 4082843
-0.120514 -0.116606 0.684000 3688859
-0.121395 -0.113521 0.689000 3819419
-0.121571 -0.109743 0.690000 3818393
-0.122100 -0.106260 0.693000 3753882
-0.122805 -0.102890 0.697000 7557537
-0.123510 -0.099475 0.701000 10193581
-0.124038 -0.095878 0.704000 12423101
-0.124743 -0.092377 0.708000 9653909
-0.125271 -0.088706 0.711000 14785165
-0.126152 -0.085238 0.716000 14465697
-0.127210 -0.081827 0.722000 8489627
-0.127738 -0.078024 0.725000 3031451
-0.128443 -0.074289 0.729000 3818650
-0.128971 -0.070411 0.732000 3687323
-0.129324 -0.066410 0.734000 3818395
-0.130205 -0.062639 0.739000 4213916
-0.130910 -0.058732 0.743000 3884697
-0.131790 -0.054853 0.748000 3949976
-0.132495 -0.050850 0.752000 4279964
-0.133200 -0.046800 0.756000 4870812
-0.134081 -0.042761 0.761000 4541856
-0.134433 -0.038513 0.763000 3948956
-0.135138 -0.034332 0.767000 3885212
-0.136548 -0.030262 0.775000 3885467
-0.137429 -0.026000 0.780000 3884954
-0.137781 -0.021598 0.782000 3819676
-0.116771 -0.206105 0.670000 9601953
-0.116771 -0.202276 0.670000 7223966
-0.116771 -0.198448 0.670000 16711411
-0.116074 -0.193457 0.666000 16249846
-0.115551 -0.188797 0.663000 16050933
-0.114506 -0.183334 0.657000 15919348
-0.114157 -0.179033 0.655000 15787252
-0.113460 -0.174220 0.651000 13486579
-0.111194 -0.167095 0.638000 8751047
-0.111194 -0.163450 0.638000 11776194
-0.111369 -0.160054 0.639000 8754354
-0.111717 -0.156892 0.641000 8816821
-0.112414 -0.154186 0.645000 8816818
-0.113286 -0.151667 0.650000 8487857
-0.113460 -0.148180 0.651000 8159150
-0.114331 -0.145570 0.656000 7435946
-0.114680 -0.142253 0.658000 6911143
-0.115377 -0.139335 0.662000 6185638
-0.115900 -0.136167 0.665000 5858212
-0.116249 -0.132765 0.667000 5265311
-0.116597 -0.129340 0.669000 5002910
-0.117817 -0.126830 0.676000 4673693
-0.118166 -0.123331 0.678000 4214427
-0.118514 -0.119810 0.680000 3951769
-0.119211 -0.116606 0.684000 3688602
-0.120083 -0.113521 0.689000 3688088
-0.120431 -0.109902 0.691000 3752857
-0.120954 -0.106413 0.694000 3557018
-0.121651 -0.103038 0.698000 4332961
-0.122523 -0.099759 0.703000 5128362
-0.122697 -0.095878 0.704000 6450117
-0.123394 -0.092377 0.708000 8089492
-0.124266 -0.088955 0.713000 7408261
-0.124789 -0.085238 0.716000 9393311
-0.125834 -0.081827 0.722000 8956062
-0.126357 -0.078024 0.725000 2899355
-0.127054 -0.074289 0.729000 3752603
-0.127403 -0.070315 0.731000 3687323
-0.128274 -0.066590 0.736000 3687579
-0.128971 -0.062724 0.740000 3885210
-0.129843 -0.058890 0.745000 3884442
-0.130714 -0.055000 0.750000 3949977
-0.131237 -0.050917 0.753000 4541598
-0.132109 -0.046924 0.758000 5066905
-0.132980 -0.042873 0.763000 5396638
-0.133677 -0.038715 0.767000 4014235
-0.133851 -0.034377 0.768000 3819675
-0.135071 -0.030262 0.775000 3819675
-0.135943 -0.026000 0.780000 3819674
-0.136640 -0.021653 0.784000 3754139
-0.115668 -0.206412 0.671000 8420768
-0.115495 -0.202276 0.670000 7604127
-0.115495 -0.198448 0.670000 16711416
-0.114978 -0.193748 0.667000 16249590
-0.114289 -0.188797 0.663000 15985909
-0.113427 -0.183613 0.658000 15919348
-0.112910 -0.179033 0.655000 15853043
-0.112220 -0.174220 0.651000 13223924
-0.109979 -0.167095 0.638000 8356802
-0.109979 -0.163450 0.638000 11906228
-0.110324 -0.160305 0.640000 8884651
-0.110669 -0.157137 0.642000 8685492
-0.111358 -0.154425 0.646000 8816563
-0.112220 -0.151900 0.651000 8421808
-0.112392 -0.148408 0.652000 8093614
-0.113254 -0.145791 0.657000 7369899
-0.113771 -0.142686 0.660000 6779301
-0.114116 -0.139335 0.662000 6054052
-0.114806 -0.136371 0.666000 5791650
-0.114978 -0.132765 0.667000 5199520
-0.115495 -0.129533 0.670000 4871325
-0.116530 -0.126830 0.676000 4804508
-0.116874 -0.123331 0.678000 4148634
-0.117564 -0.120162 0.682000 3886233
-0.118253 -0.116947 0.686000 3688601
-0.118943 -0.113686 0.690000 3622296
-0.119460 -0.110220 0.693000 3687322
-0.119632 -0.106413 0.694000 3360410
-0.120322 -0.103038 0.698000 1129125
-0.121184 -0.099759 0.703000 71086
-0.121529 -0.096014 0.705000 474807
-0.122390 -0.092638 0.710000 6587285
-0.122908 -0.088955 0.713000 83337
-0.123597 -0.085357 0.717000 4395146
-0.124631 -0.081940 0.723000 9403292
-0.125149 -0.078131 0.726000 2770073
-0.125666 -0.074289 0.729000 3621532
-0.126183 -0.070411 0.732000 3687323
-0.126872 -0.066590 0.736000 3490970
-0.127562 -0.062724 0.740000 3556506
-0.128424 -0.058890 0.745000 3818650
-0.129286 -0.055000 0.750000 3949722
-0.129803 -0.050917 0.753000 4738974
-0.131010 -0.047048 0.760000 5264032
-0.131871 -0.042986 0.765000 6247837
-0.132216 -0.038715 0.767000 4079260
-0.132733 -0.034467 0.770000 3688345
-0.133940 -0.030340 0.777000 3819674
-0.134802 -0.026067 0.782000 3688345
-0.135491 -0.021709 0.786000 3688603
-0.114390 -0.206412 0.671000 8355232
-0.114390 -0.202578 0.671000 7882143
-0.114219 -0.198448 0.670000 16711421
-0.113708 -0.193748 0.667000 16249590
-0.113026 -0.188797 0.663000 16051701
-0.112173 -0.183613 0.658000 15919091
-0.111832 -0.179307 0.656000 15918835
-0.111150 -0.174488 0.652000 13421813
-0.108764 -0.167095 0.638000 7762110
-0.108934 -0.163706 0.639000 10262437
-0.109275 -0.160555 0.641000 8944293
-0.109787 -0.157627 0.644000 8882355
-0.110128 -0.154425 0.646000 8948148
-0.110980 -0.151900 0.651000 8224686
-0.111150 -0.148408 0.652000 8159407
-0.112173 -0.146013 0.658000 7172524
-0.112685 -0.142902 0.661000 6582435
-0.113026 -0.139546 0.663000 5791650
-0.113537 -0.136371 0.666000 5594785
-0.114049 -0.133163 0.669000 5068193
-0.114390 -0.129727 0.671000 4739996
-0.115242 -0.126830 0.676000 4542107
-0.115583 -0.123331 0.678000 4148378
-0.116265 -0.120162 0.682000 3885721
-0.117117 -0.117117 0.687000 3688344
-0.117799 -0.113850 0.691000 3687576
-0.118310 -0.110379 0.694000 3687323
-0.118822 -0.106873 0.697000 3425178
-0.118992 -0.103038 0.698000 5928618
-0.120015 -0.099901 0.704000 6388913
-0.120527 -0.096287 0.707000 6588840
-0.121209 -0.092769 0.711000 7700886
-0.121720 -0.089080 0.714000 6460045
-0.122231 -0.085357 0.717000 8816245
-0.123254 -0.081940 0.723000 6124699
-0.123766 -0.078131 0.726000 3162263
-0.124618 -0.074492 0.731000 3556252
-0.125470 -0.070796 0.736000 3687067
-0.125641 -0.066681 0.737000 3556761
-0.126493 -0.062893 0.742000 3622554
-0.127346 -0.059049 0.747000 4013978
-0.127857 -0.055000 0.750000 4015258
-0.128369 -0.050917 0.753000 5002910
-0.130073 -0.047233 0.763000 5464742
-0.130414 -0.042986 0.765000 5526172
-0.130926 -0.038766 0.768000 4015005
-0.131608 -0.034556 0.772000 3819416
-0.132460 -0.030340 0.777000 3884697
-0.133653 -0.026133 0.784000 3819161
-0.134335 -0.021764 0.788000 3753627
-0.113280 -0.206720 0.672000 8287643
-0.113111 -0.202578 0.671000 8075166
-0.112943 -0.198448 0.670000 16711165
-0.112437 -0.193748 0.667000 16314613
-0.112100 -0.189367 0.665000 16117493
-0.111257 -0.184171 0.660000 15919092
-0.110414 -0.179033 0.655000 15918068
-0.109909 -0.174488 0.652000 13553394
-0.107717 -0.167357 0.639000 7109312
-0.107717 -0.163706 0.639000 8687274
-0.108223 -0.160806 0.642000 8950184
-0.108729 -0.157871 0.645000 9079732
-0.109066 -0.154664 0.647000 9014448
-0.109909 -0.152133 0.652000 8027058
-0.109909 -0.148408 0.652000 8160177
-0.110920 -0.146013 0.658000 6973867
-0.111426 -0.142902 0.661000 6384547
-0.111763 -0.139546 0.663000 5593761
-0.112437 -0.136576 0.667000 5397152
-0.112774 -0.133163 0.669000 4936352
-0.113111 -0.129727 0.671000 4608156
-0.113954 -0.126830 0.676000 4279707
-0.114460 -0.123513 0.679000 4082586
-0.115134 -0.120338 0.683000 3885211
-0.115809 -0.117117 0.687000 3622296
-0.116483 -0.113850 0.691000 3818390
-0.116989 -0.110379 0.694000 3687322
-0.117494 -0.106873 0.697000 3491480
-0.118000 -0.103333 0.700000 10711215
-0.118843 -0.100043 0.705000 12696511
-0.119349 -0.096423 0.708000 12621746
-0.120191 -0.093030 0.713000 8822404
-0.120697 -0.089330 0.716000 12757138
-0.121203 -0.085595 0.719000 13219458
-0.121877 -0.081940 0.723000 2774670
-0.122720 -0.078347 0.728000 3556505
-0.123394 -0.074594 0.732000 3425435
-0.124069 -0.070796 0.736000 3686811
-0.124237 -0.066681 0.737000 3622298
-0.125249 -0.062978 0.743000 3688090
-0.126091 -0.059128 0.748000 4212377
-0.126766 -0.055147 0.752000 4015003
-0.127271 -0.051052 0.755000 5265821
-0.128957 -0.047357 0.765000 5662625
-0.129294 -0.043098 0.767000 4738970
-0.129463 -0.038766 0.768000 4016029
-0.130306 -0.034601 0.773000 3885209
-0.131486 -0.030457 0.780000 3884186
-0.132497 -0.026200 0.786000 3884441
-0.133003 -0.021791 0.789000 3884442
-0.112000 -0.206720 0.672000 6712215
-0.112000 -0.202880 0.672000 8285597
-0.111833 -0.198744 0.671000 16711422
-0.111167 -0.193748 0.667000 16249332
-0.110833 -0.189367 0.665000 16116981
-0.110167 -0.184450 0.661000 15919605
-0.109333 -0.179307 0.656000 15918324
-0.108667 -0.174488 0.652000 12828911
-0.106500 -0.167357 0.639000 7567810
-0.106500 -0.163706 0.639000 10064303
-0.107000 -0.160806 0.642000 10534059
-0.107667 -0.158116 0.646000 10000053
-0.107833 -0.154664 0.647000 8949420
-0.108667 -0.152133 0.652000 8488117
-0.108833 -0.148635 0.653000 8489138
-0.110000 -0.146457 0.660000 6711465
-0.110167 -0.142902 0.661000 6253219
-0.110833 -0.139967 0.665000 5462432
-0.111167 -0.136576 0.667000 5265824
-0.111667 -0.133362 0.670000 4871327
-0.112333 -0.130307 0.674000 4411036
-0.113000 -0.127206 0.678000 4148635
-0.113167 -0.123513 0.679000 3885466
-0.114000 -0.120514 0.684000 3753884
-0.114833 -0.117458 0.689000 3622553
-0.115167 -0.113850 0.691000 3687572
-0.115833 -0.110538 0.695000 3686809
-0.116333 -0.107027 0.698000 3424918
-0.116833 -0.103481 0.701000 5527476
-0.117833 -0.100327 0.707000 6379212
-0.118333 -0.096695 0.710000 6651837
-0.118833 -0.093030 0.713000 6186097
-0.119333 -0.089330 0.716000 10068375
-0.120000 -0.085714 0.720000 8881550
-0.120833 -0.082167 0.725000 3028097
-0.121333 -0.078347 0.728000 3556506
-0.122000 -0.074594 0.732000 3490970
-0.122833 -0.070892 0.737000 3555995
-0.123333 -0.066952 0.740000 3622554
-0.124167 -0.063148 0.745000 3950234
-0.124667 -0.059128 0.748000 5396888
-0.125333 -0.055147 0.752000 4342939
-0.126000 -0.051120 0.756000 5267356
-0.127500 -0.047357 0.765000 5398428
-0.128000 -0.043154 0.768000 4605592
-0.128333 -0.038867 0.770000 4213917
-0.129167 -0.034690 0.775000 3885210
-0.130333 -0.030535 0.782000 3819419
-0.131333 -0.026267 0.788000 3884186
-0.131500 -0.021791 0.789000 3753369
-0.110720 -0.206720 0.672000 5136534
-0.111050 -0.203484 0.674000 8422314
-0.110720 -0.199040 0.672000 16710909
-0.110390 -0.194619 0.670000 16248821
-0.109567 -0.189367 0.665000 16117493
-0.108908 -0.184450 0.661000 15920117
-0.107919 -0.179033 0.655000 15852789
-0.107425 -0.174488 0.652000 12104437
-0.105283 -0.167357 0.639000 8028865
-0.105283 -0.163706 0.639000 11509182
-0.106271 -0.161557 0.645000 12038318
-0.106436 -0.158116 0.646000 10921915
-0.106766 -0.154903 0.648000 8882607
-0.107425 -0.152133 0.652000 8879285
-0.107919 -0.149090 0.655000 8749744
-0.108743 -0.146457 0.660000 6514088
-0.109072 -0.143118 0.662000 6121378
-0.109567 -0.139967 0.665000 5396896
-0.109896 -0.136576 0.667000 5068703
-0.110555 -0.133561 0.671000 4805790
-0.111050 -0.130307 0.674000 4148892
-0.111709 -0.127206 0.678000 4017309
-0.112368 -0.124059 0.682000 3688858
-0.113027 -0.120867 0.686000 3622555
-0.113521 -0.117458 0.689000 3556760
-0.113850 -0.113850 0.691000 3491221
-0.114510 -0.110538 0.695000 3621529
-0.115004 -0.107027 0.698000 3294106
-0.115828 -0.103776 0.703000 276908
-0.116651 -0.100469 0.708000 65983
-0.116981 -0.096695 0.710000 605620
-0.117475 -0.093030 0.713000 3553409
-0.117970 -0.089330 0.716000 7296658
-0.118958 -0.085952 0.722000 4603023
-0.119617 -0.082280 0.726000 3223181
-0.119947 -0.078347 0.728000 3556504
-0.120606 -0.074594 0.732000 3490970
-0.121430 -0.070892 0.737000 3490715
-0.122418 -0.067224 0.743000 3556762
-0.122748 -0.063148 0.745000 4212892
-0.123242 -0.059128 0.748000 6577053
-0.123901 -0.055147 0.752000 4670620
-0.124890 -0.051255 0.758000 5200028
-0.126372 -0.047481 0.767000 5202843
-0.126537 -0.043154 0.768000 4476058
-0.126867 -0.038867 0.770000 4411036
-0.128020 -0.034780 0.777000 3884955
-0.128844 -0.030535 0.782000 3688602
-0.129832 -0.026267 0.788000 3818649
-0.130327 -0.021847 0.791000 3622297
-0.109766 -0.207335 0.674000 4084116
-0.109766 -0.203484 0.674000 10392246
-0.109440 -0.199040 0.672000 16711421
-0.109114 -0.194619 0.670000 16183798
-0.108463 -0.189651 0.666000 16117494
-0.107811 -0.184730 0.662000 15853812
-0.106671 -0.179033 0.655000 15853045
-0.106183 -0.174488 0.652000 11578619
-0.104066 -0.167357 0.639000 8488385
-0.104391 -0.164218 0.641000 11445452
-0.105206 -0.161808 0.646000 11185841
-0.105369 -0.158361 0.647000 10462656
-0.105531 -0.154903 0.648000 9009841
-0.106346 -0.152367 0.653000 9013684
-0.106834 -0.149318 0.656000 8026287
-0.107486 -0.146457 0.660000 6581415
-0.107811 -0.143118 0.662000 6055841
-0.108463 -0.140177 0.666000 5331359
-0.108951 -0.136986 0.669000 5002910
-0.109277 -0.133561 0.671000 4674461
-0.109766 -0.130307 0.674000 3755677
-0.110580 -0.127393 0.679000 3951774
-0.111231 -0.124241 0.683000 3688601
-0.111720 -0.120867 0.686000 3622553
-0.112209 -0.117458 0.689000 3556504
-0.112534 -0.113850 0.691000 3490966
-0.113186 -0.110538 0.695000 3490713
-0.114000 -0.107333 0.700000 4014494
-0.114489 -0.103776 0.703000 4021924
-0.115303 -0.100469 0.708000 6519730
-0.115791 -0.096831 0.711000 4811947
-0.116280 -0.093160 0.714000 3289745
-0.116769 -0.089454 0.717000 5182861
-0.117583 -0.085952 0.722000 4011663
-0.118234 -0.082280 0.726000 3358618
-0.118723 -0.078454 0.729000 3556502
-0.119537 -0.074798 0.734000 3490713
-0.120351 -0.071085 0.739000 3490714
-0.121003 -0.067224 0.743000 3556762
-0.121654 -0.063317 0.747000 4147614
-0.122143 -0.059286 0.750000 5593506
-0.122631 -0.055220 0.753000 4539804
-0.123934 -0.051458 0.761000 4543132
-0.124911 -0.047481 0.767000 4610202
-0.125074 -0.043154 0.768000 4607389
-0.125726 -0.038968 0.772000 4739738
-0.126540 -0.034780 0.777000 3884700
-0.127680 -0.030613 0.784000 3754137
-0.128494 -0.026300 0.789000 3818648
-0.128820 -0.021847 0.791000 3687832
-0.108643 -0.207643 0.675000 3032474
-0.108643 -0.203786 0.675000 12374468
-0.108482 -0.199632 0.674000 16710908
-0.107999 -0.194910 0.671000 16117493
-0.107033 -0.189367 0.665000 16117494
-0.106550 -0.184730 0.662000 15853300
-0.105424 -0.179033 0.655000 15852533
-0.104941 -0.174488 0.652000 11111411
-0.103010 -0.167619 0.640000 8947390
-0.103170 -0.164218 0.641000 11449277
-0.103975 -0.161808 0.646000 10260908
-0.104136 -0.158361 0.647000 10003381
-0.104780 -0.155620 0.651000 9079988
-0.105424 -0.152833 0.655000 9211573
-0.105585 -0.149318 0.656000 7305901
-0.106229 -0.146457 0.660000 6714537
-0.106711 -0.143334 0.663000 5989025
-0.107194 -0.140177 0.666000 5265566
-0.107838 -0.137190 0.670000 4871581
-0.107999 -0.133561 0.671000 4608922
-0.108643 -0.130500 0.675000 3361690
-0.109448 -0.127581 0.680000 3886236
-0.109930 -0.124241 0.683000 3688599
-0.110413 -0.120867 0.686000 3622296
-0.110896 -0.117458 0.689000 3490969
-0.111540 -0.114180 0.693000 3490711
-0.112184 -0.110856 0.697000 3359641
-0.112828 -0.107487 0.701000 4735390
-0.113310 -0.103924 0.704000 7694759
-0.114276 -0.100752 0.710000 12893883
-0.114759 -0.097104 0.713000 8942767
-0.115242 -0.093421 0.716000 2963600
-0.115725 -0.089704 0.719000 3026316
-0.116369 -0.086071 0.723000 3488400
-0.117173 -0.082507 0.728000 3425177
-0.117334 -0.078454 0.729000 3490455
-0.118461 -0.075002 0.736000 3490970
-0.119105 -0.071181 0.740000 3555739
-0.119588 -0.067224 0.743000 3556762
-0.120392 -0.063402 0.748000 4016285
-0.121036 -0.059444 0.752000 4542366
-0.121519 -0.055367 0.755000 4474015
-0.122485 -0.051458 0.761000 3887519
-0.123450 -0.047481 0.767000 4084121
-0.123611 -0.043154 0.768000 4738974
-0.124416 -0.039018 0.773000 5069466
-0.125382 -0.034870 0.779000 3884444
-0.126187 -0.030613 0.784000 3819162
-0.126830 -0.026267 0.788000 3818905
-0.127635 -0.021902 0.793000 3753369
-0.107516 -0.211813 0.676000 11111826
-0.107357 -0.207643 0.675000 1848225
-0.107357 -0.203786 0.675000 13352146
-0.107357 -0.199929 0.675000 16711419
-0.106721 -0.194910 0.671000 16183028
-0.105926 -0.189651 0.666000 16117494
-0.105290 -0.184730 0.662000 15853555
-0.104335 -0.179307 0.656000 15786229
-0.103699 -0.174488 0.652000 10788331
-0.101790 -0.167619 0.640000 9010364
-0.102109 -0.164474 0.642000 9866926
-0.102745 -0.161808 0.646000 9141927
-0.103063 -0.158606 0.648000 9341353
-0.103540 -0.155620 0.651000 10199478
-0.104335 -0.153067 0.656000 8683446
-0.104335 -0.149318 0.656000 8948395
-0.105130 -0.146679 0.661000 6450603
-0.105767 -0.143767 0.665000 5725601
-0.106085 -0.140388 0.667000 5134237
-0.106562 -0.137190 0.670000 4805533
-0.106880 -0.133760 0.672000 5397654
-0.107516 -0.130693 0.676000 3425944
-0.108470 -0.127956 0.682000 3820185
-0.108789 -0.124423 0.684000 3622549
-0.109266 -0.121043 0.687000 3556502
-0.109584 -0.117458 0.689000 3425434
-0.110220 -0.114180 0.693000 3425176
-0.111015 -0.111015 0.698000 3359641
-0.111492 -0.107487 0.701000 4080030
-0.111970 -0.103924 0.704000 3943850
-0.113083 -0.100894 0.711000 6510020
-0.113401 -0.097104 0.713000 4607155
-0.114037 -0.093551 0.717000 2109071
-0.114514 -0.089829 0.720000 2370955
-0.115310 -0.086310 0.725000 3094417
-0.115787 -0.082507 0.728000 3490712
-0.116264 -0.078670 0.731000 3490968
-0.117218 -0.075104 0.737000 3556508
-0.117695 -0.071181 0.740000 3425180
-0.118172 -0.067224 0.743000 3556762
-0.118968 -0.063402 0.748000 3819675
-0.119763 -0.059523 0.753000 4015769
-0.120240 -0.055440 0.756000 4935073
-0.121035 -0.051458 0.761000 4476322
-0.121990 -0.047481 0.767000 4674456
-0.122467 -0.043267 0.770000 4805024
-0.123262 -0.039119 0.775000 4608154
-0.123898 -0.034870 0.779000 3884444
-0.124693 -0.030613 0.784000 3819163
-0.125489 -0.026300 0.789000 3818650
-0.106229 -0.211813 0.676000 10586771
-0.106071 -0.207643 0.675000 603043
-0.106071 -0.203786 0.675000 14274781
-0.106229 -0.200225 0.676000 16710395
-0.105443 -0.194910 0.671000 16183285
-0.104657 -0.189651 0.666000 16117494
-0.104186 -0.185009 0.663000 15853299
-0.103243 -0.179580 0.657000 15720693
-0.102457 -0.174488 0.652000 10459877
-0.100886 -0.168143 0.642000 9078200
-0.100886 -0.164474 0.642000 8290477
-0.101671 -0.162058 0.647000 7963310
-0.102143 -0.159095 0.650000 8750767
-0.102457 -0.155859 0.652000 11307441
-0.103086 -0.153067 0.656000 8217266
-0.103243 -0.149546 0.657000 10521513
-0.103871 -0.146679 0.661000 6185127
-0.104657 -0.143983 0.666000 5397151
-0.104814 -0.140388 0.667000 5067933
-0.105443 -0.137395 0.671000 4739482
-0.105914 -0.134158 0.674000 6185885
-0.106543 -0.131080 0.678000 3493017
-0.107171 -0.127956 0.682000 3688857
-0.107486 -0.124423 0.684000 3491478
-0.108271 -0.121395 0.689000 3490711
-0.108429 -0.117629 0.690000 3359640
-0.109057 -0.114345 0.694000 3359896
-0.110000 -0.111333 0.700000 3359385
-0.110471 -0.107793 0.703000 3490204
-0.110786 -0.104071 0.705000 210094
-0.111729 -0.100894 0.711000 65976
-0.112043 -0.097104 0.713000 202673
-0.112986 -0.093812 0.719000 1321868
-0.113457 -0.090078 0.722000 1657745
-0.113929 -0.086310 0.725000 2634640
-0.114557 -0.082620 0.729000 3490454
-0.115343 -0.078992 0.734000 3490969
-0.116129 -0.075308 0.739000 3621786
-0.116286 -0.071181 0.740000 3359643
-0.117071 -0.067405 0.745000 3556761
-0.117857 -0.063571 0.750000 3622811
-0.118643 -0.059681 0.755000 3425947
-0.119114 -0.055587 0.758000 5459104
-0.119586 -0.051458 0.761000 5001373
-0.120686 -0.047543 0.768000 5330838
-0.121314 -0.043379 0.772000 4804765
-0.121786 -0.039119 0.775000 4213147
-0.122571 -0.034914 0.780000 3818907
-0.123200 -0.030613 0.784000 3818906
-0.123986 -0.026300 0.789000 3818906
-0.105251 -0.212440 0.678000 9929620
-0.105251 -0.208566 0.678000 1125541
-0.104941 -0.204088 0.676000 14537448
-0.105251 -0.200817 0.678000 16513019
-0.104320 -0.195200 0.672000 16249078
-0.103389 -0.189651 0.666000 16051190
-0.103233 -0.185567 0.665000 15853299
-0.101836 -0.179307 0.656000 15720436
-0.101215 -0.174488 0.652000 10657758
-0.099663 -0.168143 0.642000 9147572
-0.099973 -0.164987 0.644000 8684971
-0.100594 -0.162309 0.648000 10326197
-0.101060 -0.159340 0.651000 9210805
-0.101215 -0.155859 0.652000 9535659
-0.101836 -0.153067 0.656000 7628974
-0.102147 -0.149773 0.658000 9541542
-0.102768 -0.146901 0.662000 5923234
-0.103389 -0.143983 0.666000 5265565
-0.103854 -0.140809 0.669000 5002396
-0.104165 -0.137395 0.671000 4345752
-0.104786 -0.134357 0.675000 5463204
-0.105251 -0.131080 0.678000 3688345
-0.106028 -0.128144 0.683000 3623065
-0.106493 -0.124787 0.686000 3622807
-0.106959 -0.121395 0.689000 3425175
-0.107270 -0.117799 0.691000 3425174
-0.107890 -0.114510 0.695000 3490456
-0.108667 -0.111333 0.700000 3490201
-0.109288 -0.107947 0.704000 3161753
-0.109753 -0.104367 0.707000 5005234
-0.110374 -0.100894 0.711000 5925035
-0.110840 -0.097240 0.714000 3214511
-0.111771 -0.093943 0.720000 7837065
-0.112082 -0.090078 0.722000 7783320
-0.112703 -0.086429 0.726000 6062735
-0.113169 -0.082620 0.729000 3227796
-0.113945 -0.078992 0.734000 3490969
-0.114721 -0.075308 0.739000 3687065
-0.115187 -0.071373 0.742000 3425433
-0.115652 -0.067405 0.745000 3557016
-0.116429 -0.063571 0.750000 3622554
-0.117360 -0.059760 0.756000 3556765
-0.117981 -0.055733 0.760000 5000862
-0.118136 -0.051458 0.761000 4212121
-0.119223 -0.047543 0.768000 4803475
-0.119844 -0.043379 0.772000 4541339
-0.120620 -0.039220 0.777000 4081563
-0.121086 -0.034914 0.780000 3818651
-0.121707 -0.030613 0.784000 3753625
-0.122793 -0.026367 0.791000 3687578
-0.103960 -0.212440 0.678000 9341079
-0.103960 -0.208566 0.678000 1585061
-0.103960 -0.204691 0.678000 14742515
-0.103960 -0.200817 0.678000 16316410
-0.103040 -0.195200 0.672000 16249334
-0.102273 -0.189936 0.667000 15985653
-0.101967 -0.185567 0.665000 15918579
-0.100587 -0.179307 0.656000 15655669
-0.098900 -0.172614 0.645000 10855653
-0.098440 -0.168143 0.642000 9210802
-0.098747 -0.164987 0.644000 9012654
-0.099667 -0.162810 0.650000 12625850
-0.099820 -0.159340 0.651000 9667507
-0.100127 -0.156098 0.653000 7765164
-0.100587 -0.153067 0.656000 7040171
-0.100893 -0.149773 0.658000 8485283
-0.101967 -0.147567 0.665000 5724834
-0.102120 -0.143983 0.666000 5134749
-0.102580 -0.140809 0.669000 4936605
-0.103040 -0.137600 0.672000 3952537
-0.103500 -0.134357 0.675000 4807329
-0.104113 -0.131273 0.679000 3885722
-0.104880 -0.128331 0.684000 3556761
-0.105340 -0.124969 0.687000 3687574
-0.105800 -0.121571 0.690000 3425177
-0.106260 -0.118140 0.693000 3425176
-0.107027 -0.115004 0.698000 3621016
-0.107487 -0.111492 0.701000 3555993
-0.107947 -0.107947 0.704000 2900633
-0.108560 -0.104514 0.708000 9728432
-0.109327 -0.101178 0.713000 11769794
-0.109787 -0.097512 0.716000 6191275
-0.110400 -0.093943 0.720000 14402173
-0.110860 -0.090203 0.723000 13873294
-0.111320 -0.086429 0.726000 9487480
-0.111780 -0.082620 0.729000 2898836
-0.112853 -0.079208 0.736000 3556247
-0.113467 -0.075410 0.740000 3687320
-0.113773 -0.071373 0.742000 3490969
-0.114540 -0.067586 0.747000 3556761
-0.115307 -0.063741 0.752000 3688346
-0.116227 -0.059918 0.758000 3687837
-0.116687 -0.055807 0.761000 4542362
-0.116993 -0.051593 0.763000 3360410
-0.117760 -0.047543 0.768000 4342680
-0.118527 -0.043435 0.773000 4278685
-0.119447 -0.039321 0.779000 4015000
-0.119907 -0.035004 0.782000 3818906
-0.120520 -0.030691 0.786000 3753368
-0.121287 -0.026367 0.791000 3556507
-0.102820 -0.212753 0.679000 9078425
-0.102669 -0.208566 0.678000 860070
-0.102669 -0.204691 0.678000 15458814
-0.102366 -0.200225 0.676000 16249850
-0.101760 -0.195200 0.672000 16249078
-0.101003 -0.189936 0.667000 15984885
-0.100851 -0.185846 0.666000 15853299
-0.099489 -0.179580 0.657000 15590902
-0.097520 -0.172347 0.644000 11780587
-0.097217 -0.168143 0.642000 8748976
-0.097671 -0.165243 0.645000 9078961
-0.098429 -0.162810 0.650000 12303550
-0.098580 -0.159340 0.651000 9670576
-0.098883 -0.156098 0.653000 7764398
-0.099337 -0.153067 0.656000 6909864
-0.099943 -0.150229 0.660000 7169441
-0.100700 -0.147567 0.665000 5660065
-0.101003 -0.144199 0.667000 5069469
-0.101306 -0.140809 0.669000 4805534
-0.102063 -0.138010 0.674000 4083098
-0.102366 -0.134556 0.676000 4477341
-0.102971 -0.131467 0.680000 3819930
-0.103880 -0.128707 0.686000 3622296
-0.104334 -0.125332 0.689000 3687574
-0.104637 -0.121748 0.691000 3425179
-0.105091 -0.118310 0.694000 3490458
-0.106000 -0.115333 0.700000 3555735
-0.106454 -0.111810 0.703000 3555737
-0.106757 -0.108100 0.705000 2833817
-0.107211 -0.104514 0.708000 9928878
-0.108120 -0.101320 0.714000 11575256
-0.108574 -0.097649 0.717000 7833254
-0.109331 -0.094204 0.722000 11839344
-0.109483 -0.090203 0.723000 9727365
-0.110240 -0.086667 0.728000 8163680
-0.110846 -0.082960 0.732000 3293588
-0.111603 -0.079315 0.737000 3490965
-0.112360 -0.075613 0.742000 3687063
-0.112511 -0.071470 0.743000 3490968
-0.113269 -0.067676 0.748000 3556762
-0.114026 -0.063826 0.753000 3949978
-0.114783 -0.059918 0.758000 3753629
-0.115237 -0.055807 0.761000 4212886
-0.115540 -0.051593 0.763000 3622555
-0.116600 -0.047667 0.770000 4541341
-0.117357 -0.043548 0.775000 4212896
-0.117963 -0.039321 0.779000 4015508
-0.118417 -0.035004 0.782000 3753114
-0.119023 -0.030691 0.786000 3818903
-0.120083 -0.026433 0.793000 3687579
-0.101676 -0.213067 0.680000 8817308
-0.101527 -0.208873 0.679000 75685
-0.101527 -0.204993 0.679000 16252670
-0.101078 -0.200225 0.676000 16184569
-0.100779 -0.195781 0.674000 16183286
-0.100031 -0.190506 0.669000 15985140
-0.099433 -0.185567 0.665000 15788019
-0.098387 -0.179853 0.658000 15458037
-0.096293 -0.172347 0.644000 12699866
-0.095845 -0.167881 0.641000 8225711
-0.096443 -0.165243 0.645000 9146030
-0.097190 -0.162810 0.650000 11906743
-0.097490 -0.159585 0.652000 9668017
-0.097938 -0.156576 0.655000 7764398
-0.098237 -0.153300 0.657000 6779048
-0.098985 -0.150684 0.662000 5858209
-0.099583 -0.147789 0.666000 5594529
-0.099732 -0.144199 0.667000 5002907
-0.100181 -0.141019 0.670000 4674209
-0.100779 -0.138010 0.674000 4214427
-0.101377 -0.134954 0.678000 4147866
-0.101676 -0.131467 0.680000 3688346
-0.102573 -0.128707 0.686000 3622040
-0.103022 -0.125332 0.689000 3687063
-0.103620 -0.122100 0.693000 3490711
-0.103919 -0.118481 0.695000 3555737
-0.104667 -0.115333 0.700000 3490454
-0.105265 -0.111970 0.704000 3555993
-0.105414 -0.108100 0.705000 2834067
-0.106162 -0.104810 0.710000 10114977
-0.107059 -0.101604 0.716000 11444439
-0.107209 -0.097649 0.717000 9408665
-0.107956 -0.094204 0.722000 9286521
-0.108106 -0.090203 0.723000 5534862
-0.109003 -0.086786 0.729000 6852739
-0.109750 -0.083187 0.734000 3686293
-0.110199 -0.079315 0.737000 3490967
-0.110947 -0.075613 0.742000 3621784
-0.111096 -0.071470 0.743000 3490712
-0.111844 -0.067676 0.748000 3490969
-0.112591 -0.063826 0.753000 4212127
-0.113339 -0.059918 0.758000 3820192
-0.113788 -0.055807 0.761000 3883673
-0.114685 -0.051864 0.767000 3818906
-0.115582 -0.047852 0.773000 4736923
-0.115881 -0.043548 0.775000 4082590
-0.116629 -0.039371 0.780000 4081561
-0.117227 -0.035093 0.784000 3622300
-0.117825 -0.030770 0.788000 3884184
-0.118871 -0.026500 0.795000 3818650
-0.100381 -0.213067 0.680000 8487583
-0.100233 -0.208873 0.679000 65957
-0.099790 -0.204088 0.676000 16448766
-0.099643 -0.199929 0.675000 16183545
-0.099200 -0.195200 0.672000 16183286
-0.098462 -0.189936 0.667000 15984884
-0.097724 -0.184730 0.662000 15722227
-0.097133 -0.179853 0.658000 15394548
-0.095214 -0.172614 0.645000 10460360
-0.094771 -0.168143 0.642000 9672109
-0.095067 -0.164987 0.644000 11119787
-0.095952 -0.162810 0.650000 11710896
-0.096100 -0.159340 0.651000 9011122
-0.096395 -0.156098 0.653000 7437486
-0.096838 -0.153067 0.656000 6516135
-0.097871 -0.150911 0.663000 5791649
-0.098314 -0.147789 0.666000 5463200
-0.098462 -0.144199 0.667000 4738969
-0.098905 -0.141019 0.670000 4477348
-0.099643 -0.138214 0.675000 3952028
-0.100086 -0.134954 0.678000 3951255
-0.100676 -0.131853 0.682000 3622298
-0.101414 -0.128894 0.687000 3687576
-0.101857 -0.125514 0.690000 3686807
-0.102300 -0.122100 0.693000 3425170
-0.102890 -0.118822 0.697000 3490199
-0.103481 -0.115498 0.701000 3424917
-0.103776 -0.111810 0.703000 3555736
-0.104367 -0.108407 0.707000 2698636
-0.104810 -0.104810 0.710000 5767573
-0.105695 -0.101604 0.716000 7042517
-0.106286 -0.098057 0.720000 9798796
-0.106581 -0.094204 0.722000 11452289
-0.106729 -0.090203 0.723000 9746839
-0.107910 -0.087024 0.731000 5987750
-0.108648 -0.083413 0.736000 3556503
-0.109090 -0.079530 0.739000 3490712
-0.109533 -0.075613 0.742000 3555992
-0.109976 -0.071662 0.745000 3556248
-0.110714 -0.067857 0.750000 3818392
-0.111157 -0.063826 0.753000 4607395
-0.112190 -0.060076 0.760000 3427236
-0.112633 -0.055953 0.763000 3752860
-0.113224 -0.051864 0.767000 3753113
-0.114110 -0.047852 0.773000 4212376
-0.114700 -0.043660 0.777000 3949468
-0.115143 -0.039371 0.780000 4738717
-0.115733 -0.035093 0.784000 3884446
-0.116324 -0.030770 0.788000 3884185
-0.117357 -0.026500 0.795000 3949464
-0.098940 -0.208873 0.679000 77737
-0.098940 -0.204993 0.679000 16711166
-0.098357 -0.199929 0.675000 16184569
-0.097920 -0.195200 0.672000 16183030
-0.097191 -0.189936 0.667000 15919348
-0.096463 -0.184730 0.662000 15722484
-0.095880 -0.179853 0.658000 15258867
-0.093986 -0.172614 0.645000 8227021
-0.093840 -0.168667 0.644000 11048112
-0.094277 -0.165755 0.647000 13024683
-0.094714 -0.162810 0.650000 11511215
-0.095006 -0.159585 0.652000 8353965
-0.095443 -0.156576 0.655000 7043247
-0.096171 -0.154000 0.660000 6252711
-0.096609 -0.150911 0.663000 5726113
-0.097046 -0.147789 0.666000 5331359
-0.097191 -0.144199 0.667000 4477082
-0.097774 -0.141230 0.671000 4346017
-0.098357 -0.138214 0.675000 3689371
-0.098503 -0.134556 0.676000 3754392
-0.099086 -0.131467 0.680000 3556761
-0.099960 -0.128707 0.686000 3752857
-0.100397 -0.125332 0.689000 3621529
-0.100689 -0.121748 0.691000 3359638
-0.101563 -0.118822 0.697000 3359384
-0.102000 -0.115333 0.700000 3359638
-0.102437 -0.111810 0.703000 3555736
-0.103020 -0.108407 0.707000 2566796
-0.103603 -0.104957 0.711000 1395380
-0.104331 -0.101604 0.716000 2714336
-0.104914 -0.098057 0.720000 10116748
-0.105351 -0.094334 0.723000 13613187
-0.105643 -0.090452 0.725000 13939851
-0.106663 -0.087143 0.732000 5114270
-0.107246 -0.083413 0.736000 3425176
-0.107683 -0.079530 0.739000 3555993
-0.108120 -0.075613 0.742000 3490713
-0.108849 -0.071854 0.747000 3621273
-0.109286 -0.067857 0.750000 4081306
-0.110014 -0.063995 0.755000 5001884
-0.110889 -0.060155 0.761000 3034018
-0.111180 -0.055953 0.763000 3622046
-0.111909 -0.051931 0.768000 3622297
-0.112637 -0.047852 0.773000 3622294
-0.113220 -0.043660 0.777000 3818907
-0.113949 -0.039472 0.782000 5328284
-0.114531 -0.035183 0.786000 4082332
-0.114969 -0.030809 0.789000 3949720
-0.116134 -0.026567 0.797000 4080537
-0.097647 -0.208873 0.679000 3277229
-0.097647 -0.204993 0.679000 16710910
-0.097215 -0.200225 0.676000 16184058
-0.096640 -0.195200 0.672000 16183285
-0.095921 -0.189936 0.667000 15918837
-0.095202 -0.184730 0.662000 15721972
-0.094627 -0.179853 0.658000 14735602
-0.092757 -0.172614 0.645000 10001873
-0.092613 -0.168667 0.644000 10387123
-0.093189 -0.166011 0.648000 11972267
-0.093620 -0.163060 0.651000 10982063
-0.093764 -0.159585 0.652000 9278888
-0.094339 -0.156815 0.656000 6711983
-0.095058 -0.154233 0.661000 6252966
-0.095633 -0.151367 0.665000 5396897
-0.095777 -0.147789 0.666000 5200286
-0.095921 -0.144199 0.667000 4346012
-0.096928 -0.141861 0.674000 4280221
-0.097215 -0.138419 0.676000 3754138
-0.097503 -0.134954 0.678000 3754392
-0.097790 -0.131467 0.680000 3556505
-0.098797 -0.128894 0.687000 3621529
-0.099229 -0.125514 0.690000 3490203
-0.099660 -0.122100 0.693000 3359385
-0.100235 -0.118822 0.697000 3359641
-0.100810 -0.115498 0.701000 3424919
-0.101242 -0.111970 0.704000 3752088
