# .PCD v.7 - Point Cloud Data file format
VERSION .7
FIELDS x y z rgb
SIZE 4 4 4 4
TYPE F F F I
COUNT 1 1 1 1
WIDTH 1287
HEIGHT 1
POINTS 1287
DATA ascii
-0.104368 -0.156219 0.698000 15917812
-0.104368 -0.152230 0.698000 9668568
-0.100330 -0.142508 0.671000 6973606
-0.100330 -0.138673 0.671000 9403806
-0.101078 -0.135844 0.676000 10987435
-0.101676 -0.132762 0.680000 10063270
-0.101975 -0.129255 0.682000 8946852
-0.102274 -0.125726 0.684000 9077925
-0.102723 -0.122351 0.687000 8749730
-0.103022 -0.118770 0.689000 8289438
-0.103620 -0.115500 0.693000 7763613
-0.104368 -0.112345 0.698000 7105180
-0.104667 -0.108667 0.700000 6448022
-0.104816 -0.104816 0.701000 6118292
-0.105414 -0.101386 0.705000 5526931
-0.105713 -0.097633 0.707000 5394577
-0.106162 -0.093990 0.710000 5132176
-0.106610 -0.090313 0.713000 4934800
-0.107059 -0.086602 0.716000 4606606
-0.107508 -0.082856 0.719000 4409227
-0.108106 -0.079186 0.723000 4343946
-0.109003 -0.075677 0.729000 5194638
-0.109302 -0.071708 0.731000 5261973
-0.109750 -0.067808 0.734000 9213595
-0.109451 -0.063440 0.732000 6249111
-0.111844 -0.060552 0.748000 10463365
-0.111395 -0.056052 0.745000 9670541
-0.111694 -0.051934 0.747000 9804949
-0.112591 -0.048049 0.753000 3030930
-0.113040 -0.043920 0.756000 4276876
-0.113638 -0.039810 0.760000 4473994
-0.114087 -0.035607 0.763000 4409227
-0.114685 -0.031410 0.767000 4474254
-0.115432 -0.027204 0.772000 4999310
-0.115881 -0.022881 0.775000 6115472
-0.116180 -0.018500 0.777000 5129871
-0.116629 -0.014114 0.780000 5132175
-0.117526 -0.009731 0.786000 5002640
-0.117974 -0.005260 0.789000 5197198
-0.118871 -0.000757 0.795000 5591444
-0.119320 0.003800 0.798000 4671630
-0.119918 0.008402 0.802000 4540299
-0.121114 0.013114 0.810000 4539791
-0.121862 0.017852 0.815000 4540299
-0.109681 -0.191765 0.743000 4075943
-0.109238 -0.186762 0.740000 10783679
-0.108648 -0.181547 0.736000 16711422
-0.107614 -0.175654 0.729000 16183029
-0.106729 -0.170077 0.723000 16116980
-0.103333 -0.160667 0.700000 15853300
-0.103038 -0.156219 0.698000 15591411
-0.102890 -0.152012 0.697000 10259655
-0.099052 -0.142508 0.671000 7828903
-0.099052 -0.138673 0.671000 9471138
-0.100233 -0.136447 0.679000 11318191
-0.100381 -0.132762 0.680000 10196901
-0.100676 -0.129255 0.682000 9012385
-0.100971 -0.125726 0.684000 8881058
-0.101414 -0.122351 0.687000 8553118
-0.101857 -0.118943 0.690000 8026525
-0.102595 -0.115833 0.695000 7434907
-0.102890 -0.112184 0.697000 6908827
-0.103333 -0.108667 0.700000 6249621
-0.104071 -0.105414 0.705000 5856145
-0.104514 -0.101817 0.708000 5395600
-0.104810 -0.098048 0.710000 5197968
-0.104957 -0.094123 0.711000 5000848
-0.105400 -0.090440 0.714000 4803471
-0.105843 -0.086723 0.717000 4540813
-0.107024 -0.083548 0.725000 4343435
-0.107467 -0.079733 0.728000 4409738
-0.107614 -0.075677 0.729000 5261459
-0.108057 -0.071806 0.732000 6245529
-0.108648 -0.067992 0.736000 8878500
-0.108795 -0.063873 0.737000 5592212
-0.110271 -0.060471 0.747000 10526873
-0.110271 -0.056203 0.747000 9803153
-0.110419 -0.052004 0.748000 8027535
-0.111157 -0.048049 0.753000 3487364
-0.112190 -0.044152 0.760000 4342412
-0.112633 -0.039967 0.763000 4473995
-0.112929 -0.035700 0.765000 4474251
-0.113667 -0.031533 0.770000 4539790
-0.114405 -0.027310 0.775000 4802701
-0.114995 -0.022999 0.779000 5523854
-0.115143 -0.018571 0.780000 5393807
-0.115733 -0.014187 0.784000 5131660
-0.116324 -0.009756 0.788000 5067151
-0.116767 -0.005273 0.791000 5000844
-0.117652 -0.000759 0.797000 5000078
-0.118390 0.003819 0.802000 4671885
-0.118686 0.008423 0.804000 4540297
-0.120310 0.013195 0.815000 4539790
-0.120605 0.017896 0.817000 4606090
-0.108266 -0.191765 0.743000 274339
-0.107829 -0.186762 0.740000 13622483
-0.107246 -0.181547 0.736000 16710909
-0.106080 -0.175413 0.728000 16183030
-0.105206 -0.169842 0.722000 16050932
-0.102000 -0.160667 0.700000 15852788
-0.102000 -0.156667 0.700000 15259890
-0.101709 -0.152230 0.698000 10847174
-0.098211 -0.143145 0.674000 8684453
-0.098211 -0.139293 0.674000 9469862
-0.099086 -0.136648 0.680000 11644583
-0.099377 -0.133152 0.682000 10393765
-0.099523 -0.129445 0.683000 9012899
-0.099960 -0.126093 0.686000 8749474
-0.100397 -0.122708 0.689000 8289950
-0.100980 -0.119460 0.693000 7828892
-0.101563 -0.116167 0.697000 7105945
-0.101709 -0.112345 0.698000 6712475
-0.102146 -0.108822 0.701000 5987733
-0.103020 -0.105713 0.707000 5593489
-0.103166 -0.101817 0.708000 5264015
-0.103457 -0.098048 0.710000 5001103
-0.103894 -0.094388 0.713000 4869262
-0.104331 -0.090693 0.716000 4671631
-0.104477 -0.086723 0.717000 4474765
-0.106080 -0.083893 0.728000 4342667
-0.106517 -0.080062 0.731000 4408715
-0.106517 -0.075885 0.731000 5389460
-0.106954 -0.072002 0.734000 7235749
-0.107391 -0.068085 0.737000 8550567
-0.108557 -0.064567 0.745000 4870029
-0.108994 -0.060552 0.748000 10661512
-0.108994 -0.056278 0.748000 9858443
-0.109577 -0.052282 0.752000 6317450
-0.110160 -0.048240 0.756000 3945863
-0.110889 -0.044210 0.761000 4407948
-0.111180 -0.039967 0.763000 4474251
-0.111763 -0.035793 0.767000 4539532
-0.112929 -0.031738 0.775000 4539790
-0.113657 -0.027486 0.780000 4671371
-0.113949 -0.023088 0.782000 4933773
-0.114240 -0.018667 0.784000 5721485
-0.114531 -0.014223 0.786000 5131659
-0.114969 -0.009769 0.789000 5197198
-0.115551 -0.005287 0.793000 4803722
-0.116571 -0.000762 0.800000 4409998
-0.117446 0.003838 0.806000 4671888
-0.117737 0.008465 0.808000 4605836
-0.119049 0.013228 0.817000 4540303
-0.107138 -0.196538 0.745000 12892626
-0.107426 -0.192797 0.747000 197023
-0.106707 -0.187267 0.742000 14471398
-0.106275 -0.182287 0.739000 16645884
-0.104693 -0.175413 0.728000 16117750
-0.104262 -0.170548 0.725000 15985140
-0.100667 -0.160667 0.700000 15852788
-0.100810 -0.156890 0.701000 14931696
-0.100379 -0.152230 0.698000 10393797
-0.097647 -0.144207 0.679000 8223394
-0.097503 -0.140120 0.678000 9734057
-0.098078 -0.137050 0.682000 10594463
-0.098222 -0.133348 0.683000 9670052
-0.098366 -0.129634 0.684000 8881061
-0.098797 -0.126277 0.687000 8618145
-0.099372 -0.123064 0.691000 8026526
-0.100235 -0.120150 0.697000 7567002
-0.100379 -0.116333 0.698000 6841496
-0.100667 -0.112667 0.700000 6448026
-0.101386 -0.109443 0.705000 5855894
-0.102105 -0.106162 0.710000 5461649
-0.102105 -0.102105 0.710000 5066895
-0.102680 -0.098600 0.714000 4869773
-0.103111 -0.094917 0.717000 4803724
-0.103399 -0.091073 0.719000 4540558
-0.104406 -0.087811 0.726000 4474253
-0.104693 -0.083893 0.728000 4277386
-0.105125 -0.080062 0.731000 4408204
-0.105556 -0.076196 0.734000 5788565
-0.105844 -0.072198 0.736000 7375793
-0.106850 -0.068639 0.743000 6975401
-0.107138 -0.064567 0.745000 2490759
-0.107857 -0.060714 0.750000 5388919
-0.107570 -0.056278 0.748000 6029702
-0.108289 -0.052351 0.753000 4867717
-0.108720 -0.048240 0.756000 4277131
-0.109295 -0.044152 0.760000 4408204
-0.110014 -0.040071 0.765000 4539532
-0.110446 -0.035840 0.768000 4473996
-0.111452 -0.031738 0.775000 4670606
-0.112028 -0.027450 0.779000 4868232
-0.112459 -0.023088 0.782000 4474765
-0.113034 -0.018714 0.786000 5196427
-0.113466 -0.014277 0.789000 4737161
-0.113753 -0.009793 0.791000 4869260
-0.114616 -0.005313 0.797000 4934025
-0.115910 -0.000768 0.806000 4803726
-0.116198 0.003848 0.808000 4803219
-0.116773 0.008507 0.812000 4671630
-0.117492 0.013228 0.817000 4540560
-0.106003 -0.197066 0.747000 12107989
-0.106003 -0.192797 0.747000 74138
-0.105719 -0.188024 0.745000 15329519
-0.105293 -0.183027 0.742000 16513018
-0.103307 -0.175413 0.728000 16117750
-0.102881 -0.170548 0.725000 15919092
-0.101178 -0.163650 0.713000 15787508
-0.099901 -0.157562 0.704000 14535918
-0.098908 -0.152012 0.697000 9998004
-0.096353 -0.144207 0.679000 7701665
-0.096779 -0.140947 0.682000 10067378
-0.096921 -0.137250 0.683000 9474462
-0.097063 -0.133543 0.684000 8945572
-0.097063 -0.129634 0.684000 8684196
-0.098056 -0.127012 0.691000 8486305
-0.098482 -0.123598 0.694000 7763101
-0.099050 -0.120322 0.698000 7370137
-0.099333 -0.116667 0.700000 6513558
-0.100043 -0.113471 0.705000 6119063
-0.100752 -0.110219 0.710000 5658516
-0.100894 -0.106311 0.711000 5264017
-0.101178 -0.102536 0.713000 4870031
-0.101320 -0.098600 0.714000 4738190
-0.101746 -0.094917 0.717000 4672140
-0.102455 -0.091453 0.722000 4474766
-0.103307 -0.088053 0.728000 4408716
-0.103307 -0.083893 0.728000 4146568
-0.103874 -0.080171 0.732000 4407950
-0.104158 -0.076196 0.734000 6249367
-0.105719 -0.073081 0.745000 7501744
-0.105719 -0.068824 0.745000 5336496
-0.106003 -0.064740 0.747000 139924
-0.106712 -0.060876 0.752000 79496
-0.106854 -0.056654 0.753000 2249607
-0.107138 -0.052490 0.755000 3487114
-0.107564 -0.048368 0.758000 4539786
-0.107990 -0.044210 0.761000 4473996
-0.108841 -0.040176 0.767000 4539788
-0.109692 -0.036073 0.773000 4408205
-0.110260 -0.031820 0.777000 4802445
-0.110970 -0.027556 0.782000 5131916
-0.111537 -0.023206 0.786000 3950735
-0.111537 -0.018714 0.786000 4736908
-0.111963 -0.014277 0.789000 4277642
-0.112814 -0.009843 0.795000 4541325
-0.113524 -0.005333 0.800000 5065614
-0.114375 -0.000768 0.806000 5196942
-0.114943 0.003857 0.810000 4934288
-0.115510 0.008528 0.814000 4737167
-0.116220 0.013260 0.819000 4540814
-0.104580 -0.197066 0.747000 10594776
-0.105000 -0.193571 0.750000 3211670
-0.104300 -0.188024 0.745000 15657719
-0.103880 -0.183027 0.742000 16380409
-0.101920 -0.175413 0.728000 16117494
-0.101220 -0.170077 0.723000 15918835
-0.099820 -0.163650 0.713000 15786739
-0.098980 -0.158233 0.707000 13224429
-0.096040 -0.149613 0.686000 9338018
-0.095200 -0.144419 0.680000 9673888
-0.095620 -0.141153 0.683000 10000826
-0.095620 -0.137250 0.683000 9273758
-0.095760 -0.133543 0.684000 8880804
-0.096180 -0.130203 0.687000 8683938
-0.097020 -0.127380 0.693000 8355488
-0.097580 -0.124132 0.697000 7498909
-0.098140 -0.120839 0.701000 7040663
-0.098560 -0.117333 0.704000 6382229
-0.099120 -0.113954 0.708000 5921939
-0.099540 -0.110374 0.711000 5526930
-0.099820 -0.106610 0.713000 5132689
-0.100240 -0.102968 0.716000 4804495
-0.100240 -0.098876 0.716000 4606606
-0.101080 -0.095579 0.722000 4671628
-0.101640 -0.091960 0.726000 4475021
-0.102060 -0.088174 0.729000 4408203
-0.102340 -0.084239 0.731000 4277381
-0.103040 -0.080610 0.736000 4079248
-0.103460 -0.076715 0.739000 6576536
-0.104020 -0.072885 0.743000 6980272
-0.104580 -0.069009 0.747000 6771127
-0.104720 -0.064827 0.748000 5462946
-0.105420 -0.060957 0.753000 5665945
-0.105700 -0.056805 0.755000 7059848
-0.105840 -0.052560 0.756000 3685263
-0.106400 -0.048495 0.760000 4540041
-0.106820 -0.044327 0.763000 4474507
-0.108080 -0.040438 0.772000 4540044
-0.108780 -0.036260 0.777000 4605325
-0.109060 -0.031902 0.779000 5131661
-0.109760 -0.027627 0.784000 5264016
-0.110040 -0.023206 0.786000 4540816
-0.110320 -0.018762 0.788000 4934284
-0.111300 -0.014386 0.795000 4605068
-0.112000 -0.009905 0.800000 4803214
-0.112560 -0.005360 0.804000 5524884
-0.113400 -0.000771 0.810000 5065870
-0.113960 0.003876 0.814000 4868237
-0.114660 0.008580 0.819000 4802192
-0.115500 0.013357 0.825000 4409741
-0.103848 -0.198385 0.752000 9155019
-0.103571 -0.193571 0.750000 6376349
-0.103157 -0.188529 0.747000 16051705
-0.102467 -0.183027 0.742000 16184057
-0.100533 -0.175413 0.728000 16117494
-0.100119 -0.170548 0.725000 15853043
-0.098462 -0.163650 0.713000 15852020
-0.097633 -0.158233 0.707000 11907552
-0.094733 -0.149613 0.686000 8683173
-0.094181 -0.144844 0.682000 11641255
-0.094733 -0.141773 0.686000 9931187
-0.094871 -0.138054 0.687000 9012131
-0.095148 -0.134519 0.689000 8881060
-0.095976 -0.131719 0.695000 8617890
-0.096252 -0.128115 0.697000 8224157
-0.096390 -0.124310 0.698000 7171228
-0.097081 -0.121184 0.703000 6778007
-0.097633 -0.117833 0.707000 6184597
-0.098048 -0.114276 0.710000 5659026
-0.098462 -0.110685 0.713000 5395600
-0.098600 -0.106760 0.714000 5001104
-0.098876 -0.102968 0.716000 4738446
-0.099014 -0.099014 0.717000 4475277
-0.099843 -0.095711 0.723000 4605835
-0.100671 -0.092340 0.729000 4475019
-0.100948 -0.088416 0.731000 4342924
-0.101086 -0.084354 0.732000 4342664
-0.102052 -0.080938 0.739000 3685519
-0.102467 -0.077027 0.742000 6903461
-0.103157 -0.073277 0.747000 6389418
-0.103295 -0.069101 0.748000 8207531
-0.103848 -0.065173 0.752000 10784670
-0.104262 -0.061119 0.755000 11178645
-0.104952 -0.057181 0.760000 11771013
-0.104952 -0.052838 0.760000 3946638
-0.105367 -0.048687 0.763000 4474506
-0.106057 -0.044617 0.768000 4474507
-0.106748 -0.040490 0.773000 4540045
-0.107576 -0.036353 0.779000 4802442
-0.107990 -0.032025 0.782000 5395601
-0.108543 -0.027697 0.786000 5396114
-0.108819 -0.023265 0.788000 5132176
-0.108957 -0.018786 0.789000 5131919
-0.110476 -0.014476 0.800000 4868236
-0.111029 -0.009954 0.804000 5066382
-0.111305 -0.005373 0.806000 5919632
-0.111857 -0.000771 0.810000 4868236
-0.112824 0.003890 0.817000 4802444
-0.113652 0.008622 0.823000 4866963
-0.113929 0.013357 0.825000 4278156
-0.102415 -0.198385 0.752000 7567550
-0.102415 -0.194088 0.752000 9597092
-0.101870 -0.188781 0.748000 16249082
-0.101053 -0.183027 0.742000 16116986
-0.099147 -0.175413 0.728000 16117238
-0.098738 -0.170548 0.725000 15853043
-0.097104 -0.163650 0.713000 15590388
-0.096423 -0.158457 0.708000 11052499
-0.093427 -0.149613 0.686000 9474215
-0.093154 -0.145269 0.684000 11511983
-0.093835 -0.142393 0.689000 9405612
-0.093971 -0.138657 0.690000 9143464
-0.094108 -0.134910 0.691000 8946851
-0.094925 -0.132098 0.697000 9338530
-0.095333 -0.128667 0.700000 8092058
-0.095470 -0.124845 0.701000 7039644
-0.096287 -0.121873 0.707000 6448022
-0.096287 -0.117833 0.707000 6052757
-0.096695 -0.114276 0.710000 5461648
-0.097240 -0.110840 0.714000 5329550
-0.097649 -0.107209 0.717000 4935054
-0.097512 -0.102968 0.716000 4672654
-0.097649 -0.099014 0.717000 4474764
-0.098738 -0.095976 0.725000 4409482
-0.099555 -0.092593 0.731000 4540296
-0.099964 -0.088779 0.734000 4277388
-0.100372 -0.084930 0.737000 4277130
-0.100645 -0.080938 0.739000 2700942
-0.101462 -0.077338 0.745000 8746674
-0.101870 -0.073375 0.748000 8553124
-0.102143 -0.069286 0.750000 8945055
-0.102824 -0.065433 0.755000 10525338
-0.103505 -0.061524 0.760000 11310992
-0.103641 -0.057256 0.761000 8422530
-0.103913 -0.053047 0.763000 4144268
-0.104594 -0.049006 0.768000 4605323
-0.105820 -0.045140 0.777000 4539787
-0.105820 -0.040700 0.777000 4671373
-0.106229 -0.036400 0.780000 4934279
-0.107318 -0.032270 0.788000 5594262
-0.107318 -0.027768 0.788000 5593235
-0.107454 -0.023294 0.789000 5264528
-0.108680 -0.019000 0.798000 5328529
-0.109225 -0.014512 0.802000 5000589
-0.109770 -0.009979 0.806000 5263245
-0.110314 -0.005400 0.810000 5526668
-0.110859 -0.000775 0.814000 4736393
-0.112085 0.003919 0.823000 4933003
-0.112630 0.008664 0.827000 5130901
-0.101117 -0.194346 0.753000 12814774
-0.100983 -0.189790 0.752000 16446460
-0.099640 -0.183027 0.742000 16052472
-0.097760 -0.175413 0.728000 16116981
-0.097491 -0.170783 0.726000 15853043
-0.095746 -0.163650 0.713000 15393268
-0.091717 -0.152862 0.683000 10200015
-0.092254 -0.149831 0.687000 10324380
-0.092523 -0.146330 0.689000 11313575
-0.092791 -0.142807 0.691000 8881062
-0.093060 -0.139260 0.693000 9210027
-0.093329 -0.135690 0.695000 9012645
-0.093597 -0.132098 0.697000 9994661
-0.094403 -0.129218 0.703000 7962011
-0.094940 -0.125913 0.707000 6842521
-0.094940 -0.121873 0.707000 6118549
-0.095074 -0.118000 0.708000 5855123
-0.095477 -0.114437 0.711000 5264274
-0.096149 -0.111150 0.716000 5264530
-0.096686 -0.107657 0.720000 4869006
-0.097357 -0.104262 0.725000 4540813
-0.096283 -0.099014 0.717000 4539532
-0.098297 -0.096903 0.732000 4146826
-0.098297 -0.092720 0.732000 4670860
-0.098566 -0.088779 0.734000 4146572
-0.098969 -0.084930 0.737000 4277643
-0.099371 -0.081048 0.740000 1713807
-0.100311 -0.077546 0.747000 10656681
-0.100446 -0.073375 0.748000 10652572
-0.101117 -0.069563 0.753000 9665162
-0.101789 -0.065693 0.758000 10255499
-0.102191 -0.061605 0.761000 11510413
-0.102191 -0.057256 0.761000 5001861
-0.103131 -0.053394 0.768000 4343179
-0.104340 -0.049580 0.777000 4736651
-0.104609 -0.045256 0.779000 4605580
-0.104743 -0.040857 0.780000 4737935
-0.105011 -0.036493 0.782000 5131402
-0.106220 -0.032393 0.791000 5724051
-0.106220 -0.027873 0.791000 5855120
-0.106220 -0.023353 0.791000 5395345
-0.107697 -0.019095 0.802000 5525142
-0.108503 -0.014621 0.808000 5066380
-0.108503 -0.010004 0.808000 5525133
-0.109309 -0.005427 0.814000 5132171
-0.109980 -0.000780 0.819000 4604319
-0.111054 0.003938 0.827000 4999827
-0.111591 0.008706 0.831000 5397915
-0.099683 -0.194346 0.753000 14009033
-0.099550 -0.189790 0.752000 16511998
-0.098227 -0.183027 0.742000 16117494
-0.097168 -0.176859 0.734000 15985140
-0.096109 -0.170783 0.726000 15787507
-0.090813 -0.157453 0.686000 14998516
-0.090813 -0.153533 0.686000 10136268
-0.091210 -0.150268 0.689000 10060177
-0.091475 -0.146755 0.691000 11377568
-0.091872 -0.143427 0.694000 10130592
-0.092005 -0.139662 0.695000 9344175
-0.092005 -0.135690 0.695000 9275046
-0.092667 -0.132667 0.700000 9601959
-0.093196 -0.129402 0.704000 7894939
-0.093593 -0.125913 0.707000 6645911
-0.093726 -0.122046 0.708000 5855635
-0.093990 -0.118333 0.710000 5658513
-0.094388 -0.114759 0.713000 5526163
-0.094917 -0.111306 0.717000 5266070
-0.095976 -0.108405 0.725000 4803469
-0.096506 -0.104837 0.729000 4540045
-0.096903 -0.101086 0.732000 4539787
-0.097168 -0.097168 0.734000 4277899
-0.097432 -0.093227 0.736000 4605327
-0.097432 -0.089021 0.736000 4211852
-0.097830 -0.085161 0.739000 4212107
-0.098624 -0.081595 0.745000 4981393
-0.099550 -0.078065 0.752000 9927583
-0.099550 -0.073768 0.752000 9535637
-0.100080 -0.069840 0.756000 5524084
-0.100742 -0.065953 0.761000 5177725
-0.101271 -0.061929 0.765000 6705801
-0.101536 -0.057708 0.767000 4864649
-0.102330 -0.053742 0.773000 4540041
-0.102860 -0.049580 0.777000 4671371
-0.103522 -0.045430 0.782000 4736908
-0.103522 -0.040962 0.782000 5066640
-0.103522 -0.036493 0.782000 5262989
-0.104978 -0.032475 0.793000 5527184
-0.105243 -0.028014 0.795000 5329036
-0.105243 -0.023471 0.795000 5460625
-0.106170 -0.019095 0.802000 5723290
-0.107758 -0.014730 0.814000 4607370
-0.107493 -0.010053 0.812000 5853580
-0.107890 -0.005433 0.815000 4933258
-0.108950 -0.000784 0.823000 6120628
-0.110009 0.003957 0.831000 6051227
-0.098640 -0.195120 0.756000 15121103
-0.098249 -0.190043 0.753000 16580350
-0.096813 -0.183027 0.742000 16117238
-0.096161 -0.177582 0.737000 15919348
-0.094726 -0.170783 0.726000 15655667
-0.089507 -0.157453 0.686000 14605297
-0.089637 -0.153757 0.687000 10064067
-0.090159 -0.150704 0.691000 9864605
-0.090550 -0.147392 0.694000 11442340
-0.090681 -0.143633 0.695000 11441056
-0.091072 -0.140265 0.698000 9407657
-0.091072 -0.136276 0.698000 9605027
-0.091464 -0.132856 0.701000 9207715
-0.091986 -0.129586 0.705000 7830423
-0.092638 -0.126448 0.710000 6448535
-0.092638 -0.122390 0.710000 5658258
-0.092769 -0.118500 0.711000 5395601
-0.093421 -0.115242 0.716000 5787538
-0.094334 -0.112237 0.723000 5199251
-0.095378 -0.109302 0.731000 4802956
-0.095509 -0.105269 0.732000 4540299
-0.095770 -0.101362 0.734000 4539786
-0.096161 -0.097565 0.737000 4408714
-0.096161 -0.093353 0.737000 4473997
-0.096552 -0.089505 0.740000 4277643
-0.097205 -0.085852 0.745000 4212111
-0.098118 -0.082362 0.752000 8283549
-0.098118 -0.078065 0.752000 9272484
-0.098640 -0.074160 0.756000 8416668
-0.099162 -0.070210 0.760000 1390718
-0.099553 -0.066127 0.763000 75658
-0.100075 -0.062090 0.767000 1905543
-0.100075 -0.057708 0.767000 4734855
-0.101380 -0.054020 0.777000 4736649
-0.101641 -0.049708 0.779000 4540299
-0.102032 -0.045430 0.782000 4868492
-0.102293 -0.041067 0.784000 5394578
-0.102946 -0.036820 0.789000 5394573
-0.103729 -0.032557 0.795000 5264016
-0.104642 -0.028261 0.802000 4869516
-0.105425 -0.023855 0.808000 5525903
-0.106208 -0.019381 0.814000 5920656
-0.106338 -0.014748 0.815000 4081548
-0.106860 -0.010140 0.819000 6185120
-0.106599 -0.005447 0.817000 4673429
-0.107904 -0.000788 0.827000 7573411
-0.108687 0.003967 0.833000 7102878
-0.097457 -0.195636 0.758000 15389140
-0.097071 -0.190548 0.755000 16513790
-0.095786 -0.183767 0.745000 16116981
-0.094757 -0.177582 0.737000 15853299
-0.093600 -0.171253 0.728000 15655155
-0.088200 -0.157453 0.686000 13815021
-0.088843 -0.154652 0.691000 8945851
-0.089229 -0.151358 0.694000 9801896
-0.089229 -0.147392 0.694000 9996199
-0.089743 -0.144253 0.698000 10324128
-0.090000 -0.140667 0.700000 9274020
-0.090129 -0.136862 0.701000 8948639
-0.090386 -0.133235 0.703000 8286111
-0.091029 -0.130137 0.708000 7500178
-0.091286 -0.126448 0.710000 6251159
-0.091414 -0.122563 0.711000 5526673
-0.092057 -0.119333 0.716000 5264274
-0.092957 -0.116369 0.723000 5394320
-0.093600 -0.113013 0.728000 4934800
-0.094114 -0.109451 0.732000 4671882
-0.094371 -0.105556 0.734000 4605833
-0.094629 -0.101638 0.736000 4539785
-0.094757 -0.097565 0.737000 4408457
-0.095014 -0.093607 0.739000 4539787
-0.095786 -0.090110 0.745000 4343179
-0.096429 -0.086429 0.750000 4014739
-0.097071 -0.082690 0.755000 8363689
-0.097200 -0.078480 0.756000 8085929
-0.097843 -0.074650 0.761000 6576547
-0.098100 -0.070487 0.763000 5392520
-0.098614 -0.066473 0.767000 5598616
-0.098743 -0.062171 0.768000 4607365
-0.099643 -0.058310 0.775000 4671365
-0.100286 -0.054229 0.780000 4671113
-0.100286 -0.049771 0.780000 4801931
-0.100800 -0.045547 0.784000 5065611
-0.101314 -0.041276 0.788000 5920661
-0.102214 -0.037100 0.795000 5329037
-0.102600 -0.032680 0.798000 5262992
-0.103886 -0.028472 0.808000 5329547
-0.104400 -0.023973 0.812000 5394573
-0.104786 -0.019405 0.815000 5656710
-0.105300 -0.014820 0.819000 4210574
-0.105557 -0.010165 0.821000 6779060
-0.105557 -0.005473 0.821000 5919391
-0.106586 -0.000790 0.829000 7168914
-0.107614 0.003986 0.837000 7040160
-0.096393 -0.196410 0.761000 15589604
-0.095633 -0.190548 0.755000 16447997
-0.095000 -0.185000 0.750000 16116981
-0.093733 -0.178305 0.740000 15853811
-0.092213 -0.171253 0.728000 15654899
-0.088287 -0.159978 0.697000 13094120
-0.088033 -0.155548 0.695000 7766710
-0.088033 -0.151576 0.695000 9670564
-0.088287 -0.148030 0.697000 8487846
-0.088793 -0.144873 0.701000 9146287
-0.089047 -0.141270 0.703000 9142691
-0.089300 -0.137643 0.705000 8292766
-0.089553 -0.133993 0.707000 7303069
-0.089680 -0.130137 0.708000 7103895
-0.090060 -0.126626 0.711000 5987476
-0.090440 -0.123080 0.714000 5460624
-0.091200 -0.120000 0.720000 5132432
-0.092213 -0.117173 0.728000 5066640
-0.092720 -0.113634 0.732000 4606095
-0.092973 -0.109750 0.734000 4605834
-0.093227 -0.105844 0.736000 4605834
-0.093607 -0.102052 0.739000 4605066
-0.093733 -0.097962 0.740000 4408458
-0.094113 -0.094113 0.743000 4540300
-0.094747 -0.090472 0.748000 4408715
-0.095253 -0.086659 0.752000 3883152
-0.095760 -0.082800 0.756000 8351650
-0.096013 -0.078688 0.758000 6969519
-0.096900 -0.075043 0.765000 4744096
-0.097280 -0.070949 0.768000 9345930
-0.097533 -0.066733 0.770000 11048086
-0.098420 -0.062900 0.777000 7237517
-0.098673 -0.058610 0.779000 4605321
-0.098800 -0.054229 0.780000 4605322
-0.099053 -0.049899 0.782000 4999564
-0.099560 -0.045663 0.786000 5262729
-0.099940 -0.041329 0.789000 6379663
-0.100953 -0.037193 0.797000 5196939
-0.102093 -0.033008 0.806000 5261967
-0.102347 -0.028472 0.808000 5854861
-0.102853 -0.023973 0.812000 5263244
-0.103233 -0.019405 0.815000 5393545
-0.103993 -0.014856 0.821000 4280725
-0.104247 -0.010190 0.823000 7436711
-0.104500 -0.005500 0.825000 7168159
-0.105513 -0.000793 0.833000 6835610
-0.106273 0.003995 0.839000 6972315
-0.095193 -0.196927 0.763000 15786739
-0.094570 -0.191305 0.758000 16447227
-0.093571 -0.185000 0.750000 16116981
-0.092324 -0.178305 0.740000 15787507
-0.090951 -0.171489 0.729000 15589364
-0.086959 -0.159978 0.697000 13091298
-0.086959 -0.155995 0.697000 8357553
-0.086959 -0.152012 0.697000 9471391
-0.087333 -0.148667 0.700000 9471140
-0.087708 -0.145287 0.703000 10002110
-0.088207 -0.142073 0.707000 8944546
-0.087957 -0.137643 0.705000 7500188
-0.088581 -0.134562 0.710000 7040155
-0.088706 -0.130689 0.711000 6446747
-0.088955 -0.126982 0.713000 5855634
-0.089330 -0.123425 0.716000 5329551
-0.090452 -0.120833 0.725000 5066383
-0.090951 -0.117334 0.729000 4869520
-0.091575 -0.113945 0.734000 4605838
-0.091825 -0.110050 0.736000 4474505
-0.091950 -0.105988 0.737000 4605834
-0.092324 -0.102190 0.740000 4539531
-0.092573 -0.098227 0.742000 4342922
-0.092698 -0.094113 0.743000 4605836
-0.093571 -0.090714 0.750000 4474508
-0.094320 -0.087120 0.756000 4672140
-0.094570 -0.083019 0.758000 9073306
-0.094819 -0.078895 0.760000 7368117
-0.095817 -0.075337 0.768000 7249565
-0.096067 -0.071133 0.770000 9275532
-0.096441 -0.066993 0.773000 10719892
-0.097314 -0.063143 0.780000 6379156
-0.097813 -0.058987 0.784000 4737164
-0.097813 -0.054507 0.784000 4736395
-0.097813 -0.050027 0.784000 5393806
-0.098437 -0.045837 0.789000 5065095
-0.099186 -0.041643 0.795000 5920906
-0.099810 -0.037333 0.800000 4999561
-0.100558 -0.033008 0.806000 5065103
-0.101057 -0.028543 0.810000 5525647
-0.101307 -0.023973 0.812000 5197452
-0.102180 -0.019500 0.819000 5130891
-0.102679 -0.014892 0.823000 6513308
-0.102929 -0.010214 0.825000 6972314
-0.103178 -0.005513 0.827000 6713246
-0.104176 -0.000795 0.835000 7035297
-0.104925 0.004005 0.841000 6313622
-0.094231 -0.202342 0.767000 7220620
-0.093986 -0.197443 0.765000 15919863
-0.093371 -0.191810 0.760000 16447224
-0.092389 -0.185493 0.752000 16051188
-0.091283 -0.179028 0.743000 15787251
-0.089563 -0.171489 0.729000 15523570
-0.085631 -0.159978 0.697000 13152988
-0.085631 -0.155995 0.697000 8948659
-0.085754 -0.152230 0.698000 9338788
-0.086000 -0.148667 0.700000 10460580
-0.086491 -0.145493 0.704000 10853809
-0.086983 -0.142274 0.708000 8682401
-0.087229 -0.138619 0.710000 6775964
-0.087229 -0.134562 0.710000 6711193
-0.087720 -0.131240 0.714000 5790104
-0.087966 -0.127516 0.716000 5658001
-0.088457 -0.124114 0.720000 5198735
-0.089440 -0.121333 0.728000 4935311
-0.089931 -0.117817 0.732000 4738192
-0.090423 -0.114255 0.736000 4540045
-0.090546 -0.110199 0.737000 4408971
-0.090546 -0.105988 0.737000 4540043
-0.091283 -0.102605 0.743000 4474252
-0.091774 -0.098889 0.747000 4212105
-0.091529 -0.094367 0.745000 4736652
-0.092511 -0.091077 0.753000 4540041
-0.092880 -0.087120 0.756000 5461900
-0.093371 -0.083238 0.760000 9796001
-0.093740 -0.079207 0.763000 7830968
-0.094600 -0.075533 0.770000 9733526
-0.094969 -0.071410 0.773000 9207439
-0.095214 -0.067167 0.775000 10388620
-0.096074 -0.063305 0.782000 5510540
-0.096320 -0.058987 0.784000 4867724
-0.096320 -0.054507 0.784000 4932746
-0.096811 -0.050282 0.788000 5721485
-0.098040 -0.046360 0.798000 4933514
-0.098040 -0.041800 0.798000 5394572
-0.099023 -0.037613 0.806000 4802444
-0.099514 -0.033171 0.810000 4869009
-0.099760 -0.028613 0.812000 5131919
-0.100374 -0.024121 0.817000 5065611
-0.100866 -0.019548 0.821000 4934027
-0.101357 -0.014929 0.825000 8679835
-0.101357 -0.010214 0.825000 6508437
-0.102340 -0.005553 0.833000 6184084
-0.103569 -0.000803 0.843000 7297695
-0.092891 -0.202606 0.768000 8941470
-0.092770 -0.197959 0.767000 16311290
-0.091924 -0.191810 0.760000 16314869
-0.091077 -0.185740 0.753000 16050932
-0.089868 -0.179028 0.743000 15655410
-0.088174 -0.171489 0.729000 15457008
-0.084788 -0.160896 0.701000 12365525
-0.084667 -0.156667 0.700000 8945333
-0.084667 -0.152667 0.700000 10591913
-0.085030 -0.149304 0.703000 11318436
-0.085271 -0.145700 0.705000 10524580
-0.085876 -0.142676 0.710000 8092832
-0.086239 -0.139205 0.713000 6776732
-0.086602 -0.135699 0.716000 6382231
-0.086965 -0.132159 0.719000 5724820
-0.087086 -0.128229 0.720000 5395088
-0.087690 -0.124976 0.725000 5067407
-0.088053 -0.121333 0.728000 5001103
-0.088779 -0.118139 0.734000 4737424
-0.089384 -0.114721 0.739000 4474764
-0.089384 -0.110498 0.739000 4474253
-0.089747 -0.106707 0.742000 4736907
-0.090351 -0.103157 0.747000 4408717
-0.090472 -0.099021 0.748000 4408713
-0.090956 -0.095253 0.752000 4605579
-0.091319 -0.091319 0.755000 4736135
-0.091682 -0.087350 0.758000 6708363
-0.092045 -0.083348 0.761000 6323624
-0.092770 -0.079622 0.767000 7500731
-0.093375 -0.075730 0.772000 9347471
-0.093496 -0.071410 0.773000 8157841
-0.093980 -0.067340 0.777000 7168901
-0.094827 -0.063467 0.784000 5125507
-0.095069 -0.059137 0.786000 4867981
-0.095310 -0.054785 0.788000 4933000
-0.095310 -0.050282 0.788000 5459084
-0.096762 -0.046476 0.800000 4999308
-0.097488 -0.042219 0.806000 5458574
-0.097730 -0.037707 0.808000 5131151
-0.098213 -0.033253 0.812000 5066388
-0.098455 -0.028684 0.814000 5132174
-0.099302 -0.024239 0.821000 5064587
-0.099544 -0.019595 0.823000 5392522
-0.099786 -0.014929 0.825000 8230299
-0.099786 -0.010214 0.825000 7033743
-0.100753 -0.005553 0.833000 5590153
-0.102568 -0.000808 0.848000 6578333
-0.091667 -0.203133 0.770000 10596018
-0.091310 -0.197959 0.767000 16641273
-0.090476 -0.191810 0.760000 16247541
-0.089524 -0.185493 0.752000 16051188
-0.088690 -0.179510 0.745000 15589361
-0.088452 -0.174782 0.743000 15391470
-0.083690 -0.161355 0.703000 11509714
-0.083452 -0.156890 0.701000 8883627
-0.083690 -0.153321 0.703000 11905443
-0.083929 -0.149729 0.705000 12167334
-0.084286 -0.146320 0.708000 10263973
-0.084643 -0.142877 0.711000 7436191
-0.085238 -0.139790 0.716000 6842012
-0.085595 -0.136268 0.719000 6053526
-0.085952 -0.132710 0.722000 5658771
-0.086071 -0.128763 0.723000 5132430
-0.086429 -0.125149 0.726000 4935827
-0.086786 -0.121500 0.729000 5000846
-0.087619 -0.118461 0.736000 4736399
-0.087976 -0.114721 0.739000 4343692
-0.088095 -0.110648 0.740000 4539535
-0.088333 -0.106707 0.742000 4867723
-0.089286 -0.103571 0.750000 4343180
-0.089881 -0.099948 0.755000 4540041
-0.090000 -0.095760 0.756000 4474506
-0.090000 -0.091440 0.756000 4867464
-0.090238 -0.087350 0.758000 7882894
-0.090595 -0.083348 0.761000 2838938
-0.091429 -0.079726 0.768000 7166108
-0.092024 -0.075828 0.773000 8935812
-0.092500 -0.071780 0.777000 7100296
-0.092857 -0.067600 0.780000 3880842
-0.093571 -0.063629 0.786000 4671368
-0.093810 -0.059288 0.788000 4867982
-0.093810 -0.054785 0.788000 4933769
-0.094643 -0.050729 0.795000 5197197
-0.095476 -0.046592 0.802000 5065871
-0.096190 -0.042324 0.808000 5524880
-0.096429 -0.037800 0.810000 5459854
-0.096667 -0.033253 0.812000 5197201
-0.097024 -0.028719 0.815000 5131918
-0.098214 -0.024357 0.825000 4999564
-0.098452 -0.019690 0.827000 5914771
-0.099405 -0.015110 0.835000 7754644
-0.100357 -0.010437 0.843000 7627683
-0.100952 -0.005653 0.848000 5004178
-0.101190 -0.000810 0.850000 5859738
-0.090434 -0.203661 0.772000 12234438
-0.089966 -0.198217 0.768000 16711415
-0.089380 -0.192567 0.763000 16182772
-0.088209 -0.185740 0.753000 15985653
-0.087037 -0.179028 0.743000 15523311
-0.086920 -0.174547 0.742000 15392237
-0.082351 -0.161355 0.703000 11843022
-0.082351 -0.157338 0.703000 10135202
-0.082469 -0.153539 0.704000 12036253
-0.082820 -0.150153 0.707000 12362920
-0.083289 -0.146940 0.711000 9341606
-0.083640 -0.143480 0.714000 7236511
-0.083874 -0.139790 0.716000 6645404
-0.084226 -0.136268 0.719000 5855125
-0.084929 -0.133262 0.725000 5592721
-0.085046 -0.129297 0.726000 5197452
-0.085397 -0.125666 0.729000 5330582
-0.085749 -0.122000 0.732000 5000590
-0.086334 -0.118622 0.737000 4606093
-0.086686 -0.114876 0.740000 4540044
-0.086920 -0.110947 0.742000 4605073
-0.087857 -0.107857 0.750000 4670860
-0.088209 -0.103986 0.753000 4474507
-0.088560 -0.100080 0.756000 4670602
-0.088560 -0.095760 0.756000 4670857
-0.088794 -0.091682 0.758000 5261194
-0.089029 -0.087581 0.760000 6180497
-0.090200 -0.084333 0.770000 3212429
-0.090434 -0.080141 0.772000 6305917
-0.090786 -0.076024 0.775000 5833081
-0.091254 -0.071965 0.779000 6308223
-0.091606 -0.067773 0.782000 4144783
-0.092309 -0.063790 0.788000 4935052
-0.092309 -0.059288 0.788000 4933519
-0.093714 -0.055619 0.800000 5065865
-0.093480 -0.050920 0.798000 5394574
-0.094651 -0.046941 0.808000 5394577
-0.094886 -0.042429 0.810000 6117779
-0.095120 -0.037893 0.812000 5394317
-0.095706 -0.033458 0.817000 5261967
-0.096643 -0.029071 0.825000 5328525
-0.097111 -0.024475 0.829000 4671630
-0.097346 -0.019786 0.831000 6116763
-0.098517 -0.015218 0.841000 6308237
-0.099337 -0.010499 0.848000 7434166
-0.099337 -0.005653 0.848000 6053018
-0.099571 -0.000810 0.850000 5723799
-0.089079 -0.203925 0.773000 13953760
-0.088503 -0.198217 0.768000 16710137
-0.088157 -0.193071 0.765000 16181748
-0.087350 -0.186973 0.758000 15918836
-0.085622 -0.179028 0.743000 15392241
-0.081012 -0.165372 0.703000 15323625
-0.081128 -0.161585 0.704000 12237764
-0.081128 -0.157562 0.704000 11375268
-0.081243 -0.153757 0.705000 12233373
-0.081819 -0.150790 0.710000 12494246
-0.082280 -0.147560 0.714000 8414374
-0.082510 -0.143882 0.716000 6973598
-0.082626 -0.139986 0.717000 6448541
-0.082971 -0.136457 0.720000 5658517
-0.083663 -0.133446 0.726000 5461392
-0.083893 -0.129653 0.728000 5262989
-0.084239 -0.126010 0.731000 5791636
-0.084585 -0.122333 0.734000 4934797
-0.085161 -0.118944 0.739000 4540556
-0.085276 -0.114876 0.740000 4671373
-0.086083 -0.111694 0.747000 4670607
-0.086774 -0.108289 0.753000 4474252
-0.087120 -0.104400 0.756000 4540300
-0.087581 -0.100610 0.760000 4801931
-0.087696 -0.096393 0.761000 4867466
-0.087927 -0.092287 0.763000 5655436
-0.088733 -0.088733 0.770000 4473742
-0.089079 -0.084662 0.773000 3614348
-0.089310 -0.080452 0.775000 5467796
-0.089540 -0.076220 0.777000 2707081
-0.089886 -0.072057 0.780000 5526669
-0.090347 -0.067947 0.784000 4408719
-0.090808 -0.063790 0.788000 5197447
-0.092190 -0.060190 0.800000 4999820
-0.092421 -0.055758 0.802000 5263242
-0.092651 -0.051303 0.804000 5591954
-0.093343 -0.047057 0.810000 5658001
-0.093804 -0.042638 0.814000 6708111
-0.093919 -0.038033 0.815000 5262221
-0.094380 -0.033540 0.819000 5262224
-0.095302 -0.029142 0.827000 5524620
-0.095763 -0.024534 0.831000 4343439
-0.095993 -0.019833 0.833000 6382246
-0.097722 -0.015345 0.848000 4871313
-0.098183 -0.010549 0.852000 7305634
-0.098183 -0.005680 0.852000 7103128
-0.087833 -0.204452 0.775000 14869498
-0.087267 -0.198733 0.770000 16644602
-0.086927 -0.193576 0.767000 16116723
-0.085907 -0.186973 0.758000 15852531
-0.084207 -0.179028 0.743000 15391986
-0.079673 -0.165372 0.703000 14339556
-0.079900 -0.161814 0.705000 10391481
-0.079900 -0.157786 0.705000 9988519
-0.080240 -0.154411 0.708000 10916764
-0.080580 -0.151003 0.711000 10132387
-0.081147 -0.147973 0.716000 7827621
-0.081600 -0.144686 0.720000 6513308
-0.081940 -0.141157 0.723000 6251421
-0.082167 -0.137405 0.725000 5789077
-0.082507 -0.133813 0.728000 5460879
-0.082847 -0.130188 0.731000 5197453
-0.083187 -0.126528 0.734000 5394321
-0.083753 -0.123167 0.739000 4934541
-0.083867 -0.119105 0.740000 4605835
-0.084093 -0.115187 0.742000 4802447
-0.085227 -0.112442 0.752000 4539789
-0.085680 -0.108720 0.756000 4670861
-0.085907 -0.104676 0.758000 4671628
-0.086473 -0.101007 0.763000 4736397
-0.086700 -0.096900 0.765000 4671115
-0.087267 -0.093133 0.770000 5263247
-0.087607 -0.089079 0.773000 4539787
-0.087833 -0.084881 0.775000 4074123
-0.088287 -0.080868 0.779000 8295851
-0.088400 -0.076514 0.780000 6596249
-0.088853 -0.072427 0.784000 7044251
-0.089307 -0.068293 0.788000 4800912
-0.090667 -0.064762 0.800000 5196673
-0.091120 -0.060491 0.804000 5524618
-0.091120 -0.055897 0.804000 5197194
-0.091347 -0.051430 0.806000 5658262
-0.092027 -0.047173 0.812000 5658257
-0.092367 -0.042690 0.815000 6052235
-0.092593 -0.038127 0.817000 5131149
-0.092820 -0.033540 0.819000 5263249
-0.094180 -0.029283 0.831000 5327243
-0.094407 -0.024593 0.833000 4998544
-0.095767 -0.020119 0.845000 7171249
-0.096107 -0.015345 0.848000 6052501
-0.096333 -0.010524 0.850000 6511758
-0.096560 -0.005680 0.852000 7305110
-0.086803 -0.205508 0.779000 15791096
-0.086023 -0.199250 0.772000 16578298
-0.085577 -0.193829 0.768000 16051444
-0.084463 -0.186973 0.758000 15786995
-0.083794 -0.181196 0.752000 15392237
-0.078557 -0.165843 0.705000 13287397
-0.078557 -0.161814 0.705000 8553136
-0.078780 -0.158233 0.707000 8553892
-0.079114 -0.154848 0.710000 9606827
-0.079449 -0.151428 0.713000 7700130
-0.079894 -0.148180 0.717000 7238563
-0.080786 -0.145690 0.725000 6054044
-0.080897 -0.141743 0.726000 6054036
-0.081231 -0.138163 0.729000 5855381
-0.081454 -0.134365 0.731000 5395089
-0.082011 -0.131078 0.736000 5066381
-0.082011 -0.126872 0.736000 4999054
-0.082680 -0.123667 0.742000 4868748
-0.083014 -0.119910 0.745000 4736909
-0.083237 -0.115963 0.747000 4868753
-0.084129 -0.112890 0.755000 4474253
-0.084240 -0.108720 0.756000 4803214
-0.084686 -0.104952 0.760000 4803214
-0.085243 -0.101271 0.765000 4605580
-0.085577 -0.097280 0.768000 4474762
-0.086023 -0.093375 0.772000 4868749
-0.086357 -0.089310 0.775000 4671625
-0.086580 -0.085100 0.777000 4540040
-0.086914 -0.080971 0.780000 11105944
-0.087137 -0.076710 0.782000 10380938
-0.087137 -0.072242 0.782000 8616845
-0.089143 -0.069333 0.800000 5132943
-0.089143 -0.064762 0.800000 5196165
-0.089811 -0.060642 0.806000 5983113
-0.089811 -0.056036 0.806000 5196682
-0.090034 -0.051558 0.808000 5722768
-0.090703 -0.047290 0.814000 5591696
-0.091260 -0.042900 0.819000 5395083
-0.091706 -0.038407 0.823000 4934283
-0.092597 -0.034031 0.831000 5262219
-0.092597 -0.029283 0.831000 5129609
-0.094157 -0.024948 0.845000 5590415
-0.094491 -0.020190 0.848000 7961759
-0.094714 -0.015381 0.850000 7169940
-0.095160 -0.010573 0.854000 5784720
-0.094937 -0.005680 0.852000 7429777
-0.085319 -0.205508 0.779000 15788534
-0.084662 -0.199508 0.773000 16446714
-0.084114 -0.193829 0.768000 15985397
-0.082800 -0.186480 0.756000 15655155
-0.082362 -0.181196 0.752000 15195111
-0.077214 -0.165843 0.705000 12568038
-0.077433 -0.162273 0.707000 10460327
-0.077543 -0.158457 0.708000 10198690
-0.078419 -0.156156 0.716000 10198458
-0.078529 -0.152277 0.717000 7763360
-0.079076 -0.149213 0.722000 7237536
-0.079514 -0.145891 0.726000 6643101
-0.079733 -0.142133 0.728000 7041163
-0.080171 -0.138731 0.732000 6577046
-0.080610 -0.135284 0.736000 5460114
-0.080719 -0.131256 0.737000 5066126
-0.081048 -0.127562 0.740000 4803211
-0.081267 -0.123667 0.742000 4803211
-0.081924 -0.120392 0.748000 4933774
-0.082800 -0.117360 0.756000 5001107
-0.082800 -0.113040 0.756000 4671372
-0.083019 -0.109008 0.758000 5197455
-0.083567 -0.105367 0.763000 4934543
-0.084114 -0.101669 0.768000 4671372
-0.084333 -0.097533 0.770000 4736905
-0.084552 -0.093375 0.772000 4868491
-0.084881 -0.089310 0.775000 4802439
-0.085100 -0.085100 0.777000 4870022
-0.085867 -0.081387 0.784000 7226245
-0.086086 -0.077103 0.786000 6750587
-0.087400 -0.073720 0.798000 6968702
-0.087838 -0.069507 0.802000 5594254
-0.088057 -0.065086 0.804000 5131401
-0.088057 -0.060491 0.804000 5588873
-0.088495 -0.056175 0.808000 4934026
-0.088714 -0.051686 0.810000 5459083
-0.089481 -0.047464 0.817000 5262735
-0.090138 -0.043110 0.823000 5197452
-0.091014 -0.038780 0.831000 4934025
-0.091671 -0.034277 0.837000 5130886
-0.092876 -0.029882 0.848000 4736391
-0.092876 -0.025036 0.848000 6182030
-0.093095 -0.020238 0.850000 7098765
-0.093314 -0.015417 0.852000 7438227
-0.094738 -0.010710 0.865000 5392017
-0.084158 -0.206299 0.782000 15849186
-0.083405 -0.200024 0.775000 16315386
-0.082867 -0.194333 0.770000 15919861
-0.081898 -0.187713 0.761000 15458289
-0.081037 -0.181437 0.753000 15063275
-0.076087 -0.166313 0.707000 11842517
-0.076410 -0.162962 0.710000 12364202
-0.076517 -0.159129 0.711000 11836067
-0.077378 -0.156810 0.719000 10853040
-0.077486 -0.152914 0.720000 7829152
-0.078131 -0.150040 0.726000 7239068
-0.078347 -0.146293 0.728000 7237537
-0.078454 -0.142329 0.729000 8095375
-0.079208 -0.139490 0.736000 7235222
-0.079315 -0.135468 0.737000 5590160
-0.079530 -0.131612 0.739000 5066125
-0.079961 -0.128079 0.743000 4607113
-0.080391 -0.124500 0.747000 4737674
-0.080930 -0.121036 0.752000 5129613
-0.081575 -0.117670 0.758000 5065871
-0.081575 -0.113339 0.758000 4934284
-0.081790 -0.109295 0.760000 5590925
-0.082329 -0.105643 0.765000 5065359
-0.082651 -0.101669 0.768000 4671627
-0.083082 -0.097787 0.772000 4999050
-0.083405 -0.093738 0.775000 4803212
-0.083835 -0.089770 0.779000 4933766
-0.084373 -0.085867 0.784000 5131657
-0.084804 -0.081802 0.788000 3349128
-0.084911 -0.077397 0.789000 3101057
-0.085880 -0.073720 0.798000 5329542
-0.086526 -0.069680 0.804000 5987470
-0.086741 -0.065248 0.806000 5000587
-0.086741 -0.060642 0.806000 5130119
-0.086956 -0.056175 0.808000 4671112
-0.087387 -0.051813 0.812000 5130889
-0.088355 -0.047696 0.821000 4868748
-0.089001 -0.043319 0.827000 4999563
-0.089647 -0.038873 0.833000 4933768
-0.090292 -0.034359 0.839000 4934022
-0.091261 -0.029882 0.848000 4408198
-0.091476 -0.025095 0.850000 6708376
-0.091476 -0.020238 0.850000 6241175
-0.091691 -0.015417 0.852000 7628689
-0.093306 -0.010734 0.867000 5064586
-0.082669 -0.206299 0.782000 15386061
-0.081929 -0.200024 0.775000 16248570
-0.081611 -0.194838 0.772000 15853813
-0.080343 -0.187467 0.760000 15391983
-0.079603 -0.181437 0.753000 14734574
-0.074740 -0.166313 0.707000 12101829
-0.075374 -0.163650 0.713000 12104365
-0.075691 -0.160248 0.716000 9924260
-0.076114 -0.157029 0.720000 10195622
-0.076643 -0.153976 0.725000 7893408
-0.077066 -0.150660 0.729000 7567768
-0.077277 -0.146896 0.731000 7701670
-0.077594 -0.143305 0.734000 7434131
-0.078123 -0.140058 0.739000 6911382
-0.078229 -0.136019 0.740000 5526925
-0.078229 -0.131790 0.740000 5000589
-0.078757 -0.128424 0.745000 4672390
-0.079074 -0.124667 0.748000 4541066
-0.079814 -0.121519 0.755000 4933259
-0.080343 -0.117981 0.760000 5064844
-0.080343 -0.113638 0.760000 5066124
-0.080449 -0.109439 0.761000 5329292
-0.081189 -0.106057 0.768000 5065614
-0.081717 -0.102330 0.773000 4803211
-0.081929 -0.098167 0.775000 5065355
-0.081929 -0.093738 0.775000 4999565
-0.082351 -0.089770 0.779000 5195653
-0.083303 -0.086305 0.788000 7359885
-0.083303 -0.081802 0.788000 6908555
-0.083831 -0.077790 0.793000 6923654
-0.084783 -0.074090 0.802000 5658509
-0.085206 -0.069853 0.806000 6315662
-0.085206 -0.065248 0.806000 5132172
-0.085417 -0.060792 0.808000 4868230
-0.085629 -0.056314 0.810000 4867973
-0.085840 -0.051813 0.812000 5065096
-0.087426 -0.048045 0.827000 4999817
-0.087637 -0.043424 0.829000 5065099
-0.088060 -0.038873 0.833000 4933766
-0.088694 -0.034359 0.839000 4999558
-0.089857 -0.029952 0.850000 5392773
-0.089857 -0.025095 0.850000 6712483
-0.090069 -0.020286 0.852000 6775200
-0.090703 -0.015526 0.858000 5917071
-0.091866 -0.010759 0.869000 5064835
-0.081387 -0.206827 0.784000 14940902
-0.080660 -0.200540 0.777000 16184058
-0.080141 -0.194838 0.772000 15787252
-0.078895 -0.187467 0.760000 15260399
-0.078480 -0.182160 0.756000 14341866
-0.078169 -0.177134 0.753000 12363456
-0.074328 -0.164339 0.716000 11842476
-0.074743 -0.161143 0.720000 7963556
-0.075054 -0.157683 0.723000 9541028
-0.075573 -0.154613 0.728000 7960989
-0.075885 -0.151073 0.731000 7896730
-0.075989 -0.147097 0.732000 8156830
-0.076196 -0.143305 0.734000 6709139
-0.076508 -0.139679 0.737000 6514324
-0.077027 -0.136387 0.742000 5528975
-0.076819 -0.131790 0.740000 4869005
-0.077546 -0.128769 0.747000 4737672
-0.077857 -0.125000 0.750000 4278924
-0.078480 -0.121680 0.756000 4736650
-0.078999 -0.118136 0.761000 4999818
-0.079207 -0.114087 0.763000 5197712
-0.079622 -0.110302 0.767000 5066124
-0.080141 -0.106610 0.772000 5065868
-0.080452 -0.102595 0.775000 4868747
-0.080971 -0.098800 0.780000 5130376
-0.081387 -0.094827 0.784000 5196683
-0.081594 -0.090577 0.786000 5458571
-0.081802 -0.086305 0.788000 9598857
-0.081906 -0.081906 0.789000 10525579
-0.082840 -0.078280 0.798000 10715531
-0.083463 -0.074274 0.804000 5986959
-0.083670 -0.069853 0.806000 6642832
-0.084293 -0.065733 0.812000 5328268
-0.084086 -0.060943 0.810000 4606343
-0.085643 -0.057357 0.825000 4999818
-0.086266 -0.053026 0.831000 4999816
-0.085850 -0.048045 0.827000 5064842
-0.086473 -0.043633 0.833000 5065099
-0.087304 -0.039247 0.841000 4999300
-0.087719 -0.034605 0.845000 5065095
-0.088238 -0.029952 0.850000 6376595
-0.088446 -0.025154 0.852000 6708385
-0.088653 -0.020333 0.854000 7303591
-0.090210 -0.015725 0.869000 4213131
-0.080097 -0.207354 0.786000 15462142
-0.079384 -0.201056 0.779000 16249082
-0.078772 -0.195090 0.773000 15721458
-0.077040 -0.186480 0.756000 15193840
-0.076938 -0.181919 0.755000 13748966
-0.076734 -0.177134 0.753000 10395323
-0.073371 -0.165257 0.720000 9931946
-0.073575 -0.161590 0.722000 10266787
-0.073983 -0.158337 0.726000 9868449
-0.074492 -0.155250 0.731000 7958427
-0.074594 -0.151280 0.732000 7763611
-0.074798 -0.147499 0.734000 7237527
-0.075002 -0.143695 0.736000 6447251
-0.075410 -0.140248 0.740000 6250898
-0.076225 -0.137490 0.748000 5395089
-0.076225 -0.133215 0.748000 4802956
-0.076429 -0.129286 0.750000 4737674
-0.076734 -0.125500 0.753000 4606350
-0.077448 -0.122324 0.760000 4802441
-0.077957 -0.118757 0.765000 5065352
-0.077957 -0.114386 0.765000 5395092
-0.078467 -0.110733 0.770000 4802956
-0.078976 -0.107024 0.775000 5131914
-0.079180 -0.102860 0.777000 4999820
-0.079893 -0.099307 0.784000 5130373
-0.080403 -0.095431 0.789000 5262473
-0.080607 -0.091153 0.791000 5394576
-0.080607 -0.086633 0.791000 7439749
-0.080810 -0.082321 0.793000 7034250
-0.081524 -0.078476 0.800000 7296145
-0.082135 -0.074459 0.806000 5920657
-0.082339 -0.070027 0.808000 6184338
-0.082747 -0.065733 0.812000 5329036
-0.083460 -0.061620 0.819000 4868745
-0.084275 -0.057496 0.827000 5262734
-0.084683 -0.053026 0.831000 4868744
-0.084887 -0.048393 0.833000 5064842
-0.085498 -0.043948 0.839000 5065100
-0.086110 -0.039433 0.845000 4999553
-0.086415 -0.034728 0.848000 5261704
-0.086823 -0.030023 0.852000 6840481
-0.087027 -0.025213 0.854000 6696607
-0.087230 -0.020381 0.856000 7039661
-0.089167 -0.015833 0.875000 4736134
-0.078600 -0.207354 0.786000 15984091
-0.077900 -0.201056 0.779000 16315897
-0.077300 -0.195090 0.773000 15721970
-0.075500 -0.186233 0.755000 15062251
-0.075200 -0.181196 0.752000 13092832
-0.075000 -0.176429 0.750000 8356787
-0.072200 -0.165716 0.722000 8092074
-0.072500 -0.162262 0.725000 12489382
-0.072800 -0.158773 0.728000 10263192
-0.073100 -0.155250 0.731000 7893663
-0.073400 -0.151693 0.734000 7630489
-0.073600 -0.147901 0.736000 6252439
-0.073900 -0.144281 0.739000 6117773
-0.074300 -0.140816 0.743000 5988240
-0.075200 -0.138225 0.752000 5261968
-0.075200 -0.133928 0.752000 4737421
-0.075200 -0.129630 0.752000 4738190
-0.075500 -0.125833 0.755000 4934801
-0.076100 -0.122485 0.761000 4867468
-0.076700 -0.119068 0.767000 5066382
-0.076800 -0.114834 0.768000 5658256
-0.077200 -0.111021 0.772000 4540555
-0.077700 -0.107300 0.777000 5263498
-0.078000 -0.103257 0.780000 5066125
-0.078600 -0.099560 0.786000 5129864
-0.079100 -0.095673 0.791000 5328522
-0.079100 -0.091153 0.791000 5260684
-0.079500 -0.087071 0.795000 5270146
-0.080000 -0.083048 0.800000 3613074
-0.080600 -0.079065 0.806000 3820689
-0.081200 -0.075013 0.812000 5919885
-0.081200 -0.070373 0.812000 5724304
-0.081900 -0.066300 0.819000 5394058
-0.082100 -0.061770 0.821000 5130631
-0.082900 -0.057635 0.829000 5525384
-0.083300 -0.053153 0.833000 4672391
-0.083300 -0.048393 0.833000 4999306
-0.084800 -0.044419 0.848000 5065099
-0.085000 -0.039667 0.850000 4999812
-0.084800 -0.034728 0.848000 5458825
-0.085200 -0.030023 0.852000 7300263
-0.085600 -0.025272 0.856000 6639258
-0.087800 -0.020905 0.878000 6844060
-0.087800 -0.015888 0.878000 5260936
-0.076514 -0.201314 0.780000 16512761
-0.075828 -0.195090 0.773000 15589618
-0.074062 -0.186233 0.755000 14864102
-0.073768 -0.181196 0.752000 12236506
-0.073571 -0.176429 0.750000 9011627
-0.070923 -0.165946 0.723000 8553129
-0.071217 -0.162486 0.726000 10784169
-0.071708 -0.159428 0.731000 9275535
-0.071806 -0.155463 0.732000 7764642
-0.072198 -0.152107 0.736000 7039895
-0.072492 -0.148504 0.739000 6115991
-0.072590 -0.144476 0.740000 5723271
-0.073571 -0.142143 0.750000 5923471
-0.073866 -0.138409 0.753000 5262991
-0.073866 -0.134106 0.753000 4999566
-0.074160 -0.130320 0.756000 5263761
-0.074356 -0.126333 0.758000 5067413
-0.074847 -0.122807 0.763000 4737934
-0.075337 -0.119223 0.768000 5132180
