# .PCD v.7 - Point Cloud Data file format
VERSION .7
FIELDS x y z rgb
SIZE 4 4 4 4
TYPE F F F I
COUNT 1 1 1 1
WIDTH 1290
HEIGHT 1
POINTS 1290
DATA ascii
-0.079800 -0.004200 0.882000 6055324
-0.080433 0.000847 0.889000 5527963
-0.080886 0.005960 0.894000 4803986
-0.069086 -0.182000 0.780000 9409468
-0.068997 -0.177315 0.779000 15788021
-0.068643 -0.171976 0.775000 16381435
-0.068466 -0.167115 0.773000 15919604
-0.067934 -0.161435 0.767000 15589105
-0.067314 -0.155619 0.760000 14998252
-0.066960 -0.150480 0.756000 14404840
-0.066871 -0.145967 0.755000 10788556
-0.065454 -0.138650 0.739000 8684715
-0.065543 -0.134610 0.740000 7568039
-0.065986 -0.131262 0.745000 7502497
-0.066429 -0.127857 0.750000 6842017
-0.066606 -0.123901 0.752000 7239836
-0.066871 -0.120081 0.755000 5266581
-0.067137 -0.116227 0.758000 5329805
-0.067580 -0.112633 0.763000 5397395
-0.068200 -0.109267 0.770000 4739730
-0.068377 -0.105139 0.772000 4672402
-0.068643 -0.101119 0.775000 5394577
-0.068997 -0.097190 0.779000 3294863
-0.069263 -0.093095 0.782000 4607884
-0.069883 -0.089420 0.789000 5787794
-0.070060 -0.085127 0.791000 4210565
-0.070591 -0.081218 0.797000 5065359
-0.071034 -0.077145 0.802000 3751561
-0.071389 -0.072924 0.806000 3359370
-0.071566 -0.068488 0.808000 6048907
-0.072186 -0.064424 0.815000 8812945
-0.072540 -0.060060 0.819000 9413770
-0.072894 -0.055650 0.823000 4478604
-0.073426 -0.051319 0.829000 5399188
-0.073780 -0.046807 0.833000 3753355
-0.074311 -0.042350 0.839000 3816587
-0.074666 -0.037734 0.843000 3360140
-0.075463 -0.033269 0.852000 4145038
-0.075817 -0.028533 0.856000 4211596
-0.076171 -0.023752 0.860000 3883400
-0.076614 -0.018948 0.865000 3817869
-0.076969 -0.014070 0.869000 4798609
-0.077500 -0.009167 0.875000 6314906
-0.077943 -0.004190 0.880000 6391194
-0.078563 0.000845 0.887000 6186144
-0.079360 0.005973 0.896000 4667534
-0.067773 -0.182467 0.782000 11183317
-0.067600 -0.177543 0.780000 16250611
-0.067340 -0.172420 0.777000 16249593
-0.066993 -0.167115 0.773000 15920116
-0.066560 -0.161646 0.768000 15524336
-0.065867 -0.155619 0.760000 14866407
-0.065520 -0.150480 0.756000 14142184
-0.065433 -0.145967 0.755000 9738696
-0.064133 -0.138838 0.740000 8618920
-0.064307 -0.134973 0.742000 7765414
-0.064740 -0.131614 0.747000 7435427
-0.065000 -0.127857 0.750000 6580382
-0.065260 -0.124066 0.753000 6317467
-0.065520 -0.120240 0.756000 5595285
-0.065867 -0.116533 0.760000 5198735
-0.066300 -0.112929 0.765000 5067413
-0.066907 -0.109550 0.772000 4870547
-0.067167 -0.105548 0.775000 5264276
-0.067340 -0.101380 0.777000 4935567
-0.067513 -0.097190 0.779000 3555469
-0.068120 -0.093571 0.786000 4543370
-0.068553 -0.089647 0.791000 4999062
-0.068727 -0.085342 0.793000 4014471
-0.069160 -0.081320 0.798000 4869261
-0.069507 -0.077145 0.802000 3949190
-0.070027 -0.073105 0.808000 3753100
-0.070200 -0.068657 0.810000 6449551
-0.070980 -0.064740 0.819000 9155227
-0.071327 -0.060353 0.823000 8951432
-0.071673 -0.055921 0.827000 4807046
-0.072020 -0.051443 0.831000 5266326
-0.072367 -0.046919 0.835000 3687051
-0.072713 -0.042350 0.839000 3817097
-0.073060 -0.037734 0.843000 3688333
-0.074013 -0.033347 0.854000 4277131
-0.074187 -0.028533 0.856000 4079499
-0.074707 -0.023808 0.862000 3883400
-0.075140 -0.018991 0.867000 3817614
-0.075833 -0.014167 0.875000 5722006
-0.076093 -0.009198 0.878000 6113945
-0.076267 -0.004190 0.880000 5987480
-0.077220 0.000849 0.891000 7241892
-0.077653 0.005973 0.896000 4275338
-0.066284 -0.182467 0.782000 13035235
-0.066284 -0.177998 0.782000 16708342
-0.065860 -0.172420 0.777000 16184567
-0.065690 -0.167548 0.775000 15919603
-0.065097 -0.161646 0.768000 15459570
-0.064419 -0.155619 0.760000 14734565
-0.064080 -0.150480 0.756000 13880796
-0.063741 -0.145387 0.752000 8622783
-0.062893 -0.139213 0.742000 8618410
-0.062978 -0.135155 0.743000 7896486
-0.063402 -0.131790 0.748000 7433886
-0.063741 -0.128198 0.752000 6252957
-0.063826 -0.124066 0.753000 5462683
-0.064250 -0.120558 0.758000 5923479
-0.064504 -0.116687 0.761000 5132434
-0.065097 -0.113371 0.768000 4673170
-0.065436 -0.109550 0.772000 5000850
-0.065690 -0.105548 0.775000 5788303
-0.065860 -0.101380 0.777000 4476040
-0.066284 -0.097564 0.782000 3818124
-0.066877 -0.093929 0.789000 4411020
-0.067216 -0.089873 0.793000 4212111
-0.067386 -0.085557 0.795000 3818375
-0.067640 -0.081320 0.798000 4672654
-0.068149 -0.077337 0.804000 4146312
-0.068488 -0.073105 0.808000 4147338
-0.068827 -0.068827 0.812000 6904712
-0.069250 -0.064582 0.817000 9397123
-0.069759 -0.060353 0.823000 8481924
-0.070098 -0.055921 0.827000 5068168
-0.070437 -0.051443 0.831000 5069200
-0.070946 -0.047031 0.837000 3555979
-0.071115 -0.042350 0.839000 3817353
-0.071878 -0.037958 0.848000 3950474
-0.072556 -0.033425 0.856000 4473993
-0.072895 -0.028667 0.860000 3948937
-0.073489 -0.023946 0.867000 3949193
-0.073828 -0.019079 0.871000 3817358
-0.074421 -0.014215 0.878000 6641046
-0.074590 -0.009219 0.880000 5857436
-0.074930 -0.004210 0.884000 5658516
-0.075777 0.000851 0.894000 8283290
-0.064960 -0.182933 0.784000 14342640
-0.064794 -0.177998 0.782000 16711417
-0.064380 -0.172420 0.777000 16051700
-0.064214 -0.167548 0.775000 15853555
-0.063634 -0.161646 0.768000 15327476
-0.063386 -0.156643 0.765000 14668004
-0.062806 -0.150878 0.758000 13156560
-0.061729 -0.144033 0.745000 8685749
-0.061480 -0.139213 0.742000 8487595
-0.061729 -0.135519 0.745000 8027301
-0.061977 -0.131790 0.748000 7764121
-0.062309 -0.128198 0.752000 6186908
-0.062391 -0.124066 0.753000 6118555
-0.062971 -0.120876 0.760000 5989016
-0.063386 -0.117300 0.765000 5067156
-0.063800 -0.113667 0.770000 4148112
-0.064049 -0.109692 0.773000 4869520
-0.064380 -0.105820 0.777000 5132427
-0.064629 -0.101771 0.780000 4147841
-0.064960 -0.097813 0.784000 3621259
-0.065374 -0.093929 0.789000 4607117
-0.065706 -0.089873 0.793000 4080520
-0.066037 -0.085772 0.797000 4015495
-0.066286 -0.081524 0.800000 4477071
-0.066783 -0.077530 0.806000 4278409
-0.066949 -0.073105 0.808000 4278409
-0.067446 -0.068996 0.814000 4405632
-0.067860 -0.064740 0.819000 4718955
-0.068523 -0.060647 0.827000 5852544
-0.068854 -0.056191 0.831000 5332106
-0.069186 -0.051690 0.835000 5002890
-0.069517 -0.047144 0.839000 3687563
-0.069849 -0.042551 0.843000 3817609
-0.070594 -0.038137 0.852000 3884935
-0.070926 -0.033425 0.856000 4211591
-0.071257 -0.028667 0.860000 4014984
-0.072003 -0.024001 0.869000 3883657
-0.072169 -0.019079 0.871000 4275854
-0.072914 -0.014248 0.880000 5194901
-0.073080 -0.009240 0.882000 6186655
-0.073660 -0.004233 0.889000 5262736
-0.074240 0.000853 0.896000 5981583
-0.063467 -0.182933 0.784000 15656172
-0.063305 -0.177998 0.782000 16711162
-0.062900 -0.172420 0.777000 15918836
-0.062738 -0.167548 0.775000 15722228
-0.062333 -0.162067 0.770000 15196657
-0.061929 -0.156643 0.765000 14536674
-0.061200 -0.150480 0.756000 12499660
-0.060148 -0.143647 0.743000 8685235
-0.060148 -0.139401 0.743000 8356777
-0.060714 -0.136429 0.750000 8158883
-0.060714 -0.132143 0.750000 8095638
-0.060957 -0.128369 0.753000 6054043
-0.061119 -0.124395 0.755000 6774683
-0.061605 -0.121035 0.761000 6055067
-0.062090 -0.117607 0.767000 5066905
-0.062333 -0.113667 0.770000 3624082
-0.062738 -0.109976 0.775000 4737422
-0.062900 -0.105820 0.777000 4410506
-0.063062 -0.101641 0.779000 3820934
-0.063629 -0.098063 0.786000 3426187
-0.063871 -0.093929 0.789000 4803730
-0.064357 -0.090100 0.795000 3883654
-0.064600 -0.085880 0.798000 4212358
-0.064924 -0.081728 0.802000 4279436
-0.065248 -0.077530 0.806000 4408458
-0.065571 -0.073286 0.810000 4405890
-0.065976 -0.069081 0.815000 1921156
-0.066462 -0.064898 0.821000 84342
-0.067110 -0.060793 0.829000 3295106
-0.067433 -0.056327 0.833000 5527178
-0.067757 -0.051814 0.837000 4937099
-0.068081 -0.047256 0.841000 3818889
-0.068648 -0.042804 0.848000 3818379
-0.069133 -0.038227 0.854000 3819142
-0.069457 -0.033503 0.858000 4014472
-0.069781 -0.028733 0.862000 4080265
-0.070510 -0.024056 0.871000 3883401
-0.070671 -0.019123 0.873000 4734863
-0.071400 -0.014280 0.882000 3823767
-0.071967 -0.009313 0.889000 6513307
-0.071967 -0.004233 0.889000 4929422
-0.072695 0.000855 0.898000 3686798
-0.061973 -0.182933 0.784000 14601192
-0.061973 -0.178453 0.784000 16710652
-0.061578 -0.172864 0.779000 15919603
-0.061420 -0.167980 0.777000 15721461
-0.060709 -0.161646 0.768000 15063533
-0.060471 -0.156643 0.765000 14404320
-0.059523 -0.149883 0.753000 11709128
-0.058732 -0.143647 0.743000 8750513
-0.058732 -0.139401 0.743000 8224934
-0.059286 -0.136429 0.750000 7831201
-0.059523 -0.132671 0.753000 7305107
-0.059681 -0.128710 0.755000 6183834
-0.059760 -0.124560 0.756000 6449562
-0.060471 -0.121671 0.765000 5988766
-0.060709 -0.117760 0.768000 5792413
-0.061025 -0.113962 0.772000 4214165
-0.061420 -0.110260 0.777000 4607115
-0.061578 -0.106092 0.779000 4472458
-0.061815 -0.102032 0.782000 4674442
-0.062369 -0.098437 0.789000 4345483
-0.062685 -0.094405 0.793000 4608662
-0.063001 -0.090327 0.797000 3817349
-0.063238 -0.086095 0.800000 4343428
-0.063712 -0.082135 0.806000 3818632
-0.063870 -0.077722 0.808000 4475274
-0.064187 -0.073467 0.812000 4728188
-0.064582 -0.069250 0.817000 6918023
-0.065214 -0.065214 0.825000 6396546
-0.065689 -0.060940 0.831000 3950468
-0.066005 -0.056462 0.835000 5330571
-0.066163 -0.051814 0.837000 4871307
-0.066637 -0.047369 0.843000 4015239
-0.067190 -0.042905 0.850000 4212877
-0.067665 -0.038316 0.856000 3884165
-0.067981 -0.033581 0.860000 3883656
-0.068534 -0.028900 0.867000 4080522
-0.068850 -0.024056 0.871000 3883144
-0.069167 -0.019167 0.875000 4929424
-0.069878 -0.014312 0.884000 4872344
-0.070431 -0.009334 0.891000 6779030
-0.070827 -0.004267 0.896000 4341132
-0.071222 0.000858 0.901000 3883916
-0.060634 -0.183400 0.786000 13607639
-0.060480 -0.178453 0.784000 16710652
-0.060094 -0.172864 0.779000 15919604
-0.059940 -0.167980 0.777000 15656436
-0.059246 -0.161646 0.768000 14931435
-0.059014 -0.156643 0.765000 14272221
-0.058089 -0.149883 0.753000 10918595
-0.057317 -0.143647 0.743000 8816300
-0.057471 -0.139776 0.745000 8158374
-0.058011 -0.136792 0.752000 7436448
-0.058243 -0.133024 0.755000 6515096
-0.058320 -0.128880 0.756000 6250137
-0.058320 -0.124560 0.756000 6056347
-0.059246 -0.122149 0.768000 5921943
-0.059400 -0.118067 0.770000 6517658
-0.059631 -0.114110 0.773000 4737938
-0.059940 -0.110260 0.777000 4476045
-0.060171 -0.106229 0.780000 4539787
-0.060480 -0.102293 0.784000 5593484
-0.061020 -0.098687 0.791000 5198221
-0.061560 -0.095000 0.798000 4480146
-0.061560 -0.090440 0.798000 3686790
-0.061869 -0.086310 0.802000 4540037
-0.062331 -0.082339 0.808000 3359878
-0.062486 -0.077914 0.810000 4607882
-0.062794 -0.073648 0.814000 5005187
-0.063334 -0.069590 0.821000 11906951
-0.063797 -0.065372 0.827000 12691582
-0.064414 -0.061233 0.835000 4536452
-0.064723 -0.056732 0.839000 5132427
-0.065031 -0.052186 0.843000 4805514
-0.065571 -0.047762 0.850000 4211592
-0.065880 -0.043107 0.854000 4607883
-0.066189 -0.038406 0.858000 3883910
-0.066497 -0.033659 0.862000 3817864
-0.067191 -0.029033 0.871000 4014986
-0.067346 -0.024111 0.873000 3948681
-0.067731 -0.019232 0.878000 5069722
-0.068426 -0.014361 0.887000 5916305
-0.068734 -0.009334 0.891000 6971800
-0.069274 -0.004276 0.898000 3817605
-0.058987 -0.182933 0.784000 13541830
-0.058836 -0.177998 0.782000 16711164
-0.058610 -0.172864 0.779000 15985652
-0.058310 -0.167548 0.775000 15524595
-0.057933 -0.162067 0.770000 14865640
-0.057557 -0.156643 0.765000 14205403
-0.056203 -0.148689 0.747000 10392766
-0.055902 -0.143647 0.743000 8684968
-0.056052 -0.139776 0.745000 8027302
-0.056579 -0.136792 0.752000 7170720
-0.056880 -0.133200 0.756000 6580125
-0.057030 -0.129221 0.758000 6906264
-0.057181 -0.125219 0.760000 5724060
-0.057933 -0.122467 0.770000 5394319
-0.058084 -0.118373 0.772000 5462679
-0.058159 -0.114110 0.773000 3950479
-0.058610 -0.110544 0.779000 4409486
-0.058836 -0.106501 0.782000 4540301
-0.059363 -0.102946 0.789000 5331086
-0.059664 -0.098936 0.793000 4871312
-0.060190 -0.095238 0.800000 4016270
-0.060341 -0.090893 0.802000 3752327
-0.060491 -0.086526 0.804000 4277638
-0.060792 -0.082339 0.808000 3948420
-0.061244 -0.078299 0.814000 4607882
-0.061770 -0.074281 0.821000 9022090
-0.062071 -0.069929 0.825000 8216967
-0.062523 -0.065689 0.831000 12235643
-0.062974 -0.061380 0.837000 4211332
-0.063275 -0.056868 0.841000 4737420
-0.063576 -0.052310 0.845000 4542856
-0.064103 -0.047874 0.852000 4014984
-0.064404 -0.043208 0.856000 4343433
-0.064554 -0.038406 0.858000 3753096
-0.065081 -0.033776 0.865000 3817864
-0.065683 -0.029100 0.873000 4014474
-0.065683 -0.024111 0.873000 4078986
-0.066210 -0.019276 0.880000 6652836
-0.066887 -0.014393 0.889000 6183561
-0.067263 -0.009366 0.894000 5131674
-0.067564 -0.004276 0.898000 3883646
-0.057493 -0.182933 0.784000 13489597
-0.057347 -0.177998 0.782000 16709363
-0.057127 -0.172864 0.779000 16051445
-0.056833 -0.167548 0.775000 15327986
-0.056467 -0.162067 0.770000 14800613
-0.056247 -0.157052 0.767000 14074583
-0.054780 -0.148689 0.747000 9864633
-0.054633 -0.144033 0.745000 8553386
-0.054853 -0.140339 0.748000 7895717
-0.055220 -0.136974 0.753000 6909086
-0.055587 -0.133552 0.758000 6710428
-0.055733 -0.129562 0.760000 7563162
-0.056100 -0.126043 0.765000 5394580
-0.056467 -0.122467 0.770000 4803727
-0.056687 -0.118527 0.773000 4411284
-0.056980 -0.114700 0.777000 3164814
-0.057200 -0.110686 0.780000 4343181
-0.057787 -0.107318 0.788000 4540045
-0.058007 -0.103207 0.791000 5067919
-0.058300 -0.099186 0.795000 4543117
-0.058667 -0.095238 0.800000 3619465
-0.058960 -0.091120 0.804000 3817607
-0.059253 -0.086956 0.808000 4080010
-0.059547 -0.082747 0.812000 4474759
-0.059913 -0.078588 0.817000 4675724
-0.060353 -0.074462 0.823000 13015943
-0.060647 -0.070098 0.827000 4522631
-0.061233 -0.066005 0.835000 11766398
-0.061527 -0.061527 0.839000 3883144
-0.061820 -0.057003 0.843000 4277384
-0.062187 -0.052495 0.848000 4281224
-0.062627 -0.047987 0.854000 3817862
-0.062920 -0.043309 0.858000 4080779
-0.063067 -0.038495 0.860000 3622025
-0.063580 -0.033854 0.867000 3817355
-0.064020 -0.029100 0.873000 3948937
-0.064167 -0.024167 0.875000 4275339
-0.064680 -0.019320 0.882000 8153248
-0.065193 -0.014393 0.889000 6510739
-0.065560 -0.009366 0.894000 3295891
-0.066073 -0.004290 0.901000 4014979
-0.056000 -0.182933 0.784000 12892851
-0.055714 -0.177543 0.780000 16378858
-0.055643 -0.172864 0.779000 16117238
-0.055357 -0.167548 0.775000 15326705
-0.055000 -0.162067 0.770000 14668514
-0.054643 -0.156643 0.765000 13681876
-0.053357 -0.148689 0.747000 9275827
-0.053214 -0.144033 0.745000 8422061
-0.053571 -0.140714 0.750000 7764900
-0.053929 -0.137338 0.755000 6776732
-0.054286 -0.133905 0.760000 6448283
-0.054643 -0.130414 0.765000 7041181
-0.054857 -0.126537 0.768000 5726604
-0.055143 -0.122785 0.772000 4672143
-0.055214 -0.118527 0.773000 4870545
-0.055500 -0.114700 0.777000 3885454
-0.055857 -0.110970 0.782000 4541067
-0.056357 -0.107454 0.789000 3883148
-0.056643 -0.103468 0.793000 4739215
-0.056929 -0.099435 0.797000 4411019
-0.057286 -0.095476 0.802000 3751556
-0.057571 -0.091347 0.806000 3948423
-0.057857 -0.087171 0.810000 4211853
-0.058000 -0.082747 0.812000 4606347
-0.058500 -0.078780 0.819000 4477581
-0.058929 -0.074643 0.825000 11515780
-0.059214 -0.070268 0.829000 5062023
-0.059786 -0.066163 0.837000 8024448
-0.060071 -0.061673 0.841000 4081036
-0.060357 -0.057138 0.845000 3948164
-0.060714 -0.052619 0.850000 4147335
-0.061143 -0.048099 0.856000 3883140
-0.061429 -0.043410 0.860000 4343437
-0.061571 -0.038585 0.862000 3818634
-0.062214 -0.034010 0.871000 3883150
-0.062500 -0.029167 0.875000 3949192
-0.062857 -0.024305 0.880000 4670347
-0.063143 -0.019364 0.884000 7167901
-0.063500 -0.014393 0.889000 6252700
-0.064143 -0.009408 0.898000 3750797
-0.064643 -0.004310 0.905000 4080775
-0.054229 -0.177543 0.780000 16040915
-0.054159 -0.172864 0.779000 16182778
-0.053881 -0.167548 0.775000 15261680
-0.053672 -0.162488 0.772000 14603232
-0.053186 -0.156643 0.765000 13219024
-0.052143 -0.149286 0.750000 8686511
-0.051934 -0.144420 0.747000 8224682
-0.052282 -0.141090 0.752000 7633570
-0.052560 -0.137520 0.756000 6645916
-0.052908 -0.134081 0.761000 6251675
-0.053186 -0.130414 0.765000 6514075
-0.053394 -0.126537 0.768000 6123666
-0.053742 -0.122944 0.773000 4475277
-0.053881 -0.118833 0.775000 5329039
-0.054159 -0.114995 0.779000 4540813
-0.054507 -0.111253 0.784000 4803726
-0.054993 -0.107727 0.791000 3228554
-0.055271 -0.103729 0.795000 4410513
-0.055480 -0.099560 0.798000 4278155
-0.055897 -0.095714 0.804000 3948934
-0.056175 -0.091573 0.808000 4079753
-0.056453 -0.087387 0.812000 4408976
-0.056662 -0.083052 0.815000 4739211
-0.057079 -0.078972 0.821000 4346510
-0.057357 -0.074643 0.825000 9983362
-0.057774 -0.070437 0.831000 5654399
-0.058191 -0.066163 0.837000 4283779
-0.058609 -0.061820 0.843000 4343947
-0.058956 -0.057341 0.848000 3555974
-0.059234 -0.052743 0.852000 4014473
-0.059651 -0.048211 0.858000 3883910
-0.059930 -0.043510 0.862000 4671882
-0.060138 -0.038719 0.865000 4015241
-0.060694 -0.034089 0.873000 3948429
-0.061181 -0.029333 0.880000 3883658
-0.061320 -0.024360 0.882000 5062541
-0.061807 -0.019473 0.889000 6116250
-0.062293 -0.014507 0.896000 5931422
-0.062641 -0.009439 0.901000 4144522
-0.052675 -0.172864 0.779000 16052222
-0.052540 -0.167980 0.777000 15261167
-0.052270 -0.162698 0.773000 14536670
-0.051729 -0.156643 0.765000 12103116
-0.050579 -0.148888 0.748000 8619691
-0.050579 -0.144613 0.748000 8224680
-0.050917 -0.141277 0.753000 7567519
-0.051390 -0.138248 0.760000 6580635
-0.051593 -0.134433 0.763000 5987995
-0.051729 -0.130414 0.765000 5854361
-0.052067 -0.126867 0.770000 5462424
-0.052405 -0.123262 0.775000 4344204
-0.052675 -0.119447 0.779000 4803468
-0.052743 -0.115143 0.780000 4277389
-0.053013 -0.111253 0.784000 4409488
-0.053622 -0.107999 0.793000 3621767
-0.053892 -0.103990 0.797000 4410515
-0.054095 -0.099810 0.800000 4276620
-0.054501 -0.095952 0.806000 3948680
-0.054907 -0.092027 0.812000 4276363
-0.055042 -0.087602 0.814000 4541330
-0.055110 -0.083052 0.815000 4740235
-0.055650 -0.079165 0.823000 3291279
-0.055921 -0.074824 0.827000 5112448
-0.056191 -0.070437 0.831000 4209015
-0.056732 -0.066321 0.839000 4543879
-0.057138 -0.061967 0.845000 4212362
-0.057476 -0.057476 0.850000 3818376
-0.057747 -0.052867 0.854000 3949707
-0.058152 -0.048324 0.860000 3884423
-0.058490 -0.043662 0.865000 4212359
-0.058626 -0.038809 0.867000 4014984
-0.059167 -0.034167 0.875000 3948940
-0.059505 -0.029333 0.880000 4080012
-0.059775 -0.024415 0.884000 5789839
-0.060249 -0.019517 0.891000 6243480
-0.060722 -0.014539 0.898000 5857696
-0.061060 -0.009460 0.903000 4145800
-0.051191 -0.172864 0.779000 15986669
-0.051060 -0.167980 0.777000 15195889
-0.050797 -0.162698 0.773000 14470367
-0.049943 -0.155619 0.760000 10920651
-0.049286 -0.149286 0.750000 8619183
-0.049417 -0.145387 0.752000 8158888
-0.049943 -0.142590 0.760000 7503262
-0.050009 -0.138430 0.761000 6515611
-0.050140 -0.134433 0.763000 5790106
-0.050403 -0.130755 0.767000 5133460
-0.050731 -0.127196 0.772000 4870289
-0.051191 -0.123898 0.779000 4213644
-0.051257 -0.119600 0.780000 4213390
-0.051520 -0.115733 0.784000 3949708
-0.051783 -0.111821 0.788000 4015246
-0.052111 -0.107999 0.793000 3949705
-0.052374 -0.103990 0.797000 4476047
-0.052571 -0.099810 0.800000 4277641
-0.053097 -0.096190 0.808000 3948679
-0.053360 -0.092027 0.812000 4408970
-0.053557 -0.087710 0.815000 4738447
-0.053951 -0.083664 0.821000 4738440
-0.054083 -0.079165 0.823000 2233734
-0.054346 -0.074824 0.827000 270474
-0.054609 -0.070437 0.831000 2766206
-0.055266 -0.066479 0.841000 4737156
-0.055529 -0.061967 0.845000 4080009
-0.055989 -0.057611 0.852000 4015244
-0.056251 -0.052990 0.856000 3949707
-0.056646 -0.048436 0.862000 3818888
-0.056843 -0.043662 0.865000 3819400
-0.057237 -0.038988 0.871000 3949191
-0.057697 -0.034284 0.878000 3949452
-0.057960 -0.029400 0.882000 4211339
-0.058420 -0.024553 0.889000 6580624
-0.058880 -0.019627 0.896000 6381467
-0.059209 -0.014588 0.901000 5855632
-0.059471 -0.009481 0.905000 4146054
-0.049708 -0.172864 0.779000 14995675
-0.049580 -0.167980 0.777000 15325939
-0.049325 -0.162698 0.773000 14142687
-0.048049 -0.154186 0.753000 9803722
-0.047985 -0.149684 0.752000 8619186
-0.047985 -0.145387 0.752000 8092840
-0.048559 -0.142778 0.761000 7370141
-0.048687 -0.138793 0.763000 6450586
-0.048814 -0.134786 0.765000 5724569
-0.049006 -0.130926 0.768000 5330576
-0.049325 -0.127361 0.773000 5199498
-0.049771 -0.124057 0.780000 4279181
-0.050027 -0.120213 0.784000 4147087
-0.050154 -0.116029 0.786000 3883916
-0.050346 -0.111963 0.789000 4081036
-0.050729 -0.108271 0.795000 3818123
-0.050920 -0.104120 0.798000 4211594
-0.051303 -0.100309 0.804000 4475270
-0.051813 -0.096667 0.812000 4145797
-0.052005 -0.092367 0.815000 4607880
-0.052132 -0.087925 0.817000 4738187
-0.052515 -0.083868 0.823000 3949446
-0.052770 -0.079550 0.827000 6247805
-0.053026 -0.075186 0.831000 1450899
-0.053281 -0.070776 0.835000 5204869
-0.053791 -0.066637 0.843000 4472706
-0.054110 -0.062187 0.848000 4014727
-0.054366 -0.057611 0.852000 4080783
-0.054621 -0.052990 0.856000 4146826
-0.055195 -0.048605 0.865000 3819144
-0.055323 -0.043763 0.867000 3818633
-0.055833 -0.039167 0.875000 3948679
-0.056280 -0.034440 0.882000 3949451
-0.056408 -0.029467 0.884000 4080010
-0.056854 -0.024609 0.891000 5262992
-0.057173 -0.019627 0.896000 6384542
-0.057748 -0.014652 0.905000 5196416
-0.058067 -0.009533 0.910000 4146309
-0.047976 -0.167548 0.775000 15392747
-0.047852 -0.162698 0.773000 13811169
-0.046552 -0.153981 0.752000 8622530
-0.046552 -0.149684 0.752000 8618670
-0.046614 -0.145580 0.753000 8027302
-0.047233 -0.143153 0.763000 7172511
-0.047233 -0.138793 0.763000 6384794
-0.047481 -0.135138 0.767000 5658521
-0.047667 -0.131267 0.770000 5527698
-0.047976 -0.127690 0.775000 5594508
-0.048410 -0.124375 0.782000 4278925
-0.048657 -0.120520 0.786000 4015504
-0.048781 -0.116324 0.788000 3753356
-0.048967 -0.112247 0.791000 4146318
-0.049338 -0.108544 0.797000 3687820
-0.049524 -0.104381 0.800000 3948426
-0.050019 -0.100808 0.808000 4672393
-0.050390 -0.096905 0.814000 4342920
-0.050576 -0.092593 0.817000 4802952
-0.050824 -0.088355 0.821000 4803467
-0.051071 -0.084071 0.825000 3096708
-0.051443 -0.079934 0.831000 10331771
-0.051567 -0.075367 0.833000 2650500
-0.051814 -0.070946 0.837000 7640459
-0.052310 -0.066795 0.845000 4209797
-0.052619 -0.062333 0.850000 3883144
-0.052867 -0.057747 0.854000 4146315
-0.053114 -0.053114 0.858000 4408457
-0.053548 -0.048605 0.865000 3818633
-0.053795 -0.043864 0.869000 3818120
-0.054476 -0.039390 0.880000 3949190
-0.054724 -0.034518 0.884000 4014986
-0.054910 -0.029567 0.887000 3949193
-0.055343 -0.024691 0.894000 3949192
-0.055776 -0.019736 0.901000 6312593
-0.056210 -0.014701 0.908000 4537474
-0.056519 -0.009565 0.913000 4080003
-0.046500 -0.167548 0.775000 15523811
-0.046380 -0.162698 0.773000 13155810
-0.045180 -0.154186 0.753000 8751035
-0.045180 -0.149883 0.753000 8553129
-0.045480 -0.146547 0.758000 8027556
-0.045780 -0.143153 0.763000 7172769
-0.045900 -0.139157 0.765000 6319258
-0.046080 -0.135314 0.768000 5593496
-0.046320 -0.131608 0.772000 5330580
-0.046740 -0.128350 0.779000 5198989
-0.047040 -0.124693 0.784000 4213901
-0.047160 -0.120520 0.786000 4015761
-0.047340 -0.116471 0.789000 3949964
-0.047580 -0.112530 0.793000 4475024
-0.047820 -0.108544 0.797000 3949710
-0.048120 -0.104642 0.802000 3883402
-0.048600 -0.101057 0.810000 5067147
-0.048900 -0.097024 0.815000 4409994
-0.049020 -0.092593 0.817000 4539528
-0.049260 -0.088355 0.821000 4278154
-0.049500 -0.084071 0.825000 5132929
-0.049980 -0.080127 0.833000 10983800
-0.050340 -0.075910 0.839000 6979957
-0.050340 -0.071115 0.839000 6445968
-0.050880 -0.067032 0.848000 4211080
-0.051120 -0.062480 0.852000 3883144
-0.051240 -0.057747 0.854000 4080262
-0.051600 -0.053238 0.860000 4211591
-0.052140 -0.048830 0.869000 3883914
-0.052500 -0.044167 0.875000 3949446
-0.052800 -0.039390 0.880000 4146309
-0.053040 -0.034518 0.884000 4211337
-0.053340 -0.029633 0.889000 3882888
-0.053760 -0.024747 0.896000 3489151
-0.054060 -0.019736 0.901000 4208004
-0.054480 -0.014701 0.908000 3289475
-0.054780 -0.009565 0.913000 3160449
-0.045024 -0.167548 0.775000 15652055
-0.044850 -0.162488 0.772000 12499667
-0.043746 -0.154186 0.753000 8881848
-0.043862 -0.150281 0.755000 8422312
-0.043920 -0.146160 0.756000 8027556
-0.044327 -0.143153 0.763000 7106721
-0.044559 -0.139521 0.767000 6251929
-0.044850 -0.136019 0.772000 5527958
-0.045024 -0.132119 0.775000 5068175
-0.045256 -0.128350 0.779000 4869519
-0.045663 -0.125011 0.786000 4082572
-0.045779 -0.120827 0.788000 4015759
-0.046070 -0.117062 0.793000 4081035
-0.046302 -0.113098 0.797000 4803726
-0.046476 -0.108952 0.800000 4147600
-0.046825 -0.105164 0.806000 3752331
-0.047057 -0.101057 0.810000 5459594
-0.047348 -0.097024 0.815000 4477066
-0.047580 -0.092820 0.819000 4211590
-0.047812 -0.088570 0.823000 3687818
-0.048045 -0.084275 0.827000 7169925
-0.048626 -0.080511 0.837000 11690610
-0.048742 -0.075910 0.839000 11309431
-0.048974 -0.071454 0.843000 5311882
-0.049265 -0.067032 0.848000 4145544
-0.049613 -0.062627 0.854000 3883401
-0.049730 -0.057882 0.856000 3949450
-0.050252 -0.053548 0.865000 4014475
-0.050485 -0.048830 0.869000 3883141
-0.050833 -0.044167 0.875000 4080770
-0.051124 -0.039390 0.880000 4276097
-0.051356 -0.034518 0.884000 4407938
-0.051763 -0.029700 0.891000 3815553
-0.052053 -0.024747 0.896000 3093374
-0.052460 -0.019780 0.903000 2041228
-0.052750 -0.014701 0.908000 2036883
-0.052867 -0.009533 0.910000 2176656
-0.043548 -0.167548 0.775000 14930124
-0.043435 -0.162698 0.773000 11775940
-0.042424 -0.154595 0.755000 8946869
-0.042592 -0.150878 0.758000 8356518
-0.042592 -0.146547 0.758000 7961763
-0.042986 -0.143529 0.765000 7041441
-0.043267 -0.140067 0.770000 6118552
-0.043379 -0.136019 0.772000 5527956
-0.043660 -0.132460 0.777000 5067915
-0.043941 -0.128844 0.782000 4738448
-0.044278 -0.125330 0.788000 4017292
-0.044447 -0.121287 0.791000 3950476
-0.044784 -0.117652 0.797000 3949706
-0.044840 -0.113240 0.798000 4474763
-0.045065 -0.109225 0.802000 4345491
-0.045402 -0.105425 0.808000 3949195
-0.045627 -0.101307 0.812000 4935560
-0.046020 -0.097500 0.819000 4278666
-0.046132 -0.093047 0.821000 4080772
-0.046357 -0.088786 0.825000 3884169
-0.046694 -0.084683 0.831000 6183304
-0.047144 -0.080704 0.839000 8017003
-0.047256 -0.076090 0.841000 7835769
-0.047369 -0.071454 0.843000 4140931
-0.047874 -0.067349 0.852000 4145288
-0.047987 -0.062627 0.854000 3883401
-0.048211 -0.058017 0.858000 3359885
-0.048605 -0.053548 0.865000 2963855
-0.048942 -0.048942 0.871000 2701953
-0.049167 -0.044167 0.875000 2831485
-0.049448 -0.039390 0.880000 2896765
-0.049841 -0.034635 0.887000 3289979
-0.050066 -0.029700 0.891000 4137594
-0.050347 -0.024747 0.896000 4993404
-0.051133 -0.014733 0.910000 6246562
-0.051302 -0.009565 0.913000 6972831
-0.041963 -0.162698 0.773000 11115979
-0.041040 -0.154800 0.756000 8947890
-0.041257 -0.151276 0.760000 8356009
-0.041420 -0.147513 0.763000 7830180
-0.041529 -0.143529 0.765000 7040672
-0.041909 -0.140430 0.772000 5988249
-0.041963 -0.136195 0.773000 5462422
-0.042343 -0.132971 0.780000 5002125
-0.042560 -0.129173 0.784000 4541583
-0.042777 -0.125330 0.788000 3885708
-0.043049 -0.121593 0.793000 3950476
-0.043320 -0.117800 0.798000 3753611
-0.043429 -0.113524 0.800000 4146315
-0.043754 -0.109770 0.806000 4540559
-0.043971 -0.105686 0.810000 4145290
-0.044189 -0.101556 0.814000 4409478
-0.044460 -0.097500 0.819000 4080778
-0.044677 -0.093273 0.823000 3949447
-0.044894 -0.089001 0.827000 4081034
-0.045220 -0.084887 0.833000 5195654
-0.045546 -0.080704 0.839000 4326003
-0.045654 -0.076090 0.841000 4276090
-0.045763 -0.071454 0.843000 3031170
-0.046360 -0.067507 0.854000 4144516
-0.046360 -0.062627 0.854000 3882627
-0.046577 -0.058017 0.858000 2698119
-0.047174 -0.053795 0.869000 1909643
-0.047391 -0.049054 0.873000 1520528
-0.047500 -0.044167 0.875000 1580684
-0.047771 -0.039390 0.880000 1520783
-0.048151 -0.034635 0.887000 2237580
-0.048369 -0.029700 0.891000 4476817
-0.049400 -0.014733 0.910000 10461867
-0.049563 -0.009565 0.913000 11703720
-0.040490 -0.162698 0.773000 10525905
-0.039705 -0.155210 0.758000 8816046
-0.039862 -0.151475 0.761000 8356267
-0.040176 -0.148287 0.767000 7698854
-0.040176 -0.143904 0.767000 6910110
-0.040438 -0.140430 0.772000 5988250
-0.040595 -0.136548 0.775000 5396631
-0.040962 -0.133312 0.782000 4936591
-0.041171 -0.129503 0.786000 4476301
-0.041329 -0.125489 0.789000 4016525
-0.041643 -0.121900 0.795000 4147340
-0.041905 -0.118095 0.800000 4606348
-0.041905 -0.113524 0.800000 4080522
-0.042324 -0.110042 0.808000 4081035
-0.042533 -0.105947 0.812000 4145544
-0.042690 -0.101681 0.815000 4342915
-0.043005 -0.097738 0.821000 4211593
-0.043214 -0.093500 0.825000 3752329
-0.043424 -0.089216 0.829000 3292555
-0.043738 -0.085090 0.835000 3352453
-0.044052 -0.080896 0.841000 2757242
-0.044157 -0.076271 0.843000 3353980
-0.044262 -0.071624 0.845000 2436737
-0.044733 -0.067507 0.854000 2962304
-0.044838 -0.062773 0.856000 4076925
-0.045048 -0.058152 0.860000 4917633
-0.045519 -0.053795 0.869000 5521543
-0.045833 -0.049167 0.875000 5984159
-0.045833 -0.044167 0.875000 6579355
-0.046095 -0.039390 0.880000 7106721
-0.046671 -0.029700 0.891000 9412009
-0.038261 -0.159541 0.758000 9999813
-0.038261 -0.155210 0.758000 8685229
-0.038513 -0.151873 0.763000 8356266
-0.038867 -0.148867 0.770000 7567269
-0.038867 -0.144467 0.770000 6845084
-0.039119 -0.140976 0.775000 5923225
-0.039220 -0.136900 0.777000 5330327
-0.039472 -0.133312 0.782000 4870800
-0.039674 -0.129503 0.786000 4476302
-0.039927 -0.125807 0.791000 4082061
-0.040230 -0.122207 0.797000 4344713
-0.040280 -0.117800 0.798000 5393037
-0.040482 -0.113808 0.802000 4080264
-0.040886 -0.110314 0.810000 3620997
-0.040987 -0.105947 0.812000 4145538
-0.041138 -0.101681 0.815000 4276351
-0.041441 -0.097738 0.821000 4408194
-0.041643 -0.093500 0.825000 3553153
-0.041845 -0.089216 0.829000 2435974
-0.042148 -0.085090 0.835000 1517200
-0.042450 -0.080896 0.841000 1250443
-0.042551 -0.076271 0.843000 2372231
-0.042652 -0.071624 0.845000 1840780
-0.043208 -0.067665 0.856000 1719697
-0.043208 -0.062773 0.856000 4275600
-0.044167 -0.049167 0.875000 10390951
-0.044167 -0.044167 0.875000 11509927
-0.036817 -0.159541 0.758000 9540280
-0.036914 -0.155619 0.760000 8619948
-0.037254 -0.152670 0.767000 8225704
-0.037400 -0.148867 0.770000 7500709
-0.037497 -0.144842 0.772000 6778266
-0.037740 -0.141340 0.777000 5923736
-0.037837 -0.137252 0.779000 5330582
-0.038080 -0.133653 0.784000 4935825
-0.038177 -0.129503 0.786000 4607374
-0.038517 -0.126125 0.793000 4409741
-0.038711 -0.122207 0.797000 3951237
-0.038760 -0.117800 0.798000 4148109
-0.038954 -0.113808 0.802000 3029125
-0.039343 -0.110314 0.810000 2504831
-0.039537 -0.106208 0.814000 2830972
-0.039586 -0.101681 0.815000 2831483
-0.039877 -0.097738 0.821000 3355258
-0.040071 -0.093500 0.825000 4466298
-0.040266 -0.089216 0.829000 5190273
-0.040654 -0.085294 0.837000 5649051
-0.040849 -0.080896 0.841000 6118812
-0.040946 -0.076271 0.843000 7039378
-0.040849 -0.071285 0.841000 7433878
-0.041577 -0.067665 0.856000 7765921
-0.041577 -0.062773 0.856000 9145507
-0.035467 -0.159962 0.760000 9082550
-0.035607 -0.156233 0.763000 8553900
-0.035840 -0.152869 0.768000 8160679
-0.036027 -0.149253 0.772000 7370660
-0.036167 -0.145405 0.775000 6646942
-0.036260 -0.141340 0.777000 5923224
-0.036400 -0.137429 0.780000 5330066
-0.036587 -0.133653 0.784000 5000843
-0.036773 -0.129832 0.788000 4738186
-0.037007 -0.126125 0.793000 4670598
-0.037193 -0.122207 0.797000 3622018
-0.037333 -0.118095 0.800000 2894984
-0.037427 -0.113808 0.802000 1975444
-0.037893 -0.110587 0.812000 1388943
-0.037987 -0.106208 0.814000 1580683
-0.038033 -0.101681 0.815000 1390732
-0.038407 -0.097976 0.823000 2303119
-0.038407 -0.093273 0.823000 5331348
-0.038500 -0.088786 0.825000 7896729
-0.039060 -0.085294 0.837000 9732776
-0.039340 -0.081089 0.843000 11050918
-0.039340 -0.076271 0.843000 11702430
-0.039947 -0.067665 0.856000 13739937
-0.039947 -0.062773 0.856000 14007199
-0.034019 -0.159962 0.760000 9146292
-0.034153 -0.156233 0.763000 8619436
-0.034377 -0.152869 0.768000 8225190
-0.034556 -0.149253 0.772000 7239843
-0.034780 -0.145780 0.777000 6251937
-0.034870 -0.141704 0.779000 5398425
-0.034914 -0.137429 0.780000 4541581
-0.035183 -0.133994 0.786000 3819142
-0.035317 -0.129997 0.789000 3685765
-0.035496 -0.126125 0.793000 4011391
-0.035675 -0.122207 0.797000 4864894
-0.035810 -0.118095 0.800000 5704323
-0.035899 -0.113808 0.802000 5917603
-0.036347 -0.110587 0.812000 6118816
-0.036436 -0.106208 0.814000 6842522
-0.036481 -0.101681 0.815000 7437981
-0.036839 -0.097976 0.823000 8225700
-0.036839 -0.093273 0.823000 9807790
-0.036929 -0.088786 0.825000 10985392
-0.037466 -0.085294 0.837000 11775412
-0.037734 -0.081089 0.843000 12429743
-0.037734 -0.076271 0.843000 12623787
-0.032614 -0.160172 0.761000 9145009
-0.032786 -0.156643 0.765000 8684717
-0.032914 -0.152869 0.768000 8224423
-0.033086 -0.149253 0.772000 7041954
-0.033300 -0.145780 0.777000 5854884
-0.033386 -0.141704 0.779000 4872091
-0.033514 -0.137781 0.782000 3816597
-0.033686 -0.133994 0.786000 2639505
-0.033814 -0.129997 0.789000 2566801
-0.034071 -0.126443 0.795000 3362707
-0.034286 -0.122667 0.800000 6116503
-0.034286 -0.118095 0.800000 8482716
-0.034457 -0.114091 0.804000 9936046
-0.034886 -0.106208 0.814000 12034723
-0.036129 -0.081089 0.843000 13805226
-0.031247 -0.160593 0.763000 8947886
-0.031329 -0.156643 0.765000 8553133
-0.031451 -0.152869 0.768000 8354728
-0.031615 -0.149253 0.772000 8417697
-0.031902 -0.146155 0.779000 7891366
-0.031902 -0.141704 0.779000 7691678
-0.032557 -0.126443 0.795000 8887207
-0.032762 -0.122667 0.800000 10130864
-0.032762 -0.118095 0.800000 11317941
-0.032926 -0.114091 0.804000 11971769
-0.029793 -0.160593 0.763000 8816562
-0.029871 -0.156643 0.765000 8423595
-0.029989 -0.152869 0.768000 8419747
-0.030145 -0.149253 0.772000 9734302
-0.030418 -0.146155 0.779000 10000293
-0.030535 -0.142250 0.782000 10456480
-0.028414 -0.161014 0.765000 10262965
-0.028414 -0.156643 0.765000 9869992
-0.028674 -0.149253 0.772000 11445403
-0.028934 -0.146155 0.779000 11575203
-0.026957 -0.161014 0.765000 11772600
-0.025500 -0.161014 0.765000 11706554
-0.198819 -0.095200 0.680000 5964147
-0.198819 -0.091314 0.680000 6834764
-0.199404 -0.087686 0.682000 8612444
-0.197524 -0.095200 0.680000 68223
-0.197524 -0.091314 0.680000 1376838
-0.198105 -0.087686 0.682000 4531791
-0.199267 -0.084280 0.686000 8012877
-0.195940 -0.095060 0.679000 5514124
-0.195940 -0.091180 0.679000 2233408
-0.195940 -0.087300 0.679000 4000579
-0.196806 -0.083789 0.682000 5185076
-0.197383 -0.080126 0.684000 5508653
-0.199980 -0.077220 0.693000 6172206
-0.200557 -0.073471 0.695000 6967098
-0.201423 -0.069800 0.698000 8215121
-0.202866 -0.066283 0.703000 9597535
-0.194933 -0.095200 0.680000 10975658
-0.194647 -0.091180 0.679000 3092341
-0.194647 -0.087300 0.679000 3415871
-0.195507 -0.083789 0.682000 2432576
-0.195793 -0.080009 0.683000 1775930
-0.197800 -0.076886 0.690000 1641527
-0.198660 -0.073260 0.693000 1580351
-0.199233 -0.069500 0.695000 4194628
-0.200953 -0.066094 0.701000 7026249
-0.201813 -0.062354 0.704000 8738641
-0.202100 -0.058414 0.705000 10445406
-0.194208 -0.099377 0.682000 5977700
-0.194208 -0.095480 0.682000 13887688
-0.193353 -0.091180 0.679000 5202602
-0.193069 -0.087171 0.678000 3090747
-0.193638 -0.083543 0.680000 2828108
-0.194492 -0.080009 0.683000 2500166
-0.195347 -0.076440 0.686000 2367551
-0.196201 -0.072837 0.689000 2498629
-0.197625 -0.069400 0.694000 3542583
-0.199333 -0.066000 0.700000 4785204
-0.200472 -0.062354 0.704000 5380904
-0.200757 -0.058414 0.705000 6031933
-0.205029 -0.047314 0.720000 9860957
-0.205883 -0.043380 0.723000 10522236
-0.206737 -0.039411 0.726000 11307906
-0.207591 -0.035409 0.729000 11833221
-0.193191 -0.099523 0.683000 5505394
-0.192909 -0.095480 0.682000 16704730
-0.192343 -0.091314 0.680000 7247316
-0.191777 -0.087171 0.678000 2757964
-0.192060 -0.083420 0.679000 3287884
-0.192909 -0.079891 0.682000 3221320
-0.193474 -0.076217 0.684000 3090754
-0.194889 -0.072837 0.689000 3417668
-0.195454 -0.069100 0.691000 2893630
-0.197434 -0.065811 0.698000 2497342
-0.198283 -0.062089 0.701000 1971004
-0.199414 -0.058414 0.705000 1580607
-0.199980 -0.054540 0.707000 2426166
-0.203374 -0.047249 0.719000 7489093
-0.204506 -0.043380 0.723000 8998488
-0.205071 -0.039357 0.725000 10646359
-0.206769 -0.035506 0.731000 11960672
-0.191890 -0.099523 0.683000 6373503
-0.191890 -0.095620 0.683000 16314604
-0.191610 -0.091583 0.682000 10731006
-0.190486 -0.087171 0.678000 1442398
-0.190486 -0.083297 0.678000 3353420
-0.191048 -0.079657 0.680000 3483979
-0.191890 -0.076106 0.683000 3287109
-0.193014 -0.072626 0.687000 3286595
-0.193857 -0.069000 0.690000 3090245
-0.195262 -0.065529 0.695000 2763336
-0.196667 -0.062000 0.700000 3486288
-0.197790 -0.058331 0.704000 4344898
-0.198633 -0.054540 0.707000 3679800
-0.199476 -0.050714 0.710000 5251653
-0.202005 -0.047249 0.719000 5644332
-0.203129 -0.043380 0.723000 6226229
-0.203690 -0.039357 0.725000 6499628
-0.204533 -0.035360 0.728000 7623227
-0.205376 -0.031329 0.731000 8545111
-0.191427 -0.099960 0.686000 7215779
-0.190869 -0.095760 0.684000 15920882
-0.190310 -0.091583 0.682000 14215673
-0.189194 -0.087171 0.678000 81290
-0.189194 -0.083297 0.678000 3418943
-0.189473 -0.079540 0.679000 3681097
-0.190310 -0.075994 0.682000 3418696
-0.191427 -0.072520 0.686000 3156039
-0.192264 -0.068900 0.689000 3287366
-0.193380 -0.065340 0.693000 2959686
-0.194496 -0.061734 0.697000 4996688
-0.196450 -0.058331 0.704000 7033150
-0.197287 -0.054540 0.707000 4861248
-0.197566 -0.050571 0.708000 5652034
-0.200077 -0.047117 0.717000 3812406
-0.201472 -0.043320 0.722000 3486517
-0.202310 -0.039357 0.725000 2430516
-0.203147 -0.035360 0.728000 3288640
-0.203984 -0.031329 0.731000 4856897
-0.204821 -0.027263 0.734000 7553354
-0.206495 -0.023257 0.740000 9065812
-0.190397 -0.100106 0.687000 9663687
-0.189566 -0.095760 0.684000 15788536
-0.189011 -0.091583 0.682000 15001331
-0.187903 -0.087171 0.678000 5601462
-0.187349 -0.083051 0.676000 2694705
-0.187903 -0.079423 0.678000 4009800
-0.188457 -0.075771 0.680000 3747146
-0.189566 -0.072309 0.684000 3484492
-0.190397 -0.068700 0.687000 3484487
-0.191506 -0.065151 0.691000 3483461
-0.192614 -0.061557 0.695000 4666448
-0.195109 -0.058331 0.704000 7363387
-0.195386 -0.054386 0.705000 5258055
-0.196217 -0.050571 0.708000 5788479
-0.198434 -0.047051 0.716000 4733248
-0.200097 -0.043320 0.722000 5921078
-0.200929 -0.039357 0.725000 4011068
-0.201760 -0.035360 0.728000 4471108
-0.202591 -0.031329 0.731000 4400683
-0.203423 -0.027263 0.734000 5178167
-0.205086 -0.023257 0.740000 6106422
-0.205917 -0.019106 0.743000 7350850
-0.207303 -0.014960 0.748000 8150088
-0.189089 -0.100106 0.687000 12174551
-0.188813 -0.096040 0.686000 15657206
-0.187712 -0.091583 0.682000 15852529
-0.186611 -0.087171 0.678000 11053272
-0.186061 -0.083051 0.676000 1970515
-0.185786 -0.079071 0.675000 4272963
-0.186887 -0.075660 0.679000 4075855
-0.188263 -0.072309 0.684000 3813198
-0.189089 -0.068700 0.687000 3681353
-0.189914 -0.065057 0.690000 3944262
-0.190740 -0.061380 0.693000 4400719
-0.192116 -0.057834 0.698000 7624003
-0.193768 -0.054309 0.704000 5717320
-0.194593 -0.050500 0.707000 5919044
-0.196245 -0.046854 0.713000 5714506
-0.197896 -0.043140 0.719000 8346434
-0.198722 -0.039194 0.722000 5584965
-0.199823 -0.035263 0.726000 5655109
-0.200649 -0.031243 0.729000 3945788
-0.202025 -0.027263 0.734000 2829885
-0.203401 -0.023226 0.739000 3226177
-0.204502 -0.019106 0.743000 4208199
-0.205603 -0.014940 0.747000 4731211
-0.207805 -0.006471 0.755000 7754838
-0.187780 -0.100106 0.687000 13684199
-0.186960 -0.095760 0.684000 15590643
-0.186413 -0.091583 0.682000 15589871
-0.185320 -0.087171 0.678000 13558521
-0.184773 -0.083051 0.676000 4146804
-0.183680 -0.078720 0.672000 4010814
-0.185320 -0.075549 0.678000 4207699
-0.186687 -0.072203 0.683000 4206928
-0.187507 -0.068600 0.686000 4140875
-0.188327 -0.064963 0.689000 4536135
-0.188873 -0.061203 0.691000 4863822
-0.190787 -0.057834 0.698000 6704204
-0.191333 -0.054000 0.700000 5587017
-0.192700 -0.050357 0.705000 5983562
-0.194340 -0.046723 0.711000 5258067
-0.195707 -0.042960 0.716000 7167310
-0.196527 -0.039031 0.719000 5588301
-0.198167 -0.035214 0.725000 5918533
-0.198987 -0.031200 0.728000 4669261
-0.200080 -0.027189 0.732000 4802372
-0.201447 -0.023163 0.737000 4669515
-0.202267 -0.019029 0.740000 5001291
-0.204180 -0.014940 0.747000 4995661
-0.205820 -0.010757 0.753000 5981245
-0.206367 -0.006471 0.755000 6438197
-0.209100 0.006557 0.765000 7887178
-0.187014 -0.100397 0.689000 15203827
-0.185657 -0.095760 0.684000 15524850
-0.185114 -0.091583 0.682000 15327983
-0.184029 -0.087171 0.678000 15982837
-0.183486 -0.083051 0.676000 6324409
-0.182129 -0.078603 0.671000 3745104
-0.181586 -0.074546 0.669000 4404553
-0.185386 -0.072203 0.683000 4601170
-0.185657 -0.068400 0.684000 4666189
-0.186200 -0.064680 0.686000 5127244
-0.187286 -0.061114 0.690000 5325142
-0.189457 -0.057834 0.698000 5719631
-0.189457 -0.053846 0.698000 5522006
-0.190814 -0.050214 0.703000 6048593
-0.191357 -0.046329 0.705000 4802388
-0.193529 -0.042780 0.713000 5917263
-0.194614 -0.038923 0.717000 5654861
-0.195971 -0.035069 0.722000 6114634
-0.197600 -0.031200 0.728000 5391183
-0.198414 -0.027151 0.731000 6768459
-0.199771 -0.023131 0.736000 6112587
-0.200586 -0.019003 0.739000 5785929
-0.200857 -0.014800 0.740000 5327689
-0.204114 -0.010743 0.752000 5848894
-0.204386 -0.006454 0.753000 5130561
-0.205200 -0.002160 0.756000 3681608
-0.205743 0.002166 0.758000 3811396
-0.207100 0.006540 0.763000 4143689
-0.210900 0.015540 0.777000 7885396
-0.211714 0.020057 0.780000 9067870
-0.213343 0.024703 0.786000 10185311
-0.214700 0.029380 0.791000 11110492
-0.214700 0.033900 0.791000 11042142
-0.185702 -0.100397 0.689000 15659262
-0.184893 -0.096040 0.686000 15524849
-0.184085 -0.091717 0.683000 15261678
-0.182737 -0.087171 0.678000 15588593
-0.182198 -0.083051 0.676000 10138366
-0.180850 -0.078603 0.671000 4664419
-0.179772 -0.074323 0.667000 5458751
-0.179772 -0.070511 0.667000 4667220
-0.183007 -0.067900 0.679000 4667214
-0.184354 -0.064491 0.684000 5127762
-0.184893 -0.060760 0.686000 5455710
-0.187050 -0.057503 0.694000 5391442
-0.187319 -0.053614 0.695000 5390690
-0.188667 -0.050000 0.700000 5852248
-0.189475 -0.046197 0.703000 5261908
-0.190553 -0.042420 0.707000 5849425
-0.192979 -0.038869 0.716000 5720653
-0.194057 -0.034971 0.720000 5982544
-0.195405 -0.031071 0.725000 5391185
-0.196213 -0.027040 0.728000 6246482
-0.197291 -0.023006 0.732000 5653322
-0.198639 -0.018951 0.737000 5455431
-0.198639 -0.014740 0.737000 5459012
-0.200795 -0.010643 0.745000 5452352
-0.202682 -0.006446 0.752000 5526348
-0.203760 -0.002160 0.756000 4339282
-0.204838 0.002171 0.760000 4339015
-0.205108 0.006523 0.761000 4667464
-0.207533 0.011000 0.770000 5321799
-0.208881 0.015500 0.775000 6104895
-0.209959 0.020031 0.779000 6567748
-0.211307 0.024640 0.784000 7158852
-0.212654 0.029306 0.789000 7755839
-0.213193 0.033900 0.791000 8545346
-0.214810 0.038711 0.797000 9269590
-0.216697 0.043646 0.804000 9731953
-0.216697 0.048240 0.804000 10255479
-0.185460 -0.104940 0.693000 6902707
-0.184657 -0.100543 0.690000 16183035
-0.183587 -0.096040 0.686000 15524849
-0.182516 -0.091583 0.682000 15261423
-0.181446 -0.087171 0.678000 15129839
-0.180910 -0.083051 0.676000 14020094
-0.179305 -0.078486 0.670000 5527182
-0.178234 -0.074211 0.666000 6517872
-0.178502 -0.070511 0.667000 4667226
-0.180375 -0.067400 0.674000 4668759
-0.181981 -0.064114 0.680000 5061203
-0.182516 -0.060406 0.682000 5586002
-0.184657 -0.057171 0.690000 5061458
-0.185728 -0.053537 0.694000 5258837
-0.186530 -0.049786 0.697000 5587285
-0.187333 -0.046000 0.700000 5654611
-0.187601 -0.042060 0.701000 5718865
-0.190277 -0.038597 0.711000 5786445
-0.192418 -0.034923 0.719000 5785680
-0.193489 -0.030986 0.723000 5456723
-0.194024 -0.026929 0.725000 5654607
-0.195630 -0.022974 0.731000 5193284
-0.196432 -0.018874 0.734000 5126729
-0.197235 -0.014740 0.737000 5587784
-0.198841 -0.010614 0.743000 5062213
-0.200179 -0.006411 0.748000 5856845
-0.200714 -0.002143 0.750000 4995665
-0.202320 0.002160 0.756000 4864590
-0.203658 0.006523 0.761000 5127755
-0.205531 0.010971 0.768000 4799307
-0.206870 0.015460 0.773000 4273992
-0.207940 0.019980 0.777000 4141385
-0.209813 0.024640 0.784000 4142664
-0.210884 0.029269 0.788000 4401993
-0.211687 0.033900 0.791000 5982541
-0.213292 0.038711 0.797000 7626321
-0.215166 0.043646 0.804000 8606809
-0.215166 0.048240 0.804000 9859934
-0.184140 -0.104940 0.693000 10389182
-0.183609 -0.100689 0.691000 16116727
-0.182280 -0.096040 0.686000 15524849
-0.181483 -0.091717 0.683000 15326959
-0.180154 -0.087171 0.678000 15326445
-0.179623 -0.083051 0.676000 14936574
-0.177763 -0.078369 0.669000 6971577
-0.176700 -0.074100 0.665000 5925281
-0.176966 -0.070406 0.666000 3683680
-0.178560 -0.067200 0.672000 4077151
-0.180154 -0.063926 0.678000 4666964
-0.180686 -0.060229 0.680000 4797765
-0.181483 -0.056591 0.683000 4666963
-0.184140 -0.053460 0.693000 4864583
-0.184140 -0.049500 0.693000 5125458
-0.185203 -0.045803 0.697000 5325138
-0.186000 -0.042000 0.700000 5456209
-0.187063 -0.038217 0.704000 5588301
-0.189720 -0.034680 0.714000 5588816
-0.191314 -0.030857 0.720000 5325396
-0.191846 -0.026817 0.722000 5062733
-0.193440 -0.022880 0.728000 5061693
-0.194503 -0.018823 0.732000 4929356
-0.195566 -0.014720 0.736000 5324364
-0.196629 -0.010571 0.740000 4929354
-0.197957 -0.006386 0.745000 5655373
-0.198754 -0.002137 0.748000 5192784
-0.200083 0.002151 0.753000 5127765
-0.202209 0.006523 0.761000 5325135
-0.204069 0.010971 0.768000 5195087
-0.204600 0.015400 0.770000 4867408
-0.205929 0.019929 0.775000 4602958
-0.207789 0.024577 0.782000 4668237
-0.208851 0.029194 0.786000 4798547
-0.210180 0.033900 0.791000 5914456
-0.211243 0.038614 0.795000 6573388
-0.213103 0.043537 0.802000 6754625
-0.214166 0.048360 0.806000 6899268
-0.214697 0.053097 0.808000 7689287
-0.216291 0.058143 0.814000 8741460
-0.218151 0.063334 0.821000 9923426
-0.182820 -0.104940 0.693000 13871566
-0.182292 -0.100689 0.691000 16115445
-0.181237 -0.096180 0.687000 15524849
-0.180182 -0.091717 0.683000 15392495
-0.178863 -0.087171 0.678000 15523566
-0.178071 -0.082929 0.675000 15854073
-0.176489 -0.078369 0.669000 8425933
-0.175433 -0.074100 0.665000 5335952
-0.175697 -0.070406 0.666000 2701680
-0.177016 -0.067100 0.671000 3421294
-0.178335 -0.063737 0.676000 4275557
-0.179127 -0.060140 0.679000 4010587
-0.180182 -0.056591 0.683000 4207707
-0.181765 -0.053151 0.689000 4470859
-0.182029 -0.049286 0.690000 4666449
-0.183348 -0.045671 0.695000 4996429
-0.184139 -0.041880 0.698000 5127510
-0.185722 -0.038217 0.704000 5390420
-0.187569 -0.034534 0.711000 5391440
-0.189151 -0.030729 0.717000 5259350
-0.189679 -0.026706 0.719000 4472656
-0.191262 -0.022786 0.725000 4995655
-0.192317 -0.018746 0.729000 4667982
-0.193109 -0.014640 0.732000 5127246
-0.194955 -0.010557 0.739000 4799054
-0.196010 -0.006369 0.743000 5521486
-0.197066 -0.002134 0.747000 5391183
-0.198385 0.002149 0.752000 5391442
-0.199440 0.006480 0.756000 5523025
-0.201814 0.010929 0.765000 5590610
-0.202606 0.015360 0.768000 5391699
-0.204452 0.019929 0.775000 5129293
-0.205508 0.024483 0.779000 5193295
-0.206827 0.029120 0.784000 5193556
-0.208146 0.033814 0.789000 5849941
-0.209729 0.038614 0.795000 5590358
-0.211048 0.043429 0.800000 4863307
-0.212103 0.048240 0.804000 3947596
-0.212630 0.052966 0.806000 4603982
-0.214741 0.058143 0.814000 6634835
-0.216588 0.063334 0.821000 8810851
-0.181762 -0.105091 0.694000 15330271
-0.181500 -0.100980 0.693000 15918834
-0.180452 -0.096460 0.689000 15525106
-0.178881 -0.091717 0.683000 15392495
-0.177833 -0.087300 0.679000 15458286
-0.177048 -0.083051 0.676000 15788532
