# .PCD v.7 - Point Cloud Data file format
VERSION .7
FIELDS x y z rgb
SIZE 4 4 4 4
TYPE F F F I
COUNT 1 1 1 1
WIDTH 1297
HEIGHT 1
POINTS 1297
DATA ascii
-0.133467 -0.096423 0.572000 1316172
-0.133933 -0.093480 0.574000 664899
-0.134167 -0.090357 0.575000 1908046
-0.134400 -0.087223 0.576000 1972807
-0.134867 -0.084223 0.578000 1907270
-0.134867 -0.080920 0.578000 1580099
-0.135333 -0.077886 0.580000 1384006
-0.135800 -0.074829 0.582000 725040
-0.136033 -0.071626 0.583000 197164
-0.136267 -0.068411 0.584000 924232
-0.136500 -0.065186 0.585000 8081498
-0.136733 -0.061949 0.586000 11436668
-0.128443 -0.144300 0.555000 2167912
-0.128443 -0.141129 0.555000 1579081
-0.128674 -0.138206 0.556000 1318465
-0.128906 -0.135271 0.557000 1317443
-0.129369 -0.132563 0.559000 1317955
-0.129831 -0.129831 0.561000 1580357
-0.130063 -0.126851 0.562000 1514055
-0.130063 -0.123640 0.562000 1644870
-0.130526 -0.120857 0.564000 1580360
-0.130757 -0.117843 0.565000 1383242
-0.130989 -0.114817 0.566000 1646157
-0.131220 -0.111780 0.567000 1776973
-0.131220 -0.108540 0.567000 1186636
-0.131451 -0.105486 0.568000 8023361
-0.131914 -0.102600 0.570000 5983573
-0.132146 -0.099517 0.571000 1250621
-0.132377 -0.096423 0.572000 2826063
-0.132609 -0.093317 0.573000 4348981
-0.133071 -0.090357 0.575000 2237773
-0.133303 -0.087223 0.576000 2038344
-0.133766 -0.084223 0.578000 1513038
-0.133997 -0.081060 0.579000 1776966
-0.134229 -0.077886 0.580000 1580608
-0.134691 -0.074829 0.582000 1382716
-0.134923 -0.071626 0.583000 1052995
-0.135154 -0.068411 0.584000 1769772
-0.135386 -0.065186 0.585000 4265757
-0.135849 -0.062054 0.587000 5978678
-0.137006 -0.055817 0.592000 10853804
-0.127386 -0.144300 0.555000 1048916
-0.127615 -0.141383 0.556000 1776712
-0.127615 -0.138206 0.556000 1384002
-0.127845 -0.135271 0.557000 1185861
-0.128304 -0.132563 0.559000 1252419
-0.128763 -0.129831 0.561000 1645124
-0.128992 -0.126851 0.562000 1513798
-0.129222 -0.123860 0.563000 1382467
-0.129451 -0.120857 0.564000 1449286
-0.129681 -0.117843 0.565000 1383238
-0.129910 -0.114817 0.566000 1776971
-0.130140 -0.111780 0.567000 1907275
-0.130370 -0.108731 0.568000 1253452
-0.130599 -0.105671 0.569000 8150853
-0.130829 -0.102600 0.570000 6646616
-0.131058 -0.099517 0.571000 530754
-0.131288 -0.096423 0.572000 4331601
-0.131747 -0.093480 0.574000 8018498
-0.131976 -0.090357 0.575000 2570058
-0.132206 -0.087223 0.576000 2103115
-0.132665 -0.084223 0.578000 1117771
-0.132894 -0.081060 0.579000 1973066
-0.133124 -0.077886 0.580000 1843267
-0.133583 -0.074829 0.582000 1973825
-0.133812 -0.071626 0.583000 1973574
-0.134042 -0.068411 0.584000 2560824
-0.134042 -0.065074 0.584000 461107
-0.134960 -0.062160 0.588000 463161
-0.135649 -0.059100 0.591000 5576784
-0.135878 -0.055817 0.592000 10183786
-0.136108 -0.052523 0.593000 13152649
-0.126329 -0.144300 0.555000 1181759
-0.126329 -0.141129 0.555000 1777223
-0.126556 -0.138206 0.556000 1252674
-0.126784 -0.135271 0.557000 1251399
-0.127467 -0.132800 0.560000 1251906
-0.127694 -0.129831 0.561000 1448515
-0.128150 -0.127077 0.563000 1382725
-0.128150 -0.123860 0.563000 1578305
-0.128377 -0.120857 0.564000 1579331
-0.128832 -0.118051 0.566000 1316929
-0.128832 -0.114817 0.566000 1776456
-0.129060 -0.111780 0.567000 1906760
-0.129288 -0.108731 0.568000 1513547
-0.129743 -0.105857 0.570000 8486216
-0.129970 -0.102780 0.571000 6447195
-0.130198 -0.099691 0.572000 726855
-0.130426 -0.096591 0.573000 4667475
-0.130653 -0.093480 0.574000 4339535
-0.130881 -0.090357 0.575000 3489095
-0.130881 -0.087071 0.575000 1447246
-0.131564 -0.084223 0.578000 4078664
-0.131791 -0.081060 0.579000 1448526
-0.132019 -0.077886 0.580000 1973829
-0.132474 -0.074829 0.582000 1581126
-0.132702 -0.071626 0.583000 2104648
-0.132930 -0.068411 0.584000 2365765
-0.133385 -0.065297 0.586000 988233
-0.134068 -0.062266 0.589000 1312573
-0.134295 -0.059000 0.590000 3279906
-0.134523 -0.055723 0.591000 5244713
-0.134750 -0.052434 0.592000 8216933
-0.125271 -0.144300 0.555000 1311028
-0.125271 -0.141129 0.555000 1776452
-0.125497 -0.138206 0.556000 1121346
-0.125723 -0.135271 0.557000 1251652
-0.126400 -0.132800 0.560000 1250881
-0.126851 -0.130063 0.562000 1251651
-0.127077 -0.127077 0.563000 1251654
-0.127077 -0.123860 0.563000 1709890
-0.127529 -0.121071 0.565000 1643845
-0.127529 -0.117843 0.565000 1250885
-0.127754 -0.114817 0.566000 1841742
-0.128206 -0.111977 0.568000 1841225
-0.128431 -0.108923 0.569000 1776206
-0.128657 -0.105857 0.570000 8806464
-0.128883 -0.102780 0.571000 6252359
-0.129109 -0.099691 0.572000 924488
-0.129334 -0.096591 0.573000 4996418
-0.129560 -0.093480 0.574000 670539
-0.129786 -0.090357 0.575000 4408132
-0.130011 -0.087223 0.576000 791375
-0.130463 -0.084223 0.578000 6974018
-0.130689 -0.081060 0.579000 864325
-0.130914 -0.077886 0.580000 2104135
-0.131366 -0.074829 0.582000 1120841
-0.131591 -0.071626 0.583000 2235726
-0.132043 -0.068529 0.585000 2170182
-0.132269 -0.065297 0.586000 1579081
-0.132946 -0.062266 0.589000 2102850
-0.132946 -0.058900 0.589000 988467
-0.133397 -0.055723 0.591000 265015
-0.133623 -0.052434 0.592000 3277126
-0.133849 -0.049134 0.593000 9787983
-0.123990 -0.144040 0.554000 1313065
-0.124214 -0.141129 0.555000 1775169
-0.124214 -0.137957 0.555000 1251906
-0.124886 -0.135514 0.558000 1382464
-0.125333 -0.132800 0.560000 1316928
-0.125557 -0.129831 0.561000 1447235
-0.126005 -0.127077 0.563000 1251655
-0.126005 -0.123860 0.563000 1775427
-0.126452 -0.121071 0.565000 2827591
-0.126676 -0.118051 0.566000 1315145
-0.126900 -0.115020 0.567000 1841747
-0.127124 -0.111977 0.568000 1643594
-0.127348 -0.108923 0.569000 2169424
-0.127571 -0.105857 0.570000 8545336
-0.128019 -0.102960 0.572000 6445874
-0.128243 -0.099866 0.573000 1313866
-0.128467 -0.096760 0.574000 5130289
-0.128690 -0.093643 0.575000 2168135
-0.128690 -0.090357 0.575000 4145217
-0.129138 -0.087374 0.577000 1115472
-0.129586 -0.084369 0.579000 6907451
-0.129586 -0.081060 0.579000 3493180
-0.129810 -0.077886 0.580000 1710152
-0.130257 -0.074829 0.582000 3478349
-0.130481 -0.071626 0.583000 2432851
-0.130929 -0.068529 0.585000 2104903
-0.131152 -0.065297 0.586000 1907528
-0.131376 -0.062054 0.587000 2169671
-0.131824 -0.058900 0.589000 1579588
-0.132271 -0.055723 0.591000 792133
-0.132271 -0.052346 0.591000 2361382
-0.132719 -0.049134 0.593000 4981010
-0.132943 -0.045823 0.594000 7622484
-0.122935 -0.144040 0.554000 1245486
-0.123157 -0.141129 0.555000 1776194
-0.123379 -0.138206 0.556000 1317189
-0.123601 -0.135271 0.557000 1513024
-0.124045 -0.132563 0.559000 1381952
-0.124489 -0.129831 0.561000 1578819
-0.124710 -0.126851 0.562000 1251912
-0.124710 -0.123640 0.562000 1775167
-0.125154 -0.120857 0.564000 3943750
-0.125376 -0.117843 0.565000 1382474
-0.125598 -0.114817 0.566000 1908046
-0.125820 -0.111780 0.567000 1450060
-0.126042 -0.108731 0.568000 2629199
-0.126264 -0.105671 0.569000 8214335
-0.126486 -0.102600 0.570000 6646838
-0.126930 -0.099691 0.572000 1644877
-0.127151 -0.096591 0.573000 5334576
-0.127373 -0.093480 0.574000 3621196
-0.127595 -0.090357 0.575000 3885383
-0.127817 -0.087223 0.576000 1383997
-0.128261 -0.084223 0.578000 6771005
-0.128705 -0.081200 0.580000 6114888
-0.128927 -0.078020 0.581000 1316428
-0.129149 -0.074829 0.582000 5783618
-0.129370 -0.071626 0.583000 2629441
-0.129814 -0.068529 0.585000 1974346
-0.130036 -0.065297 0.586000 2235975
-0.130258 -0.062054 0.587000 2170443
-0.130702 -0.058900 0.589000 2170694
-0.131146 -0.055723 0.591000 1252166
-0.131146 -0.052346 0.591000 1447991
-0.131811 -0.049217 0.594000 133675
-0.131811 -0.045823 0.594000 2097471
-0.132033 -0.042500 0.595000 8339275
-0.132477 -0.039231 0.597000 12293467
-0.121880 -0.144040 0.554000 1379379
-0.122100 -0.141129 0.555000 1776195
-0.122540 -0.138454 0.557000 1514056
-0.122760 -0.135514 0.558000 1512768
-0.122980 -0.132563 0.559000 1447744
-0.123200 -0.129600 0.560000 1447491
-0.123640 -0.126851 0.562000 1448008
-0.123640 -0.123640 0.562000 1775418
-0.124300 -0.121071 0.565000 4340293
-0.124300 -0.117843 0.565000 2624588
-0.124520 -0.114817 0.566000 2830408
-0.124740 -0.111780 0.567000 3751759
-0.125180 -0.108923 0.569000 3220302
-0.125180 -0.105671 0.569000 6048838
-0.125620 -0.102780 0.571000 4671545
-0.125840 -0.099691 0.572000 1184080
-0.126060 -0.096591 0.573000 5198639
-0.126280 -0.093480 0.574000 5001809
-0.126720 -0.090514 0.576000 3551308
-0.126940 -0.087374 0.577000 2561322
-0.127160 -0.084223 0.578000 7626558
-0.127380 -0.081060 0.579000 5001300
-0.127600 -0.077886 0.580000 2628175
-0.127820 -0.074700 0.581000 6256951
-0.128040 -0.071503 0.582000 3818543
-0.128480 -0.068411 0.584000 2105933
-0.128700 -0.065186 0.585000 2300742
-0.128920 -0.061949 0.586000 2105167
-0.129580 -0.058900 0.589000 2236232
-0.129800 -0.055629 0.590000 1776456
-0.129800 -0.052257 0.590000 1776967
-0.130460 -0.049134 0.593000 1186373
-0.130460 -0.045746 0.593000 1904169
-0.130680 -0.042429 0.594000 4522262
-0.131120 -0.039166 0.596000 6175489
-0.131560 -0.035880 0.598000 10059369
-0.120825 -0.144040 0.554000 1509431
-0.121043 -0.141129 0.555000 1776451
-0.121479 -0.138454 0.557000 1710400
-0.121697 -0.135514 0.558000 1513025
-0.121915 -0.132563 0.559000 1579332
-0.122133 -0.129600 0.560000 1251139
-0.122570 -0.126851 0.562000 1644864
-0.122788 -0.123860 0.563000 1775164
-0.123224 -0.121071 0.565000 4738133
-0.123224 -0.117843 0.565000 3812684
-0.123442 -0.114817 0.566000 3755612
-0.123878 -0.111977 0.568000 6044242
-0.124096 -0.108923 0.569000 3813199
-0.124096 -0.105671 0.569000 3817041
-0.124532 -0.102780 0.571000 2698312
-0.124969 -0.099866 0.573000 725577
-0.125187 -0.096760 0.574000 5070132
-0.125405 -0.093643 0.575000 6315327
-0.125841 -0.090671 0.577000 3215949
-0.126059 -0.087526 0.578000 3684919
-0.126277 -0.084369 0.579000 8478520
-0.126495 -0.081200 0.580000 3816264
-0.126495 -0.077886 0.580000 3871313
-0.126713 -0.074700 0.581000 6641456
-0.126931 -0.071503 0.582000 5007426
-0.127368 -0.068411 0.584000 2235981
-0.127804 -0.065297 0.586000 2365004
-0.127804 -0.061949 0.586000 1973822
-0.128240 -0.058800 0.588000 2301769
-0.128676 -0.055629 0.590000 2302027
-0.128676 -0.052257 0.590000 2105928
-0.129112 -0.049051 0.592000 2236999
-0.129330 -0.045746 0.593000 1712695
-0.129549 -0.042429 0.594000 659501
-0.130203 -0.039231 0.597000 131357
-0.130421 -0.035880 0.598000 6106437
-0.119770 -0.144040 0.554000 1644090
-0.119986 -0.141129 0.555000 1710404
-0.120418 -0.138454 0.557000 1710391
-0.120634 -0.135514 0.558000 1447745
-0.120850 -0.132563 0.559000 1382727
-0.121067 -0.129600 0.560000 1381699
-0.121499 -0.126851 0.562000 1776183
-0.121715 -0.123860 0.563000 1514301
-0.122148 -0.121071 0.565000 4407652
-0.122148 -0.117843 0.565000 4476492
-0.122364 -0.114817 0.566000 4147056
-0.122796 -0.111977 0.568000 5457236
-0.123012 -0.108923 0.569000 4276559
-0.123012 -0.105671 0.569000 4475996
-0.123445 -0.102780 0.571000 3618391
-0.123877 -0.099866 0.573000 1839427
-0.124093 -0.096760 0.574000 4601144
-0.124310 -0.093643 0.575000 6056493
-0.124742 -0.090671 0.577000 2168398
-0.124958 -0.087526 0.578000 4804676
-0.125390 -0.084514 0.580000 7756082
-0.125607 -0.081340 0.581000 3153468
-0.125607 -0.078020 0.581000 4204882
-0.125607 -0.074700 0.581000 4797226
-0.126039 -0.071626 0.583000 5070421
-0.126471 -0.068529 0.585000 2301260
-0.126688 -0.065297 0.586000 3747154
-0.126904 -0.062054 0.587000 1841710
-0.127120 -0.058800 0.588000 2563913
-0.127336 -0.055534 0.589000 2629711
-0.127552 -0.052257 0.590000 2237257
-0.127985 -0.049051 0.592000 2040905
-0.128201 -0.045746 0.593000 2105924
-0.128417 -0.042429 0.594000 1580612
-0.128850 -0.039166 0.596000 1380920
-0.129282 -0.035880 0.598000 3932450
-0.129498 -0.032517 0.599000 5448193
-0.118929 -0.144300 0.555000 1710433
-0.118929 -0.141129 0.555000 1578823
-0.119357 -0.138454 0.557000 1775931
-0.119571 -0.135514 0.558000 1382465
-0.119786 -0.132563 0.559000 1251652
-0.120214 -0.129831 0.561000 1513284
-0.120429 -0.126851 0.562000 1908030
-0.120643 -0.123860 0.563000 1186886
-0.121071 -0.121071 0.565000 4151128
-0.121071 -0.117843 0.565000 5128527
-0.121286 -0.114817 0.566000 4544092
-0.121714 -0.111977 0.568000 4865359
-0.121929 -0.108923 0.569000 4737359
-0.122143 -0.105857 0.570000 5066073
-0.122571 -0.102960 0.572000 4537944
-0.122786 -0.099866 0.573000 2960472
-0.123000 -0.096760 0.574000 4136012
-0.123000 -0.093480 0.574000 5786176
-0.123429 -0.090514 0.576000 1119557
-0.123857 -0.087526 0.578000 5850689
-0.124071 -0.084369 0.579000 7029053
-0.124286 -0.081200 0.580000 2502200
-0.124500 -0.078020 0.581000 4596307
-0.124714 -0.074829 0.582000 2962241
-0.124929 -0.071626 0.583000 5142067
-0.125143 -0.068411 0.584000 2366285
-0.125571 -0.065297 0.586000 5187411
-0.125786 -0.062054 0.587000 1715002
-0.126000 -0.058800 0.588000 2825806
-0.126214 -0.055534 0.589000 2962245
-0.126214 -0.052169 0.589000 2368075
-0.126857 -0.049051 0.592000 1843789
-0.127071 -0.045746 0.593000 2498891
-0.127286 -0.042429 0.594000 2433862
-0.127714 -0.039166 0.596000 2695488
-0.128143 -0.035880 0.598000 1775668
-0.128571 -0.032571 0.600000 197151
-0.129214 -0.029289 0.603000 1645127
-0.129214 -0.025843 0.603000 8933195
-0.117871 -0.144300 0.555000 4144775
-0.117871 -0.141129 0.555000 921674
-0.118296 -0.138454 0.557000 1710142
-0.118509 -0.135514 0.558000 1578817
-0.118721 -0.132563 0.559000 1382721
-0.118933 -0.129600 0.560000 1578821
-0.119146 -0.126626 0.561000 2499397
-0.119570 -0.123860 0.563000 1580366
-0.119995 -0.121071 0.565000 3485771
-0.120208 -0.118051 0.566000 3552083
-0.120420 -0.115020 0.567000 3090504
-0.120632 -0.111977 0.568000 4144970
-0.120845 -0.108923 0.569000 4669006
-0.121057 -0.105857 0.570000 5394006
-0.121270 -0.102780 0.571000 4931929
-0.121694 -0.099866 0.573000 3817326
-0.121907 -0.096760 0.574000 4864096
-0.121907 -0.093480 0.574000 5186388
-0.122331 -0.090514 0.576000 2038075
-0.122756 -0.087526 0.578000 5000255
-0.122969 -0.084369 0.579000 6511175
-0.123181 -0.081200 0.580000 1775411
-0.123393 -0.078020 0.581000 4730963
-0.123606 -0.074829 0.582000 2498392
-0.123818 -0.071626 0.583000 5003280
-0.124243 -0.068529 0.585000 2629711
-0.124455 -0.065297 0.586000 5390163
-0.124455 -0.061949 0.586000 1512519
-0.124880 -0.058800 0.588000 3219538
-0.125092 -0.055534 0.589000 4742972
-0.125092 -0.052169 0.589000 2301516
-0.125730 -0.049051 0.592000 3677522
-0.125942 -0.045746 0.593000 2565458
-0.126367 -0.042500 0.595000 2499912
-0.126579 -0.039166 0.596000 2761288
-0.127004 -0.035880 0.598000 2237511
-0.127429 -0.032571 0.600000 1251132
-0.127853 -0.029240 0.602000 2294059
-0.127853 -0.025800 0.602000 4724765
-0.128490 -0.022471 0.605000 6567726
-0.116814 -0.144300 0.555000 6524831
-0.117025 -0.141383 0.556000 266070
-0.117235 -0.138454 0.557000 1645126
-0.117446 -0.135514 0.558000 1710919
-0.117656 -0.132563 0.559000 1579330
-0.117867 -0.129600 0.560000 1644353
-0.118288 -0.126851 0.562000 3090242
-0.118498 -0.123860 0.563000 1974601
-0.118919 -0.121071 0.565000 2890312
-0.118919 -0.117843 0.565000 1910091
-0.119340 -0.115020 0.567000 1709384
-0.119550 -0.111977 0.568000 3353417
-0.119761 -0.108923 0.569000 4664401
-0.119971 -0.105857 0.570000 5654356
-0.120182 -0.102780 0.571000 5389911
-0.120603 -0.099866 0.573000 4670052
-0.120813 -0.096760 0.574000 5653852
-0.121024 -0.093643 0.575000 4535381
-0.121445 -0.090671 0.577000 2891852
-0.121655 -0.087526 0.578000 4077639
-0.122076 -0.084514 0.580000 5987149
-0.122287 -0.081340 0.581000 1057599
-0.122287 -0.078020 0.581000 4922708
-0.122497 -0.074829 0.582000 1983561
-0.122918 -0.071749 0.584000 4937500
-0.123129 -0.068529 0.585000 2891088
-0.123339 -0.065297 0.586000 5657674
-0.123550 -0.062054 0.587000 1320772
-0.123760 -0.058800 0.588000 3609417
-0.123970 -0.055534 0.589000 6510410
-0.124181 -0.052257 0.590000 2301006
-0.124602 -0.049051 0.592000 5456449
-0.124812 -0.045746 0.593000 2698307
-0.125233 -0.042500 0.595000 2499657
-0.125444 -0.039166 0.596000 2826829
-0.125865 -0.035880 0.598000 2631244
-0.126075 -0.032517 0.599000 2302532
-0.126496 -0.029191 0.601000 2889785
-0.126707 -0.025800 0.602000 593457
-0.127128 -0.022434 0.604000 70708
-0.127549 -0.019046 0.606000 6752840
-0.127549 -0.015583 0.606000 11561049
-0.127549 -0.012120 0.606000 13742213
-0.115966 -0.144560 0.556000 7505846
-0.116174 -0.141637 0.557000 526179
-0.116174 -0.138454 0.557000 1973069
-0.116383 -0.135514 0.558000 2040140
-0.116591 -0.132563 0.559000 1645122
-0.117009 -0.129831 0.561000 1578558
-0.117217 -0.126851 0.562000 2498879
-0.117217 -0.123640 0.562000 2170436
-0.117843 -0.121071 0.565000 2631237
-0.118051 -0.118051 0.566000 1907268
-0.118051 -0.114817 0.566000 1579079
-0.118469 -0.111977 0.568000 2365000
-0.118677 -0.108923 0.569000 3548755
-0.118886 -0.105857 0.570000 3418707
-0.119094 -0.102780 0.571000 4470868
-0.119511 -0.099866 0.573000 4468059
-0.119720 -0.096760 0.574000 5259607
-0.119929 -0.093643 0.575000 4542039
-0.120346 -0.090671 0.577000 3420252
-0.120554 -0.087526 0.578000 4273999
-0.120971 -0.084514 0.580000 5455187
-0.121180 -0.081340 0.581000 1907019
-0.121389 -0.078154 0.582000 4204629
-0.121597 -0.074957 0.583000 5004603
-0.122014 -0.071871 0.585000 4473639
-0.122223 -0.068646 0.586000 3218769
-0.122223 -0.065297 0.586000 5854017
-0.122431 -0.062054 0.587000 1382978
-0.122849 -0.058900 0.589000 3811136
-0.122849 -0.055534 0.589000 5855065
-0.123057 -0.052257 0.590000 3549264
-0.123474 -0.049051 0.592000 6324016
-0.123683 -0.045746 0.593000 3884083
-0.124100 -0.042500 0.595000 2564426
-0.124309 -0.039166 0.596000 2827089
-0.124726 -0.035880 0.598000 2827601
-0.124934 -0.032517 0.599000 2434379
-0.125143 -0.029143 0.600000 2761288
-0.125560 -0.025800 0.602000 1646405
-0.125977 -0.022434 0.604000 1382201
-0.126394 -0.019046 0.606000 4000035
-0.126394 -0.015583 0.606000 5832975
-0.126394 -0.012120 0.606000 8347993
-0.126603 -0.008671 0.607000 11508876
-0.115113 -0.144820 0.557000 8421810
-0.115113 -0.141637 0.557000 725604
-0.115113 -0.138454 0.557000 2366033
-0.115320 -0.135514 0.558000 2304334
-0.115527 -0.132563 0.559000 1711684
-0.115940 -0.129831 0.561000 1513030
-0.116147 -0.126851 0.562000 1973826
-0.116353 -0.123860 0.563000 2301760
-0.116560 -0.120857 0.564000 2436681
-0.116767 -0.117843 0.565000 1907781
-0.116973 -0.114817 0.566000 1514053
-0.117387 -0.111977 0.568000 1381956
-0.117593 -0.108923 0.569000 2430539
-0.117800 -0.105857 0.570000 1187915
-0.118007 -0.102780 0.571000 3550284
-0.118420 -0.099866 0.573000 4275538
-0.118627 -0.096760 0.574000 4865366
-0.118833 -0.093643 0.575000 4538196
-0.119247 -0.090671 0.577000 3953503
-0.119453 -0.087526 0.578000 4469842
-0.119867 -0.084514 0.580000 4866913
-0.120073 -0.081340 0.581000 2697302
-0.120280 -0.078154 0.582000 3478872
-0.120487 -0.074957 0.583000 8017474
-0.120900 -0.071871 0.585000 4078908
-0.121107 -0.068646 0.586000 3485006
-0.121313 -0.065409 0.587000 5988431
-0.121520 -0.062160 0.588000 1451076
-0.121727 -0.058900 0.589000 4004940
-0.121727 -0.055534 0.589000 5196888
-0.122140 -0.052346 0.591000 4793684
-0.122347 -0.049051 0.592000 7100228
-0.122553 -0.045746 0.593000 5068355
-0.122967 -0.042500 0.595000 2563919
-0.123173 -0.039166 0.596000 2894397
-0.123587 -0.035880 0.598000 2959429
-0.123793 -0.032517 0.599000 2565708
-0.124000 -0.029143 0.600000 2565706
-0.124413 -0.025800 0.602000 2632517
-0.124827 -0.022434 0.604000 2696256
-0.125033 -0.019014 0.605000 1185589
-0.125240 -0.015583 0.606000 68394
-0.125240 -0.012120 0.606000 3014978
-0.125447 -0.008671 0.607000 9456981
-0.125860 -0.005220 0.609000 12490603
-0.126273 -0.001746 0.611000 13148307
-0.113848 -0.144560 0.556000 7235502
-0.114052 -0.141637 0.557000 990309
-0.114052 -0.138454 0.557000 2039893
-0.114257 -0.135514 0.558000 2240848
-0.114462 -0.132563 0.559000 1448005
-0.115076 -0.130063 0.562000 1447246
-0.115076 -0.126851 0.562000 1841989
-0.115281 -0.123860 0.563000 1776445
-0.115690 -0.121071 0.565000 2633037
-0.115690 -0.117843 0.565000 2039110
-0.115895 -0.114817 0.566000 1710659
-0.116305 -0.111977 0.568000 1644863
-0.116510 -0.108923 0.569000 2103618
-0.116714 -0.105857 0.570000 1513796
-0.116919 -0.102780 0.571000 3021891
-0.117329 -0.099866 0.573000 3882313
-0.117533 -0.096760 0.574000 4209237
-0.117738 -0.093643 0.575000 4403794
-0.118148 -0.090671 0.577000 4277090
-0.118352 -0.087526 0.578000 4472662
-0.118762 -0.084514 0.580000 5327727
-0.118967 -0.081340 0.581000 4148576
-0.119171 -0.078154 0.582000 3875674
-0.119376 -0.074957 0.583000 6043978
-0.119786 -0.071871 0.585000 3156560
-0.119990 -0.068646 0.586000 4280139
-0.120195 -0.065409 0.587000 7170397
-0.120195 -0.062054 0.587000 1843014
-0.120605 -0.058900 0.589000 4469079
-0.120810 -0.055629 0.590000 4276055
-0.121014 -0.052346 0.591000 4928088
-0.121424 -0.049134 0.593000 5125208
-0.121424 -0.045746 0.593000 4605522
-0.121833 -0.042500 0.595000 2434132
-0.122243 -0.039231 0.597000 5461801
-0.122448 -0.035880 0.598000 3419194
-0.122448 -0.032463 0.598000 2631756
-0.122857 -0.029143 0.600000 2631500
-0.123267 -0.025800 0.602000 2632260
-0.123471 -0.022397 0.603000 2762822
-0.123881 -0.019014 0.605000 2040647
-0.124086 -0.015583 0.606000 1187654
-0.124086 -0.012120 0.606000 2624555
-0.124086 -0.008657 0.606000 5046557
-0.124700 -0.005220 0.609000 6570539
-0.125110 -0.001746 0.611000 9994617
-0.112789 -0.144560 0.556000 5992618
-0.112991 -0.141637 0.557000 1260676
-0.113194 -0.138703 0.558000 1710967
-0.113397 -0.135757 0.559000 2174567
-0.113397 -0.132563 0.559000 1249879
-0.113803 -0.129831 0.561000 1382224
-0.114006 -0.126851 0.562000 1776711
-0.114209 -0.123860 0.563000 1186883
-0.114411 -0.120857 0.564000 2828868
-0.114614 -0.117843 0.565000 2105416
-0.115020 -0.115020 0.567000 1907011
-0.115223 -0.111977 0.568000 1841729
-0.115426 -0.108923 0.569000 1841729
-0.115629 -0.105857 0.570000 1841476
-0.115831 -0.102780 0.571000 2562628
-0.116237 -0.099866 0.573000 3485513
-0.116440 -0.096760 0.574000 3615058
-0.116643 -0.093643 0.575000 4206410
-0.117049 -0.090671 0.577000 4671314
-0.117251 -0.087526 0.578000 4404821
-0.117657 -0.084514 0.580000 5723231
-0.117860 -0.081340 0.581000 5590105
-0.118063 -0.078154 0.582000 4277337
-0.118266 -0.074957 0.583000 4077648
-0.118671 -0.071871 0.585000 2236496
-0.118874 -0.068646 0.586000 5062474
-0.119077 -0.065409 0.587000 8354391
-0.119077 -0.062054 0.587000 2240574
-0.119483 -0.058900 0.589000 4858454
-0.119686 -0.055629 0.590000 3357252
-0.120091 -0.052434 0.592000 5055320
-0.120294 -0.049134 0.593000 3160653
-0.120497 -0.045823 0.594000 4148562
-0.120903 -0.042571 0.596000 2302541
-0.120903 -0.039166 0.596000 8086324
-0.121309 -0.035880 0.598000 3883583
-0.121309 -0.032463 0.598000 2762574
-0.121714 -0.029143 0.600000 2697293
-0.122120 -0.025800 0.602000 2633033
-0.122323 -0.022397 0.603000 2763592
-0.122729 -0.019014 0.605000 2894411
-0.122931 -0.015583 0.606000 2237769
-0.122931 -0.012120 0.606000 2302523
-0.123134 -0.008671 0.607000 593457
-0.123946 -0.005237 0.611000 721213
-0.124351 -0.001751 0.613000 6763855
-0.124757 0.001757 0.615000 10381913
-0.111529 -0.144300 0.555000 8225701
-0.111930 -0.141637 0.557000 5533604
-0.112131 -0.138703 0.558000 4606616
-0.112332 -0.135757 0.559000 3353214
-0.112533 -0.132800 0.560000 2568809
-0.112935 -0.130063 0.562000 1250386
-0.112935 -0.126851 0.562000 1709897
-0.113136 -0.123860 0.563000 1512778
-0.113337 -0.120857 0.564000 2303034
-0.113538 -0.117843 0.565000 2041161
-0.113739 -0.114817 0.566000 1842243
-0.114141 -0.111977 0.568000 1841730
-0.114342 -0.108923 0.569000 1842240
-0.114543 -0.105857 0.570000 1907268
-0.114744 -0.102780 0.571000 2235205
-0.115347 -0.100040 0.574000 3087689
-0.115548 -0.096929 0.575000 3222094
-0.115548 -0.093643 0.575000 3614274
-0.115950 -0.090671 0.577000 4012097
-0.116150 -0.087526 0.578000 3943251
-0.116552 -0.084514 0.580000 5130318
-0.116753 -0.081340 0.581000 6179922
-0.116954 -0.078154 0.582000 4605271
-0.117155 -0.074957 0.583000 4410710
-0.117557 -0.071871 0.585000 2434895
-0.117758 -0.068646 0.586000 4337225
-0.117959 -0.065409 0.587000 5588817
-0.118160 -0.062160 0.588000 2500406
-0.118562 -0.059000 0.590000 4928596
-0.118763 -0.055723 0.591000 2759217
-0.118964 -0.052434 0.592000 5191767
-0.119165 -0.049134 0.593000 2761027
-0.119366 -0.045823 0.594000 3879250
-0.119768 -0.042571 0.596000 2431558
-0.119969 -0.039231 0.597000 7162687
-0.120170 -0.035880 0.598000 3951684
-0.120170 -0.032463 0.598000 2762576
-0.120772 -0.029191 0.601000 2828622
-0.120973 -0.025800 0.602000 2632781
-0.121375 -0.022434 0.604000 2829385
-0.121576 -0.019014 0.605000 3092047
-0.121777 -0.015583 0.606000 2501196
-0.121777 -0.012120 0.606000 2565707
-0.121978 -0.008671 0.607000 1712453
-0.122782 -0.005237 0.611000 1839694
-0.123184 -0.001751 0.613000 3801380
-0.123385 0.001754 0.614000 5384223
-0.110471 -0.144300 0.555000 10457266
-0.110870 -0.141637 0.557000 9800623
-0.111069 -0.138703 0.558000 7502505
-0.111268 -0.135757 0.559000 4545176
-0.111467 -0.132800 0.560000 3884425
-0.111865 -0.130063 0.562000 1060727
-0.112064 -0.127077 0.563000 1708388
-0.112064 -0.123860 0.563000 1776472
-0.112263 -0.120857 0.564000 1777222
-0.112462 -0.117843 0.565000 1974345
-0.112661 -0.114817 0.566000 1777227
-0.113059 -0.111977 0.568000 1841988
-0.113258 -0.108923 0.569000 1842243
-0.113457 -0.105857 0.570000 1973572
-0.113656 -0.102780 0.571000 1908037
-0.114253 -0.100040 0.574000 2694981
-0.114651 -0.097097 0.576000 2828617
-0.114651 -0.093806 0.576000 3023938
-0.114850 -0.090671 0.577000 3352894
-0.115249 -0.087677 0.579000 3484239
-0.115448 -0.084514 0.580000 4539474
-0.115647 -0.081340 0.581000 6703946
-0.115846 -0.078154 0.582000 4930901
-0.116045 -0.074957 0.583000 4671318
-0.116443 -0.071871 0.585000 2632273
-0.116642 -0.068646 0.586000 3550794
-0.117040 -0.065520 0.588000 2824015
-0.117239 -0.062266 0.589000 2762817
-0.117438 -0.059000 0.590000 4990796
-0.117637 -0.055723 0.591000 2173502
-0.117836 -0.052434 0.592000 5253717
-0.118035 -0.049134 0.593000 2312521
-0.118234 -0.045823 0.594000 3680342
-0.118632 -0.042571 0.596000 2566471
-0.118831 -0.039231 0.597000 6310482
-0.119030 -0.035880 0.598000 4014412
-0.119230 -0.032517 0.599000 2828623
-0.119628 -0.029191 0.601000 2894414
-0.119827 -0.025800 0.602000 2698061
-0.120026 -0.022397 0.603000 2895180
-0.120424 -0.019014 0.605000 3289941
-0.120623 -0.015583 0.606000 2763340
-0.120623 -0.012120 0.606000 2763338
-0.121021 -0.008686 0.608000 2762569
-0.121618 -0.005237 0.611000 2958924
-0.122016 -0.001751 0.613000 857142
-0.122215 0.001754 0.614000 460086
-0.122613 0.005280 0.616000 3022146
-0.123011 0.008829 0.618000 6833225
-0.110400 -0.136000 0.560000 7570610
-0.110597 -0.133037 0.561000 6713256
-0.110991 -0.130294 0.563000 4279708
-0.110991 -0.127077 0.563000 2568574
-0.110991 -0.123860 0.563000 1448551
-0.111189 -0.120857 0.564000 1317714
-0.111386 -0.117843 0.565000 1448264
-0.111583 -0.114817 0.566000 1908050
-0.111780 -0.111780 0.567000 2038343
-0.112174 -0.108923 0.569000 1908037
-0.112371 -0.105857 0.570000 1580356
-0.112569 -0.102780 0.571000 1842500
-0.112963 -0.099866 0.573000 2367041
-0.113357 -0.096929 0.575000 2631235
-0.113554 -0.093806 0.576000 2695235
-0.113751 -0.090671 0.577000 2827835
-0.114146 -0.087677 0.579000 3222091
-0.114343 -0.084514 0.580000 3746133
-0.114540 -0.081340 0.581000 5067330
-0.114737 -0.078154 0.582000 4667475
-0.114934 -0.074957 0.583000 5526615
-0.115329 -0.071871 0.585000 2697042
-0.115526 -0.068646 0.586000 3354955
-0.115920 -0.065520 0.588000 2761804
-0.116117 -0.062266 0.589000 2697548
-0.116314 -0.059000 0.590000 3614788
-0.116511 -0.055723 0.591000 2236747
-0.116709 -0.052434 0.592000 4928083
-0.116906 -0.049134 0.593000 5466959
-0.117103 -0.045823 0.594000 3551577
-0.117300 -0.042500 0.595000 4144200
-0.117694 -0.039231 0.597000 6249060
-0.117891 -0.035880 0.598000 3944276
-0.118089 -0.032517 0.599000 2960462
-0.118680 -0.029240 0.602000 2960462
-0.118680 -0.025800 0.602000 2763853
-0.118877 -0.022397 0.603000 3091536
-0.119271 -0.019014 0.605000 3751002
-0.119469 -0.015583 0.606000 2828364
-0.119469 -0.012120 0.606000 2828873
-0.119863 -0.008686 0.608000 2763085
-0.120454 -0.005237 0.611000 2893897
-0.120849 -0.001751 0.613000 1778247
-0.121046 0.001754 0.614000 1448781
-0.121243 0.005271 0.615000 2886979
-0.121637 0.008814 0.617000 4005675
-0.121834 0.012360 0.618000 5454650
-0.109333 -0.136000 0.560000 10590393
-0.109724 -0.133274 0.562000 9540275
-0.109724 -0.130063 0.562000 7435947
-0.109919 -0.127077 0.563000 3494805
-0.109919 -0.123860 0.563000 1063045
-0.110114 -0.120857 0.564000 857713
-0.110310 -0.117843 0.565000 925795
-0.110505 -0.114817 0.566000 2040151
-0.110895 -0.111977 0.568000 2235467
-0.111090 -0.108923 0.569000 2039365
-0.111286 -0.105857 0.570000 1121868
-0.111481 -0.102780 0.571000 1712201
-0.112067 -0.100040 0.574000 1973824
-0.112262 -0.096929 0.575000 2434630
-0.112457 -0.093806 0.576000 2368324
-0.112652 -0.090671 0.577000 2368322
-0.113043 -0.087677 0.579000 2895440
-0.113238 -0.084514 0.580000 2956877
-0.113433 -0.081340 0.581000 3355202
-0.113629 -0.078154 0.582000 4468561
-0.113824 -0.074957 0.583000 6309204
-0.114214 -0.071871 0.585000 2761296
-0.114410 -0.068646 0.586000 3157577
-0.114800 -0.065520 0.588000 2763343
-0.114995 -0.062266 0.589000 2566987
-0.115386 -0.059100 0.591000 2174025
-0.115386 -0.055723 0.591000 2238028
-0.115581 -0.052434 0.592000 4596046
-0.115776 -0.049134 0.593000 8543056
-0.116167 -0.045900 0.595000 3483476
-0.116362 -0.042571 0.596000 5654081
-0.116557 -0.039231 0.597000 6247760
-0.116752 -0.035880 0.598000 3812945
-0.117143 -0.032571 0.600000 3092045
-0.117533 -0.029240 0.602000 2960717
-0.117729 -0.025843 0.603000 2829391
-0.117924 -0.022434 0.604000 3222864
-0.118119 -0.019014 0.605000 4211287
-0.118314 -0.015583 0.606000 2894669
-0.118314 -0.012120 0.606000 2894156
-0.118705 -0.008686 0.608000 2763340
-0.119290 -0.005237 0.611000 2894410
-0.119681 -0.001751 0.613000 2697034
-0.119876 0.001754 0.614000 2501197
-0.120071 0.005271 0.615000 2695238
-0.120462 0.008814 0.617000 1187130
-0.120657 0.012360 0.618000 1974074
-0.120852 0.015917 0.619000 5191749
-0.121438 0.019549 0.622000 8146768
-0.121829 0.023177 0.624000 8942420
-0.108653 -0.133274 0.562000 10525886
-0.108653 -0.130063 0.562000 9345466
-0.108847 -0.127077 0.563000 7044011
-0.108847 -0.123860 0.563000 5400739
-0.109040 -0.120857 0.564000 3949968
-0.109233 -0.117843 0.565000 3620478
-0.109620 -0.115020 0.567000 1581915
-0.109813 -0.111977 0.568000 1710671
-0.110007 -0.108923 0.569000 1645125
-0.110200 -0.105857 0.570000 1711700
-0.110393 -0.102780 0.571000 2105422
-0.110973 -0.100040 0.574000 2432063
-0.111167 -0.096929 0.575000 2698057
-0.111360 -0.093806 0.576000 2434374
-0.111747 -0.090829 0.578000 2959945
-0.111940 -0.087677 0.579000 3224661
-0.112327 -0.084660 0.581000 2631236
-0.112327 -0.081340 0.581000 3089473
-0.112520 -0.078154 0.582000 3418190
-0.112713 -0.074957 0.583000 4139346
-0.113100 -0.071871 0.585000 2762062
-0.113487 -0.068763 0.587000 3025480
-0.113680 -0.065520 0.588000 2895186
-0.114067 -0.062371 0.590000 2763851
-0.114260 -0.059100 0.591000 2566990
-0.114260 -0.055723 0.591000 2633038
-0.114647 -0.052523 0.593000 3548745
-0.114840 -0.049217 0.594000 5190226
-0.115033 -0.045900 0.595000 3024718
-0.115227 -0.042571 0.596000 4673083
-0.115420 -0.039231 0.597000 6905147
-0.115613 -0.035880 0.598000 3419471
-0.116000 -0.032571 0.600000 3092044
-0.116387 -0.029240 0.602000 3092045
-0.116387 -0.025800 0.602000 3157841
-0.116773 -0.022434 0.604000 3091793
-0.116967 -0.019014 0.605000 3880531
-0.117160 -0.015583 0.606000 2960463
-0.117353 -0.012140 0.607000 2894415
-0.117547 -0.008686 0.608000 2894924
-0.118127 -0.005237 0.611000 2894410
-0.118513 -0.001751 0.613000 2828621
-0.118707 0.001754 0.614000 2632269
-0.118900 0.005271 0.615000 2762825
-0.119093 0.008800 0.616000 1975624
-0.119480 0.012360 0.618000 2368059
-0.119673 0.015917 0.619000 3677238
-0.120253 0.019549 0.622000 4791859
-0.120640 0.023177 0.624000 6309945
-0.121027 0.026829 0.626000 7626078
-0.121413 0.030503 0.628000 8612199
-0.107774 -0.127077 0.563000 10591417
-0.107966 -0.120857 0.564000 7042729
-0.108157 -0.117843 0.565000 6251166
-0.108731 -0.115223 0.568000 1127036
-0.108731 -0.111977 0.568000 1188207
-0.108923 -0.108923 0.569000 1250399
-0.109306 -0.106043 0.571000 2236504
-0.109689 -0.103140 0.573000 2499153
-0.109880 -0.100040 0.574000 2826310
-0.110071 -0.096929 0.575000 2962255
-0.110454 -0.093969 0.577000 2434378
-0.110646 -0.090829 0.578000 3615561
-0.110837 -0.087677 0.579000 3485520
-0.111220 -0.084660 0.581000 2304582
-0.111220 -0.081340 0.581000 2762564
-0.111411 -0.078154 0.582000 2368587
-0.111794 -0.075086 0.584000 1975630
-0.111986 -0.071871 0.585000 2763346
-0.112369 -0.068763 0.587000 2828363
-0.112560 -0.065520 0.588000 2960464
-0.112943 -0.062371 0.590000 2894669
-0.113134 -0.059100 0.591000 2960464
-0.113326 -0.055817 0.592000 2960462
-0.113517 -0.052523 0.593000 2436171
-0.113709 -0.049217 0.594000 1779791
-0.113900 -0.045900 0.595000 2566478
-0.114091 -0.042571 0.596000 3684932
-0.114283 -0.039231 0.597000 7628360
-0.114666 -0.035940 0.599000 3028303
-0.114857 -0.032571 0.600000 3091790
-0.115240 -0.029240 0.602000 3158094
-0.115431 -0.025843 0.603000 3486542
-0.115814 -0.022471 0.605000 2961745
-0.115814 -0.019014 0.605000 3485780
-0.116006 -0.015583 0.606000 3026256
-0.116389 -0.012160 0.608000 2960207
-0.116580 -0.008700 0.609000 2960205
-0.116963 -0.005237 0.611000 2894157
-0.117346 -0.001751 0.613000 2959695
-0.117537 0.001754 0.614000 2828622
-0.117729 0.005271 0.615000 2763082
-0.117920 0.008800 0.616000 2763337
-0.118303 0.012360 0.618000 2697023
-0.118494 0.015917 0.619000 2170175
-0.119069 0.019549 0.622000 1448250
-0.119451 0.023177 0.624000 3609922
-0.119643 0.026786 0.625000 6373195
-0.120026 0.030454 0.627000 8481108
-0.120217 0.034091 0.628000 8938845
-0.106891 -0.120857 0.564000 9344193
-0.107081 -0.117843 0.565000 8621501
-0.107650 -0.115223 0.568000 5268637
-0.107650 -0.111977 0.568000 3621519
-0.107839 -0.108923 0.569000 2830712
-0.108218 -0.106043 0.571000 2039132
-0.108408 -0.102960 0.572000 2105428
-0.108787 -0.100040 0.574000 3088972
-0.108787 -0.096760 0.574000 3159380
-0.109355 -0.093969 0.577000 2105935
-0.109545 -0.090829 0.578000 3024200
-0.109734 -0.087677 0.579000 3615819
-0.110113 -0.084660 0.581000 2566728
-0.110113 -0.081340 0.581000 2828616
-0.110303 -0.078154 0.582000 2565960
-0.110682 -0.075086 0.584000 2369099
-0.111061 -0.071994 0.586000 3026261
-0.111250 -0.068763 0.587000 2696270
-0.111440 -0.065520 0.588000 3025742
-0.111819 -0.062371 0.590000 2894414
-0.112198 -0.059200 0.592000 2960466
-0.112388 -0.055911 0.593000 3091535
-0.112388 -0.052523 0.593000 2764365
-0.112577 -0.049217 0.594000 2502477
-0.112767 -0.045900 0.595000 2698317
-0.113146 -0.042643 0.597000 3416653
-0.113335 -0.039297 0.598000 4800085
-0.113525 -0.035940 0.599000 3025743
-0.113714 -0.032571 0.600000 2960719
-0.114093 -0.029240 0.602000 3223376
-0.114283 -0.025843 0.603000 3880778
-0.114472 -0.022434 0.604000 3224145
-0.114662 -0.019014 0.605000 3617621
-0.114851 -0.015583 0.606000 3223633
-0.115230 -0.012160 0.608000 3091791
-0.115420 -0.008700 0.609000 2960462
-0.115799 -0.005237 0.611000 2959952
-0.116178 -0.001751 0.613000 2959696
-0.116368 0.001754 0.614000 2894414
-0.116557 0.005271 0.615000 2959947
-0.116936 0.008814 0.617000 2829130
-0.117126 0.012360 0.618000 2829380
-0.117315 0.015917 0.619000 2434119
-0.117884 0.019549 0.622000 2105665
-0.118073 0.023140 0.623000 3021131
-0.118452 0.026786 0.625000 3870007
-0.118831 0.030454 0.627000 5388609
-0.119021 0.034091 0.628000 7032920
-0.119590 0.037860 0.631000 8085604
-0.119969 0.041597 0.633000 8611690
-0.106568 -0.115223 0.568000 9409203
-0.106568 -0.111977 0.568000 5992358
-0.106755 -0.108923 0.569000 4476053
-0.107130 -0.106043 0.571000 1782398
-0.107506 -0.103140 0.573000 1776497
-0.107693 -0.100040 0.574000 3356262
-0.107881 -0.096929 0.575000 3422301
-0.108256 -0.093969 0.577000 1714000
-0.108444 -0.090829 0.578000 2499911
-0.108631 -0.087677 0.579000 3683150
-0.109007 -0.084660 0.581000 2828620
-0.109007 -0.081340 0.581000 2893382
-0.109194 -0.078154 0.582000 2763081
-0.109570 -0.075086 0.584000 2697289
-0.109945 -0.071994 0.586000 3354959
-0.110320 -0.068880 0.588000 2500685
-0.110320 -0.065520 0.588000 3091022
-0.110695 -0.062371 0.590000 2894414
-0.110883 -0.059100 0.591000 2959952
-0.111070 -0.055817 0.592000 3156815
-0.111258 -0.052523 0.593000 3092302
-0.111446 -0.049217 0.594000 3157837
-0.111633 -0.045900 0.595000 2895949
-0.112009 -0.042643 0.597000 3156559
-0.112196 -0.039297 0.598000 2041683
-0.112384 -0.035940 0.599000 2960720
-0.112759 -0.032626 0.601000 2829135
-0.112947 -0.029240 0.602000 3223119
-0.113134 -0.025843 0.603000 4340813
-0.113322 -0.022434 0.604000 3486799
-0.113510 -0.019014 0.605000 3814741
-0.113697 -0.015583 0.606000 3355734
-0.114072 -0.012160 0.608000 3223377
-0.114635 -0.008729 0.611000 2960976
-0.114823 -0.005246 0.612000 3025999
-0.115010 -0.001751 0.613000 2960209
-0.115198 0.001754 0.614000 2960206
-0.115386 0.005271 0.615000 3091020
-0.115573 0.008800 0.616000 2829388
-0.115949 0.012360 0.618000 2894664
-0.116136 0.015917 0.619000 2762573
-0.116699 0.019549 0.622000 2696519
-0.116887 0.023140 0.623000 2499659
-0.117262 0.026786 0.625000 1383231
-0.117637 0.030454 0.627000 2298179
-0.117825 0.034091 0.628000 5125448
-0.118012 0.037740 0.629000 7492687
-0.118763 0.041597 0.633000 8741457
-0.119138 0.045357 0.635000 8873308
-0.105671 -0.108923 0.569000 7370930
-0.106043 -0.106043 0.571000 5463201
-0.106414 -0.103140 0.573000 4081294
-0.106600 -0.100040 0.574000 4413568
-0.106786 -0.096929 0.575000 3357029
-0.107157 -0.093969 0.577000 1910610
-0.107343 -0.090829 0.578000 2498886
-0.107714 -0.087829 0.580000 3949650
-0.107900 -0.084660 0.581000 3025999
-0.107900 -0.081340 0.581000 3219525
-0.108086 -0.078154 0.582000 2828873
-0.108457 -0.075086 0.584000 2762824
-0.108829 -0.071994 0.586000 3157576
-0.109200 -0.068880 0.588000 2763341
-0.109200 -0.065520 0.588000 3025742
-0.109571 -0.062371 0.590000 3025486
-0.109943 -0.059200 0.592000 3025742
-0.110129 -0.055911 0.593000 3091023
-0.110314 -0.052611 0.594000 3157582
-0.110314 -0.049217 0.594000 3158094
-0.110500 -0.045900 0.595000 3288653
-0.110871 -0.042643 0.597000 3484754
-0.111057 -0.039297 0.598000 2895953
-0.111429 -0.036000 0.600000 3420497
-0.111614 -0.032626 0.601000 3026254
-0.111800 -0.029240 0.602000 3287887
-0.111986 -0.025843 0.603000 4341839
-0.112357 -0.022471 0.605000 3813965
-0.112357 -0.019014 0.605000 4669268
-0.112543 -0.015583 0.606000 3815514
-0.113100 -0.012180 0.609000 3550802
-0.113471 -0.008729 0.611000 3354707
-0.113657 -0.005246 0.612000 3157838
-0.113843 -0.001751 0.613000 3026002
-0.114029 0.001754 0.614000 3025742
-0.114214 0.005271 0.615000 2828878
-0.114400 0.008800 0.616000 2894670
-0.114771 0.012360 0.618000 2828876
-0.114957 0.015917 0.619000 2958930
-0.115143 0.019486 0.620000 3154510
-0.115700 0.023140 0.623000 2762571
-0.115886 0.026743 0.624000 2041159
-0.116257 0.030406 0.626000 2563396
-0.116629 0.034091 0.628000 3412536
-0.117186 0.037860 0.631000 4467513
-0.117557 0.041597 0.633000 5982009
-0.117743 0.045286 0.634000 7493980
-0.118114 0.049063 0.636000 8415589
-0.104955 -0.106043 0.571000 9078706
-0.105507 -0.103320 0.574000 6452641
-0.105690 -0.100214 0.575000 5464982
-0.105690 -0.096929 0.575000 3360131
-0.106242 -0.094131 0.578000 2109296
-0.106242 -0.090829 0.578000 2562656
-0.106426 -0.087677 0.579000 4210518
-0.106793 -0.084660 0.581000 3222097
-0.106977 -0.081480 0.582000 3550018
-0.107161 -0.078289 0.583000 2829383
-0.107345 -0.075086 0.584000 2763082
-0.107712 -0.071994 0.586000 3026507
-0.108080 -0.068880 0.588000 3025997
-0.108264 -0.065631 0.589000 3026507
-0.108448 -0.062371 0.590000 3091533
-0.108815 -0.059200 0.592000 3025998
-0.108999 -0.055911 0.593000 3026255
-0.109183 -0.052611 0.594000 3223118
-0.109367 -0.049300 0.595000 3092558
-0.109550 -0.045977 0.596000 3681357
-0.109918 -0.042714 0.598000 3748178
-0.110102 -0.039363 0.599000 3749459
-0.110286 -0.036000 0.600000 3815248
-0.110470 -0.032626 0.601000 3289422
-0.110653 -0.029240 0.602000 3354704
-0.110837 -0.025843 0.603000 4407634
-0.111205 -0.022471 0.605000 4143185
-0.111389 -0.019046 0.606000 5586514
-0.111572 -0.015609 0.607000 4209753
-0.111940 -0.012180 0.609000 3877969
-0.112308 -0.008729 0.611000 3683158
-0.112491 -0.005246 0.612000 3355215
-0.112675 -0.001751 0.613000 3026512
-0.113043 0.001757 0.615000 3091022
-0.113043 0.005271 0.615000 2567245
-0.113410 0.008814 0.617000 3025744
-0.113594 0.012360 0.618000 2762831
-0.113778 0.015917 0.619000 3221332
-0.114330 0.019549 0.622000 3616080
-0.114513 0.023140 0.623000 3090513
-0.114697 0.026743 0.624000 2697547
-0.115065 0.030406 0.626000 2828359
-0.115432 0.034091 0.628000 1711168
-0.115984 0.037860 0.631000 1514817
-0.116351 0.041597 0.633000 3221309
-0.116351 0.045214 0.633000 6179657
-0.116719 0.048986 0.635000 8279376
-0.116903 0.052697 0.636000 8874836
-0.117270 0.056509 0.638000 8742498
-0.104413 -0.103320 0.574000 9081524
-0.104595 -0.100214 0.575000 7700140
-0.104777 -0.097097 0.576000 6121377
-0.105141 -0.094131 0.578000 4477327
-0.105141 -0.090829 0.578000 3553657
-0.105323 -0.087677 0.579000 3816538
-0.105687 -0.084660 0.581000 2893650
-0.105869 -0.081480 0.582000 3686719
-0.106050 -0.078289 0.583000 2763076
-0.106414 -0.075214 0.585000 2894412
-0.106778 -0.072117 0.587000 3092045
-0.106960 -0.068880 0.588000 3287885
-0.107142 -0.065631 0.589000 3223624
-0.107324 -0.062371 0.590000 3157836
-0.107506 -0.059100 0.591000 3223629
-0.107870 -0.055911 0.593000 3158095
-0.108051 -0.052611 0.594000 3354446
-0.108233 -0.049300 0.595000 3223374
-0.108415 -0.045977 0.596000 4143436
-0.108779 -0.042714 0.598000 4404819
-0.108961 -0.039363 0.599000 4274261
-0.109143 -0.036000 0.600000 4342863
-0.109325 -0.032626 0.601000 3486542
-0.109507 -0.029240 0.602000 3486033
-0.109689 -0.025843 0.603000 4275285
-0.110052 -0.022471 0.605000 4603477
-0.110234 -0.019046 0.606000 5062224
-0.110416 -0.015609 0.607000 3551831
-0.110780 -0.012180 0.609000 4536144
-0.111144 -0.008729 0.611000 4077145
-0.111326 -0.005246 0.612000 3355215
-0.111690 -0.001754 0.614000 3158095
-0.111871 0.001757 0.615000 3288654
-0.111871 0.005271 0.615000 2895437
-0.112235 0.008814 0.617000 3026257
-0.112417 0.012360 0.618000 2762322
-0.112599 0.015917 0.619000 4077910
-0.112781 0.019486 0.620000 4147026
-0.113327 0.023140 0.623000 3484247
-0.113509 0.026743 0.624000 2828879
-0.113872 0.030406 0.626000 2894410
-0.114236 0.034091 0.628000 2238281
-0.114782 0.037860 0.631000 1975368
-0.115146 0.041597 0.633000 3086146
-0.115146 0.045214 0.633000 4006709
-0.115510 0.048986 0.635000 5122875
-0.115691 0.052697 0.636000 6638654
-0.116055 0.056509 0.638000 7824990
-0.103860 -0.093969 0.577000 6780580
-0.104040 -0.090829 0.578000 4544915
-0.104400 -0.087829 0.580000 3360637
-0.104580 -0.084660 0.581000 2630770
-0.104760 -0.081480 0.582000 3754851
-0.104940 -0.078289 0.583000 2762589
-0.105120 -0.075086 0.584000 2960206
-0.105660 -0.072117 0.587000 3223370
-0.105840 -0.068880 0.588000 3550797
-0.106020 -0.065631 0.589000 3486542
-0.106200 -0.062371 0.590000 3224398
-0.106380 -0.059100 0.591000 3421004
-0.106740 -0.055911 0.593000 3289422
-0.106920 -0.052611 0.594000 3419983
-0.107100 -0.049300 0.595000 3289168
-0.107460 -0.046054 0.597000 4603215
-0.107640 -0.042714 0.598000 4999767
-0.107820 -0.039363 0.599000 4864596
-0.108000 -0.036000 0.600000 4802896
-0.108180 -0.032626 0.601000 3749458
-0.108360 -0.029240 0.602000 3617875
-0.108540 -0.025843 0.603000 4210765
-0.108900 -0.022471 0.605000 5064278
-0.109080 -0.019046 0.606000 4537425
-0.109440 -0.015634 0.608000 2896465
-0.109980 -0.012220 0.611000 5258319
-0.109980 -0.008729 0.611000 4406614
-0.110160 -0.005246 0.612000 3355473
-0.110520 -0.001754 0.614000 3223887
-0.110700 0.001757 0.615000 3485518
-0.110880 0.005280 0.616000 3158093
-0.111060 0.008814 0.617000 3092304
-0.111240 0.012360 0.618000 2697810
-0.111420 0.015917 0.619000 4935266
-0.111960 0.019549 0.622000 4670550
-0.112140 0.023140 0.623000 3944533
-0.112320 0.026743 0.624000 2960463
-0.112500 0.030357 0.625000 2894924
-0.112860 0.034037 0.627000 2763082
-0.113580 0.037860 0.631000 2500937
-0.113760 0.041531 0.632000 2957636
-0.113940 0.045214 0.633000 1841470
-0.114300 0.048986 0.635000 1974596
-0.114480 0.052697 0.636000 4399676
-0.114840 0.056509 0.638000 6899019
-0.102761 -0.093969 0.577000 9083320
-0.102939 -0.090829 0.578000 7306668
-0.103117 -0.087677 0.579000 6054047
-0.103473 -0.084660 0.581000 5065874
-0.103651 -0.081480 0.582000 5991304
-0.103830 -0.078289 0.583000 3883126
-0.104186 -0.075214 0.585000 2566480
-0.104364 -0.071994 0.586000 2762311
-0.104720 -0.068880 0.588000 3813196
-0.104898 -0.065631 0.589000 3420499
-0.105076 -0.062371 0.590000 3487056
-0.105254 -0.059100 0.591000 3617867
-0.105610 -0.055911 0.593000 3551821
-0.105789 -0.052611 0.594000 3552080
-0.105967 -0.049300 0.595000 3485522
-0.106323 -0.046054 0.597000 4669009
-0.106501 -0.042714 0.598000 5396570
-0.106679 -0.039363 0.599000 4998738
-0.107035 -0.036060 0.601000 5132370
-0.107035 -0.032626 0.601000 4077910
-0.107213 -0.029240 0.602000 3749462
-0.107570 -0.025886 0.604000 5328965
-0.107748 -0.022471 0.605000 5065815
-0.107926 -0.019046 0.606000 4472402
-0.108282 -0.015634 0.608000 3355468
-0.108816 -0.012220 0.611000 4799565
-0.108816 -0.008729 0.611000 4274771
-0.109172 -0.005254 0.613000 3158610
-0.109350 -0.001754 0.614000 3223888
-0.109529 0.001757 0.615000 3354702
-0.109707 0.005280 0.616000 3354701
-0.109885 0.008814 0.617000 3092815
-0.110063 0.012360 0.618000 2960467
-0.110419 0.015943 0.620000 5329262
-0.110775 0.019549 0.622000 4996955
-0.110953 0.023140 0.623000 4736338
-0.111131 0.026743 0.624000 3025488
-0.111488 0.030406 0.626000 2894670
-0.111666 0.034037 0.627000 2828620
-0.112022 0.037740 0.629000 2632265
-0.112556 0.041531 0.632000 2893638
-0.112556 0.045143 0.632000 2237255
-0.113090 0.048986 0.635000 2369100
-0.113269 0.052697 0.636000 3480890
-0.113625 0.056509 0.638000 4460857
-0.102014 -0.087677 0.579000 8750253
-0.102367 -0.084660 0.581000 7500197
-0.102543 -0.081480 0.582000 8159386
-0.102719 -0.078289 0.583000 5005965
-0.102895 -0.075086 0.584000 2176109
-0.103424 -0.072117 0.587000 2234214
-0.103776 -0.068997 0.589000 4077399
-0.103776 -0.065631 0.589000 3353938
-0.103952 -0.062371 0.590000 3683405
-0.104129 -0.059100 0.591000 3749707
-0.104481 -0.055911 0.593000 3814480
-0.104657 -0.052611 0.594000 3618386
-0.104657 -0.049217 0.594000 3618129
-0.105186 -0.046054 0.597000 4732242
-0.105362 -0.042714 0.598000 5723222
-0.105538 -0.039363 0.599000 5129040
-0.105890 -0.036060 0.601000 5393750
-0.105890 -0.032626 0.601000 4407123
-0.106067 -0.029240 0.602000 3816022
-0.106419 -0.025886 0.604000 6446669
-0.106595 -0.022471 0.605000 5064790
-0.106771 -0.019046 0.606000 4340562
-0.107124 -0.015634 0.608000 3749710
-0.107300 -0.012180 0.609000 4340304
-0.107652 -0.008729 0.611000 4080465
-0.108005 -0.005254 0.613000 2961747
-0.108181 -0.001754 0.614000 3223633
-0.108357 0.001757 0.615000 3223376
-0.108533 0.005280 0.616000 3485773
-0.108710 0.008814 0.617000 3158607
-0.109062 0.012380 0.619000 3158098
-0.109238 0.015943 0.620000 5723238
-0.109590 0.019549 0.622000 5260635
-0.109767 0.023140 0.623000 5592929
-0.109943 0.026743 0.624000 3091026
-0.110295 0.030406 0.626000 2894926
-0.110471 0.034037 0.627000 2894157
-0.110824 0.037740 0.629000 2828617
-0.111352 0.041531 0.632000 2763336
-0.111352 0.045143 0.632000 2631498
-0.111705 0.048909 0.634000 2762827
-0.112057 0.052697 0.636000 2630982
-0.112410 0.056509 0.638000 1973315
-0.101434 -0.084806 0.582000 9079224
-0.101609 -0.081620 0.583000 9278637
-0.101609 -0.078289 0.583000 7306660
-0.101783 -0.075086 0.584000 4738443
-0.102131 -0.071994 0.586000 4871557
-0.102480 -0.068880 0.588000 4541538
-0.102654 -0.065631 0.589000 4013648
-0.102829 -0.062371 0.590000 3290443
-0.103003 -0.059100 0.591000 3683146
-0.103351 -0.055911 0.593000 4076115
