# .PCD v.7 - Point Cloud Data file format
VERSION .7
FIELDS x y z rgb
SIZE 4 4 4 4
TYPE F F F I
COUNT 1 1 1 1
WIDTH 1312
HEIGHT 1
POINTS 1312
DATA ascii
-0.142790 -0.003038 0.638000 7564365
-0.141671 0.000603 0.633000 5523298
-0.140776 0.004193 0.629000 2568575
-0.140105 0.007750 0.626000 3028348
-0.139210 0.011255 0.622000 3028604
-0.137867 0.014667 0.616000 2963839
-0.136971 0.018069 0.612000 3094911
-0.135629 0.021354 0.606000 3818622
-0.134957 0.024694 0.603000 4082055
-0.134062 0.027953 0.599000 3553924
-0.132943 0.031114 0.594000 4608384
-0.132495 0.034392 0.592000 3882631
-0.131376 0.037456 0.587000 3753602
-0.130705 0.040602 0.584000 3557516
-0.129138 0.043412 0.577000 3029631
-0.128914 0.046629 0.576000 3160706
-0.128243 0.049660 0.573000 3095429
-0.126676 0.052288 0.566000 2899072
-0.126229 0.055326 0.564000 2898049
-0.125333 0.058133 0.560000 2833283
-0.124662 0.061005 0.557000 2964354
-0.123767 0.063727 0.553000 3095427
-0.122871 0.066403 0.549000 3227265
-0.122424 0.069287 0.547000 2438519
-0.122424 0.072412 0.547000 8417373
-0.122871 0.075814 0.549000 10519688
-0.123543 0.079383 0.552000 10782862
-0.160881 -0.069738 0.725000 8748686
-0.159106 -0.064871 0.717000 8094100
-0.157774 -0.060266 0.711000 7632777
-0.156887 -0.055887 0.707000 7894927
-0.155999 -0.051553 0.703000 5658762
-0.154224 -0.046995 0.695000 4804996
-0.153114 -0.042714 0.690000 4278657
-0.152227 -0.038547 0.686000 3752833
-0.150673 -0.034273 0.679000 3488895
-0.149564 -0.030170 0.674000 3291775
-0.148454 -0.026123 0.669000 3160190
-0.146901 -0.022067 0.662000 3094142
-0.146013 -0.018173 0.658000 2570618
-0.144904 -0.014304 0.653000 205960
-0.144238 -0.010524 0.650000 197268
-0.142907 -0.006747 0.644000 1584765
-0.141575 -0.003038 0.638000 1901927
-0.140466 0.000603 0.633000 928114
-0.139578 0.004193 0.629000 2962560
-0.138912 0.007750 0.626000 2962814
-0.138025 0.011255 0.622000 3028605
-0.136915 0.014690 0.617000 2963840
-0.136028 0.018098 0.613000 3226239
-0.134474 0.021354 0.606000 4278399
-0.133809 0.024694 0.603000 4739971
-0.132921 0.027953 0.599000 3619716
-0.132033 0.031167 0.595000 4738432
-0.131590 0.034450 0.593000 3883909
-0.130258 0.037456 0.587000 3818369
-0.129592 0.040602 0.584000 3819911
-0.128261 0.043488 0.578000 3029376
-0.127817 0.046629 0.576000 3291777
-0.127373 0.049747 0.574000 3095427
-0.125820 0.052380 0.567000 3030145
-0.125154 0.055326 0.564000 2898049
-0.124489 0.058237 0.561000 2636674
-0.123601 0.061005 0.557000 2899073
-0.122491 0.063611 0.552000 3095427
-0.121826 0.066403 0.549000 3227265
-0.121382 0.069287 0.547000 2241399
-0.121382 0.072412 0.547000 8549724
-0.122270 0.076090 0.551000 10520200
-0.122713 0.079527 0.553000 10782867
-0.158400 -0.069257 0.720000 9470353
-0.158180 -0.065052 0.719000 9742225
-0.156420 -0.060266 0.711000 8421761
-0.155540 -0.055887 0.707000 8490385
-0.154660 -0.051553 0.703000 5659018
-0.153340 -0.047130 0.697000 4805252
-0.151800 -0.042714 0.690000 4344192
-0.150920 -0.038547 0.686000 3752577
-0.149380 -0.034273 0.679000 3423871
-0.148280 -0.030170 0.674000 3291775
-0.147180 -0.026123 0.669000 3160191
-0.145860 -0.022100 0.663000 3094143
-0.145200 -0.018229 0.660000 3355509
-0.143660 -0.014304 0.653000 3152772
-0.143000 -0.010524 0.650000 4011921
-0.141680 -0.006747 0.644000 2044288
-0.140360 -0.003038 0.638000 2433921
-0.139480 0.000604 0.634000 2110081
-0.138380 0.004193 0.629000 2897537
-0.137500 0.007738 0.625000 3093888
-0.136840 0.011255 0.622000 3028349
-0.135740 0.014690 0.617000 2898048
-0.134860 0.018098 0.613000 3160703
-0.133320 0.021354 0.606000 3949439
-0.132660 0.024694 0.603000 3949438
-0.131780 0.027953 0.599000 3618948
-0.130680 0.031114 0.594000 4278911
-0.130460 0.034450 0.593000 3685507
-0.129360 0.037520 0.588000 3685760
-0.128700 0.040671 0.585000 4673409
-0.127160 0.043488 0.578000 3094913
-0.126720 0.046629 0.576000 3160960
-0.126060 0.049660 0.573000 3095424
-0.124740 0.052380 0.567000 2899074
-0.124080 0.055326 0.564000 2833025
-0.123420 0.058237 0.561000 2701442
-0.122760 0.061114 0.558000 2898815
-0.121660 0.063727 0.553000 3095426
-0.120780 0.066403 0.549000 3161473
-0.120340 0.069287 0.547000 2109559
-0.120340 0.072412 0.547000 8745307
-0.121220 0.076090 0.551000 10519689
-0.121660 0.079527 0.553000 10782872
-0.157029 -0.069257 0.720000 10255252
-0.156810 -0.065052 0.719000 11375759
-0.155066 -0.060266 0.711000 9211784
-0.154193 -0.055887 0.707000 9075853
-0.153539 -0.051627 0.704000 5658763
-0.151576 -0.046995 0.695000 4739204
-0.150486 -0.042714 0.690000 4409216
-0.149613 -0.038547 0.686000 3686785
-0.148087 -0.034273 0.679000 3358846
-0.146996 -0.030170 0.674000 3292030
-0.145906 -0.026123 0.669000 3160190
-0.144597 -0.022100 0.663000 3094399
-0.143507 -0.018173 0.658000 4142713
-0.142416 -0.014304 0.653000 6118554
-0.141762 -0.010524 0.650000 7903669
-0.140671 -0.006757 0.645000 2439301
-0.139145 -0.003038 0.638000 2963075
-0.138272 0.000604 0.634000 3224959
-0.137182 0.004193 0.629000 2832512
-0.136310 0.007738 0.625000 3225216
-0.135655 0.011255 0.622000 3028606
-0.134565 0.014690 0.617000 2766975
-0.133474 0.018069 0.612000 3095422
-0.132384 0.021390 0.607000 3620991
-0.131511 0.024694 0.603000 3225983
-0.130639 0.027953 0.599000 3555460
-0.129549 0.031114 0.594000 3818369
-0.129330 0.034450 0.593000 3489922
-0.128458 0.037584 0.589000 3619969
-0.127368 0.040602 0.584000 5460355
-0.126277 0.043563 0.579000 3225474
-0.125841 0.046710 0.577000 3029889
-0.124969 0.049660 0.573000 3095426
-0.123660 0.052380 0.567000 2767747
-0.123006 0.055326 0.564000 2833281
-0.122351 0.058237 0.561000 2701954
-0.121697 0.061114 0.558000 2898816
-0.120607 0.063727 0.553000 3029890
-0.119952 0.066524 0.550000 3161474
-0.119516 0.069413 0.548000 1912952
-0.119516 0.072545 0.548000 8945248
-0.120170 0.076090 0.551000 10519947
-0.120825 0.079670 0.554000 10782612
-0.155441 -0.065052 0.719000 9536397
-0.153711 -0.060266 0.711000 8551822
-0.152847 -0.055887 0.707000 8286601
-0.152198 -0.051627 0.704000 5856651
-0.150252 -0.046995 0.695000 4738949
-0.148955 -0.042652 0.689000 4343935
-0.147874 -0.038434 0.684000 3686786
-0.146793 -0.034273 0.679000 3358333
-0.145712 -0.030170 0.674000 3161725
-0.144631 -0.026123 0.669000 3160189
-0.143334 -0.022100 0.663000 3160190
-0.142686 -0.018229 0.660000 4276605
-0.140956 -0.014282 0.652000 6065585
-0.140091 -0.010491 0.648000 6916312
-0.139443 -0.006757 0.645000 1516426
-0.137930 -0.003038 0.638000 2175109
-0.137065 0.000604 0.634000 2438526
-0.136416 0.004207 0.631000 2832511
-0.135119 0.007738 0.625000 3093889
-0.134470 0.011255 0.622000 2963327
-0.133606 0.014714 0.618000 2832510
-0.132525 0.018098 0.613000 3029885
-0.131011 0.021354 0.606000 3292543
-0.130579 0.024735 0.604000 3226240
-0.129498 0.027953 0.599000 3886213
-0.128417 0.031114 0.594000 4016002
-0.127985 0.034392 0.592000 3556225
-0.127120 0.037520 0.588000 3753090
-0.126471 0.040671 0.585000 4806277
-0.125174 0.043563 0.579000 3095170
-0.124742 0.046710 0.577000 3029891
-0.123877 0.049660 0.573000 3029892
-0.122796 0.052472 0.568000 2899075
-0.121931 0.055326 0.564000 2833281
-0.121283 0.058237 0.561000 2833026
-0.120634 0.061114 0.558000 2898816
-0.119553 0.063727 0.553000 3029633
-0.118689 0.066403 0.549000 3095682
-0.118472 0.069413 0.548000 1912440
-0.118256 0.072412 0.547000 9074021
-0.119337 0.076229 0.552000 10585228
-0.119986 0.079814 0.555000 10782608
-0.154071 -0.065052 0.719000 7633548
-0.152786 -0.060435 0.713000 7894671
-0.151500 -0.055887 0.707000 7433864
-0.150857 -0.051627 0.704000 6054534
-0.148929 -0.046995 0.695000 4672900
-0.147643 -0.042652 0.689000 4343681
-0.146571 -0.038434 0.684000 3687044
-0.145500 -0.034273 0.679000 3357565
-0.144429 -0.030170 0.674000 3029885
-0.143357 -0.026123 0.669000 3225981
-0.142500 -0.022167 0.665000 3225726
-0.141429 -0.018229 0.660000 4404604
-0.139714 -0.014282 0.652000 5984400
-0.138857 -0.010491 0.648000 5927077
-0.138000 -0.006747 0.644000 594048
-0.136929 -0.003043 0.639000 1383809
-0.135857 0.000604 0.634000 1585532
-0.135214 0.004207 0.631000 2832511
-0.134143 0.007750 0.626000 2898048
-0.132857 0.011219 0.620000 2898048
-0.132429 0.014714 0.618000 2898301
-0.131357 0.018098 0.613000 3029630
-0.130071 0.021390 0.607000 2898560
-0.129429 0.024735 0.604000 3226241
-0.128571 0.028000 0.600000 4213895
-0.127929 0.031271 0.597000 4212356
-0.126857 0.034392 0.592000 3622277
-0.126000 0.037520 0.588000 3949953
-0.125143 0.040602 0.584000 4083077
-0.124071 0.043563 0.579000 2964354
-0.123643 0.046710 0.577000 3029891
-0.122786 0.049660 0.573000 2964099
-0.121500 0.052380 0.567000 3029635
-0.120857 0.055326 0.564000 2833282
-0.120214 0.058237 0.561000 2964098
-0.119786 0.061224 0.559000 2964097
-0.118714 0.063842 0.554000 2964097
-0.117857 0.066524 0.550000 3029889
-0.117429 0.069413 0.548000 1912436
-0.117643 0.072677 0.549000 9207912
-0.118286 0.076229 0.552000 10585484
-0.118929 0.079814 0.555000 10848144
-0.152702 -0.065052 0.719000 7565708
-0.151003 -0.060266 0.711000 7829648
-0.150153 -0.055887 0.707000 7234696
-0.149304 -0.051553 0.703000 5988736
-0.148030 -0.047130 0.697000 4607364
-0.146330 -0.042652 0.689000 4671618
-0.145269 -0.038434 0.684000 3949703
-0.144419 -0.034324 0.680000 3292028
-0.143145 -0.030170 0.674000 3160702
-0.142083 -0.026123 0.669000 3291261
-0.141233 -0.022167 0.665000 3225981
-0.140171 -0.018229 0.660000 3355003
-0.138472 -0.014282 0.652000 5636463
-0.137623 -0.010491 0.648000 5194610
-0.136773 -0.006747 0.644000 4063606
-0.135711 -0.003043 0.639000 4535676
-0.134650 0.000604 0.634000 4602490
-0.134012 0.004207 0.631000 2700415
-0.132950 0.007750 0.626000 2898048
-0.131676 0.011219 0.620000 2898049
-0.131039 0.014690 0.617000 3029117
-0.130402 0.018128 0.614000 2964095
-0.128915 0.021390 0.607000 2832769
-0.128278 0.024735 0.604000 3160450
-0.127429 0.028000 0.600000 4739210
-0.126791 0.031271 0.597000 3950469
-0.125730 0.034392 0.592000 3555976
-0.124880 0.037520 0.588000 3555968
-0.123818 0.040532 0.583000 3752325
-0.122969 0.043563 0.579000 2964354
-0.122544 0.046710 0.577000 3029636
-0.121482 0.049573 0.572000 2964354
-0.120420 0.052380 0.567000 3029634
-0.119995 0.055424 0.565000 2898563
-0.119146 0.058237 0.561000 3029634
-0.118721 0.061224 0.559000 2963841
-0.117659 0.063842 0.554000 2963585
-0.116810 0.066524 0.550000 3029888
-0.116385 0.069413 0.548000 1714544
-0.116597 0.072677 0.549000 9270890
-0.117234 0.076229 0.552000 10651020
-0.117659 0.079670 0.554000 10848399
-0.151332 -0.065052 0.719000 7435146
-0.150070 -0.060435 0.713000 7762570
-0.148807 -0.055887 0.707000 6973580
-0.147544 -0.051407 0.701000 5990527
-0.146281 -0.046995 0.695000 4475779
-0.145018 -0.042652 0.689000 4998530
-0.143966 -0.038434 0.684000 4212356
-0.143124 -0.034324 0.680000 3292028
-0.141861 -0.030170 0.674000 3226237
-0.140809 -0.026123 0.669000 3356541
-0.139967 -0.022167 0.665000 3225981
-0.138914 -0.018229 0.660000 2306942
-0.137230 -0.014282 0.652000 5328267
-0.136178 -0.010475 0.647000 4481421
-0.135547 -0.006747 0.644000 7561348
-0.134494 -0.003043 0.639000 7768701
-0.133442 0.000604 0.634000 7567240
-0.132390 0.004193 0.629000 2567550
-0.131758 0.007750 0.626000 2897792
-0.130495 0.011219 0.620000 2832768
-0.129864 0.014690 0.617000 3094398
-0.129022 0.018098 0.613000 2964096
-0.127970 0.021425 0.608000 2767235
-0.127128 0.024735 0.604000 3160707
-0.126286 0.028000 0.600000 5262981
-0.125654 0.031271 0.597000 3686020
-0.124602 0.034392 0.592000 3489669
-0.123970 0.037584 0.589000 3227778
-0.122708 0.040532 0.583000 3423108
-0.122076 0.043638 0.580000 3029378
-0.121234 0.046629 0.576000 3029633
-0.120392 0.049573 0.572000 3029890
-0.119340 0.052380 0.567000 3029635
-0.118919 0.055424 0.565000 2963585
-0.118077 0.058237 0.561000 3029634
-0.117656 0.061224 0.559000 2963584
-0.116604 0.063842 0.554000 2964099
-0.115762 0.066524 0.550000 3095423
-0.115341 0.069413 0.548000 1453172
-0.115551 0.072677 0.549000 9405037
-0.116183 0.076229 0.552000 10716812
-0.116604 0.079670 0.554000 10848400
-0.149963 -0.065052 0.719000 8090761
-0.148711 -0.060435 0.713000 8027012
-0.147460 -0.055887 0.707000 6578064
-0.146209 -0.051407 0.701000 5725309
-0.144957 -0.046995 0.695000 4410499
-0.143914 -0.042714 0.690000 4605313
-0.142663 -0.038434 0.684000 3948416
-0.141829 -0.034324 0.680000 3357308
-0.140160 -0.030080 0.672000 3226237
-0.139534 -0.026123 0.669000 3291517
-0.138700 -0.022167 0.665000 3160188
-0.137657 -0.018229 0.660000 2307200
-0.135989 -0.014282 0.652000 7312296
-0.134946 -0.010475 0.647000 6451623
-0.134320 -0.006747 0.644000 9813906
-0.133277 -0.003043 0.639000 9809533
-0.132234 0.000604 0.634000 9022102
-0.131191 0.004193 0.629000 2240124
-0.130357 0.007738 0.625000 2963840
-0.129314 0.011219 0.620000 2897791
-0.128689 0.014690 0.617000 3094144
-0.127854 0.018098 0.613000 2964097
-0.126603 0.021390 0.607000 2898821
-0.125769 0.024694 0.603000 3160452
-0.125143 0.028000 0.600000 4476289
-0.124517 0.031271 0.597000 3423619
-0.123474 0.034392 0.592000 3357570
-0.122849 0.037584 0.589000 3293572
-0.121597 0.040532 0.583000 3029123
-0.120971 0.043638 0.580000 3029634
-0.120137 0.046629 0.576000 3029887
-0.119303 0.049573 0.572000 3029890
-0.118260 0.052380 0.567000 3029380
-0.117843 0.055424 0.565000 2963838
-0.117009 0.058237 0.561000 2964098
-0.116383 0.061114 0.558000 2964095
-0.115549 0.063842 0.554000 3029892
-0.114923 0.066645 0.551000 3030142
-0.114297 0.069413 0.548000 1452152
-0.114506 0.072677 0.549000 9468272
-0.115131 0.076229 0.552000 10782604
-0.115757 0.079814 0.555000 10914448
-0.148593 -0.065052 0.719000 8682125
-0.147353 -0.060435 0.713000 8225669
-0.146113 -0.055887 0.707000 6119310
-0.145287 -0.051553 0.703000 5526913
-0.144047 -0.047130 0.697000 4344963
-0.142393 -0.042652 0.689000 4211585
-0.141360 -0.038434 0.684000 3686015
-0.140533 -0.034324 0.680000 3422844
-0.139293 -0.030170 0.674000 3225980
-0.138260 -0.026123 0.669000 3225982
-0.137020 -0.022100 0.663000 3094653
-0.136400 -0.018229 0.660000 2308225
-0.134747 -0.014282 0.652000 9271710
-0.133920 -0.010491 0.648000 8416939
-0.133093 -0.006747 0.644000 12029830
-0.132060 -0.003043 0.639000 11902850
-0.131233 0.000605 0.635000 10455938
-0.130407 0.004207 0.631000 1913212
-0.129167 0.007738 0.625000 2963583
-0.128133 0.011219 0.620000 3028609
-0.127307 0.014667 0.616000 3094400
-0.126893 0.018128 0.614000 2963841
-0.125653 0.021425 0.608000 3029636
-0.124827 0.024735 0.604000 3160195
-0.124207 0.028047 0.601000 3622016
-0.123380 0.031271 0.597000 3225730
-0.122347 0.034392 0.592000 3225986
-0.121727 0.037584 0.589000 3426184
-0.120693 0.040602 0.584000 2636418
-0.119867 0.043638 0.580000 3029378
-0.119040 0.046629 0.576000 3029632
-0.118213 0.049573 0.572000 3029891
-0.117180 0.052380 0.567000 3029379
-0.116767 0.055424 0.565000 2963584
-0.116147 0.058341 0.562000 2898561
-0.115320 0.061114 0.558000 2964095
-0.114700 0.063957 0.555000 3095426
-0.113667 0.066524 0.550000 3029632
-0.113253 0.069413 0.548000 1387893
-0.113253 0.072545 0.548000 9601914
-0.114080 0.076229 0.552000 10782859
-0.114700 0.079814 0.555000 10914705
-0.147429 -0.065143 0.720000 8811921
-0.145586 -0.060266 0.711000 8093318
-0.144767 -0.055887 0.707000 6054541
-0.143538 -0.051407 0.701000 5395588
-0.142719 -0.047130 0.697000 4279428
-0.141286 -0.042714 0.690000 4015232
-0.140467 -0.038547 0.686000 3620990
-0.139648 -0.034425 0.682000 3357563
-0.138010 -0.030170 0.674000 3422843
-0.137190 -0.026162 0.670000 3160446
-0.136167 -0.022167 0.665000 3160191
-0.135143 -0.018229 0.660000 2438529
-0.133710 -0.014304 0.653000 8811412
-0.132686 -0.010491 0.648000 8945583
-0.131867 -0.006747 0.644000 9986171
-0.130843 -0.003043 0.639000 9855367
-0.130024 0.000605 0.635000 10128239
-0.129205 0.004207 0.631000 2044028
-0.128181 0.007750 0.626000 3028862
-0.126748 0.011201 0.619000 3094147
-0.126133 0.014667 0.616000 3029377
-0.125724 0.018128 0.614000 3029121
-0.124290 0.021390 0.607000 3094915
-0.123471 0.024694 0.603000 3226242
-0.123062 0.028047 0.601000 3489919
-0.121833 0.031167 0.595000 3094912
-0.121219 0.034392 0.592000 3356289
-0.120605 0.037584 0.589000 3952523
-0.119581 0.040602 0.584000 2832769
-0.118762 0.043638 0.580000 3029633
-0.117943 0.046629 0.576000 3095169
-0.117124 0.049573 0.572000 2964355
-0.116100 0.052380 0.567000 3029633
-0.115690 0.055424 0.565000 3029633
-0.114871 0.058237 0.561000 2963841
-0.114257 0.061114 0.558000 2963839
-0.113643 0.063957 0.555000 3095169
-0.112414 0.066403 0.549000 3095426
-0.112210 0.069413 0.548000 1386355
-0.112210 0.072545 0.548000 9665668
-0.112824 0.076090 0.551000 10782858
-0.113643 0.079814 0.555000 10914961
-0.146057 -0.065143 0.720000 8948881
-0.144637 -0.060435 0.713000 7961743
-0.143420 -0.055887 0.707000 5988236
-0.142203 -0.051407 0.701000 5264260
-0.141391 -0.047130 0.697000 4213379
-0.139769 -0.042652 0.689000 3883903
-0.138754 -0.038434 0.684000 3554942
-0.137943 -0.034324 0.680000 3226493
-0.136726 -0.030170 0.674000 3554172
-0.135711 -0.026123 0.669000 3160702
-0.134494 -0.022100 0.663000 3225981
-0.133886 -0.018229 0.660000 2635646
-0.132466 -0.014304 0.653000 8277128
-0.131451 -0.010491 0.648000 9413818
-0.130640 -0.006747 0.644000 7959671
-0.129626 -0.003043 0.639000 7833213
-0.128814 0.000605 0.635000 9796213
-0.128003 0.004207 0.631000 2240129
-0.127191 0.007763 0.627000 3094399
-0.125771 0.011219 0.620000 3225217
-0.124960 0.014667 0.616000 2898048
-0.124554 0.018128 0.614000 3028865
-0.123134 0.021390 0.607000 3095940
-0.122526 0.024735 0.604000 3292036
-0.121917 0.028047 0.601000 3292288
-0.120700 0.031167 0.595000 3029377
-0.120091 0.034392 0.592000 3487872
-0.119686 0.037648 0.590000 4479366
-0.118266 0.040532 0.583000 2964096
-0.117860 0.043713 0.581000 3029889
-0.116846 0.046629 0.576000 3095682
-0.115831 0.049487 0.571000 2898819
-0.114817 0.052288 0.566000 2964354
-0.114614 0.055424 0.565000 3029634
-0.113803 0.058237 0.561000 2964098
-0.112991 0.061005 0.557000 2963839
-0.112180 0.063727 0.553000 3029887
-0.111571 0.066524 0.550000 3095683
-0.111166 0.069413 0.548000 1387890
-0.111166 0.072545 0.548000 9797247
-0.111774 0.076090 0.551000 10717581
-0.112586 0.079814 0.555000 10914707
-0.144686 -0.065143 0.720000 9481106
-0.143279 -0.060435 0.713000 7631255
-0.142274 -0.055966 0.708000 5660812
-0.140868 -0.051407 0.701000 5067396
-0.140064 -0.047130 0.697000 4213122
-0.138657 -0.042714 0.690000 3818110
-0.137451 -0.038434 0.684000 3554686
-0.137050 -0.034425 0.682000 3226494
-0.135442 -0.030170 0.674000 3357566
-0.134638 -0.026162 0.670000 3095166
-0.133231 -0.022100 0.663000 3225724
-0.132629 -0.018229 0.660000 2372731
-0.131222 -0.014304 0.653000 4393341
-0.130217 -0.010491 0.648000 5926597
-0.129614 -0.006757 0.645000 9938546
-0.128409 -0.003043 0.639000 9868914
-0.127605 0.000605 0.635000 9871483
-0.126801 0.004207 0.631000 2109061
-0.125997 0.007763 0.627000 3094144
-0.124590 0.011219 0.620000 3094654
-0.123787 0.014667 0.616000 2963584
-0.123184 0.018098 0.613000 3159937
-0.122179 0.021425 0.608000 3490694
-0.121375 0.024735 0.604000 3753093
-0.120772 0.028047 0.601000 3160706
-0.120170 0.031324 0.598000 2963841
-0.118763 0.034334 0.591000 3225471
-0.118361 0.037584 0.589000 3818369
-0.117155 0.040532 0.583000 2964096
-0.116552 0.043638 0.580000 3095681
-0.115548 0.046548 0.575000 3030660
-0.114744 0.049487 0.571000 3029890
-0.113940 0.052380 0.567000 3029634
-0.113538 0.055424 0.565000 2963843
-0.112734 0.058237 0.561000 2963843
-0.111930 0.061005 0.557000 2964095
-0.111127 0.063727 0.553000 3029886
-0.110524 0.066524 0.550000 3095683
-0.110122 0.069413 0.548000 1517169
-0.110122 0.072545 0.548000 9862522
-0.110524 0.075952 0.550000 10717329
-0.111529 0.079814 0.555000 10914709
-0.143314 -0.065143 0.720000 10001549
-0.142120 -0.060520 0.714000 7299738
-0.140926 -0.055966 0.708000 5332873
-0.139532 -0.051407 0.701000 4935813
-0.138338 -0.046995 0.695000 4212866
-0.137343 -0.042714 0.690000 3751806
-0.136149 -0.038434 0.684000 3488896
-0.135750 -0.034425 0.682000 3226496
-0.134158 -0.030170 0.674000 3095424
-0.133362 -0.026162 0.670000 3095167
-0.131969 -0.022100 0.663000 3160445
-0.131371 -0.018229 0.660000 2176893
-0.129978 -0.014304 0.653000 467847
-0.129381 -0.010524 0.650000 2511528
-0.128386 -0.006757 0.645000 11896443
-0.127390 -0.003048 0.640000 11906147
-0.126395 0.000605 0.635000 9928561
-0.125798 0.004213 0.632000 2044548
-0.124803 0.007763 0.627000 3094144
-0.123210 0.011201 0.619000 3029375
-0.122414 0.014643 0.615000 2963840
-0.121817 0.018069 0.612000 3225217
-0.120822 0.021390 0.607000 3884676
-0.120026 0.024694 0.603000 4146053
-0.119628 0.028047 0.601000 2963841
-0.118831 0.031271 0.597000 2898562
-0.117637 0.034334 0.591000 2964096
-0.117239 0.037584 0.589000 3225216
-0.116045 0.040532 0.583000 2964097
-0.115448 0.043638 0.580000 3161988
-0.114651 0.046629 0.576000 2964870
-0.113855 0.049573 0.572000 3160708
-0.112860 0.052380 0.567000 3095427
-0.112462 0.055424 0.565000 2897795
-0.111666 0.058237 0.561000 2964099
-0.110870 0.061005 0.557000 2964097
-0.110073 0.063727 0.553000 3029887
-0.109476 0.066524 0.550000 3095427
-0.109078 0.069413 0.548000 1650801
-0.109078 0.072545 0.548000 9995393
-0.109675 0.076090 0.551000 10717584
-0.110471 0.079814 0.555000 10914708
-0.141943 -0.065143 0.720000 9736585
-0.140760 -0.060520 0.714000 7831453
-0.139577 -0.055966 0.708000 5595014
-0.138789 -0.051627 0.704000 5001605
-0.137409 -0.047130 0.697000 4147329
-0.136029 -0.042714 0.690000 3752062
-0.134846 -0.038434 0.684000 3423106
-0.134057 -0.034324 0.680000 3227009
-0.132874 -0.030170 0.674000 3095426
-0.132086 -0.026162 0.670000 3160191
-0.130706 -0.022100 0.663000 3225725
-0.129720 -0.018173 0.658000 3355775
-0.128537 -0.014282 0.652000 5135762
-0.127749 -0.010491 0.648000 4866698
-0.126960 -0.006747 0.644000 8748675
-0.125777 -0.003038 0.638000 9404755
-0.124989 0.000604 0.634000 5991015
-0.124594 0.004213 0.632000 2568322
-0.123609 0.007763 0.627000 3094144
-0.122031 0.011201 0.619000 2963839
-0.121243 0.014643 0.615000 2963839
-0.120454 0.018039 0.611000 3291777
-0.119469 0.021354 0.606000 4016258
-0.118877 0.024694 0.603000 3817093
-0.118483 0.028047 0.601000 2963585
-0.117891 0.031324 0.598000 2964098
-0.116511 0.034334 0.591000 3029633
-0.116117 0.037584 0.589000 3094911
-0.115131 0.040602 0.584000 3029634
-0.114343 0.043638 0.580000 3950470
-0.113554 0.046629 0.576000 3292808
-0.112766 0.049573 0.572000 3161221
-0.111780 0.052380 0.567000 3160964
-0.111386 0.055424 0.565000 2898307
-0.110597 0.058237 0.561000 2898818
-0.110006 0.061114 0.558000 2964098
-0.109217 0.063842 0.554000 3029887
-0.108626 0.066645 0.551000 3095426
-0.108034 0.069413 0.548000 1845617
-0.108034 0.072545 0.548000 9994119
-0.108823 0.076229 0.552000 10783118
-0.109414 0.079814 0.555000 10914706
-0.140571 -0.065143 0.720000 9407885
-0.139205 -0.060435 0.713000 8363664
-0.138619 -0.056124 0.710000 5790854
-0.137252 -0.051553 0.703000 5066886
-0.136081 -0.047130 0.697000 4081793
-0.134129 -0.042529 0.687000 3752062
-0.133348 -0.038378 0.683000 3292031
-0.132567 -0.034273 0.679000 3226750
-0.131200 -0.030080 0.672000 3029888
-0.130614 -0.026123 0.669000 3225727
-0.129248 -0.022067 0.662000 3225981
-0.128857 -0.018229 0.660000 4601982
-0.127295 -0.014282 0.652000 9736360
-0.126905 -0.010524 0.650000 7249066
-0.125929 -0.006757 0.645000 5525632
-0.124562 -0.003038 0.638000 6893411
-0.123781 0.000604 0.634000 1982832
-0.123195 0.004207 0.631000 3028354
-0.122414 0.007763 0.627000 3094400
-0.121048 0.011219 0.620000 2963583
-0.120071 0.014643 0.615000 2898304
-0.119290 0.018039 0.611000 3358338
-0.118510 0.021390 0.607000 4148611
-0.117729 0.024694 0.603000 3553414
-0.117338 0.028047 0.601000 2964099
-0.116752 0.031324 0.598000 3029892
-0.115386 0.034334 0.591000 3029633
-0.114800 0.037520 0.588000 2964096
-0.114019 0.040602 0.584000 3029889
-0.113238 0.043638 0.580000 4801670
-0.112457 0.046629 0.576000 3555973
-0.111676 0.049573 0.572000 3226757
-0.110700 0.052380 0.567000 3226500
-0.110114 0.055326 0.564000 2964356
-0.109529 0.058237 0.561000 2767492
-0.108943 0.061114 0.558000 2964098
-0.108162 0.063842 0.554000 2964096
-0.107576 0.066645 0.551000 3095426
-0.106990 0.069413 0.548000 1978737
-0.107186 0.072677 0.549000 10060679
-0.107771 0.076229 0.552000 10783117
-0.108357 0.079814 0.555000 10914705
-0.139007 -0.065052 0.719000 9933456
-0.137847 -0.060435 0.713000 8095362
-0.136687 -0.055887 0.707000 5725575
-0.135913 -0.051553 0.703000 5001606
-0.134367 -0.046995 0.695000 4147329
-0.133207 -0.042652 0.689000 3686782
-0.132047 -0.038378 0.683000 3357309
-0.131273 -0.034273 0.679000 3160955
-0.130307 -0.030170 0.674000 3029887
-0.129340 -0.026123 0.669000 3094655
-0.128180 -0.022100 0.663000 3225981
-0.127600 -0.018229 0.660000 4146300
-0.126053 -0.014282 0.652000 9546175
-0.125280 -0.010491 0.648000 7049674
-0.124507 -0.006747 0.644000 3350141
-0.123347 -0.003038 0.638000 4532083
-0.122573 0.000604 0.634000 2634873
-0.121993 0.004207 0.631000 3093889
-0.121027 0.007750 0.626000 3159936
-0.119867 0.011219 0.620000 3029375
-0.118900 0.014643 0.615000 2963585
-0.118127 0.018039 0.611000 3555203
-0.117353 0.021390 0.607000 4543620
-0.116580 0.024694 0.603000 3884935
-0.116193 0.028047 0.601000 3161222
-0.115227 0.031219 0.596000 3030405
-0.114260 0.034334 0.591000 3029889
-0.113680 0.037520 0.588000 2964097
-0.112907 0.040602 0.584000 3160961
-0.112133 0.043638 0.580000 4211333
-0.111167 0.046548 0.575000 3357570
-0.110587 0.049573 0.572000 3095941
-0.109813 0.052472 0.568000 3095173
-0.109040 0.055326 0.564000 2898820
-0.108460 0.058237 0.561000 2898309
-0.107880 0.061114 0.558000 2898561
-0.106913 0.063727 0.553000 2898306
-0.106333 0.066524 0.550000 3030402
-0.105947 0.069413 0.548000 1844337
-0.106140 0.072677 0.549000 10125703
-0.106913 0.076367 0.553000 10782861
-0.107300 0.079814 0.555000 10914960
-0.137637 -0.065052 0.719000 10459033
-0.136489 -0.060435 0.713000 7895939
-0.135531 -0.055966 0.708000 5659785
-0.134191 -0.051407 0.701000 4870022
-0.133426 -0.047130 0.697000 4146817
-0.131894 -0.042652 0.689000 3686270
-0.130746 -0.038378 0.683000 3357821
-0.129980 -0.034273 0.679000 3160956
-0.128640 -0.030080 0.672000 3029887
-0.128066 -0.026123 0.669000 3028863
-0.126917 -0.022100 0.663000 3225726
-0.126343 -0.018229 0.660000 3683708
-0.124811 -0.014282 0.652000 9330583
-0.124046 -0.010491 0.648000 6844061
-0.123471 -0.006757 0.645000 1189504
-0.122323 -0.003043 0.639000 2174842
-0.121366 0.000604 0.634000 3224699
-0.120791 0.004207 0.631000 3159936
-0.120026 0.007763 0.627000 3160192
-0.119069 0.011255 0.622000 3094400
-0.118111 0.014690 0.617000 3029634
-0.116963 0.018039 0.611000 3685764
-0.116197 0.021390 0.607000 4936069
-0.115431 0.024694 0.603000 4281998
-0.114857 0.028000 0.600000 3359366
-0.114283 0.031271 0.597000 2965124
-0.113134 0.034334 0.591000 3029633
-0.112369 0.037456 0.587000 2963842
-0.111794 0.040602 0.584000 3227010
-0.111029 0.043638 0.580000 3621767
-0.110071 0.046548 0.575000 3095428
-0.109497 0.049573 0.572000 2899589
-0.108540 0.052380 0.567000 2899333
-0.108157 0.055424 0.565000 2833283
-0.107391 0.058237 0.561000 3029636
-0.106817 0.061114 0.558000 2898307
-0.106051 0.063842 0.554000 2767746
-0.105477 0.066645 0.551000 3030402
-0.105094 0.069540 0.549000 1716591
-0.105286 0.072810 0.550000 10192009
-0.105860 0.076367 0.553000 10783118
-0.106243 0.079814 0.555000 10914960
-0.136268 -0.065052 0.719000 10328737
-0.135130 -0.060435 0.713000 7828612
-0.134183 -0.055966 0.708000 5594507
-0.133235 -0.051553 0.703000 4804741
-0.132098 -0.047130 0.697000 4014977
-0.130582 -0.042652 0.689000 3686526
-0.129634 -0.038434 0.684000 3423358
-0.128687 -0.034273 0.679000 3225981
-0.127360 -0.030080 0.672000 3161215
-0.126791 -0.026123 0.669000 3094399
-0.126033 -0.022167 0.665000 3225726
-0.125086 -0.018229 0.660000 2893436
-0.123570 -0.014282 0.652000 4718959
-0.122811 -0.010491 0.648000 4145776
-0.122243 -0.006757 0.645000 2174852
-0.121106 -0.003043 0.639000 2634881
-0.120158 0.000604 0.634000 3094654
-0.119779 0.004213 0.632000 3159935
-0.118642 0.007750 0.626000 3095168
-0.117884 0.011255 0.622000 3160193
-0.116936 0.014690 0.617000 3226499
-0.115989 0.018069 0.612000 3423620
-0.115041 0.021390 0.607000 4672901
-0.114283 0.024694 0.603000 4675477
-0.113714 0.028000 0.600000 3819399
-0.113146 0.031271 0.597000 3228035
-0.112009 0.034334 0.591000 3029633
-0.111250 0.037456 0.587000 3095171
-0.110682 0.040602 0.584000 3489667
-0.110113 0.043713 0.581000 3949961
-0.108976 0.046548 0.575000 3161223
-0.108408 0.049573 0.572000 2964869
-0.107460 0.052380 0.567000 2964870
-0.107081 0.055424 0.565000 2833538
-0.106323 0.058237 0.561000 3095427
-0.105754 0.061114 0.558000 2898564
-0.104996 0.063842 0.554000 2833794
-0.104428 0.066645 0.551000 2899074
-0.103859 0.069413 0.548000 1908334
-0.104238 0.072810 0.550000 10322570
-0.104807 0.076367 0.553000 10782863
-0.105186 0.079814 0.555000 10914704
-0.134898 -0.065052 0.719000 10127514
-0.133772 -0.060435 0.713000 7827592
-0.132647 -0.055887 0.707000 5528203
-0.131896 -0.051553 0.703000 4673155
-0.130770 -0.047130 0.697000 3883647
-0.129457 -0.042714 0.690000 3686784
-0.128144 -0.038378 0.683000 3423357
-0.127581 -0.034324 0.680000 3225725
-0.126080 -0.030080 0.672000 3226238
-0.125517 -0.026123 0.669000 3160189
-0.124767 -0.022167 0.665000 3225726
-0.124016 -0.018256 0.661000 2175616
-0.122328 -0.014282 0.652000 80765
-0.121577 -0.010491 0.648000 1395843
-0.121014 -0.006757 0.645000 3092093
-0.120076 -0.003048 0.640000 3159674
-0.118950 0.000604 0.634000 2963325
-0.118575 0.004213 0.632000 3159680
-0.117450 0.007750 0.626000 2963841
-0.116324 0.011219 0.620000 3225217
-0.115761 0.014690 0.617000 3358599
-0.114823 0.018069 0.612000 3095942
-0.113697 0.021354 0.606000 4410500
-0.113134 0.024694 0.603000 5004427
-0.112571 0.028000 0.600000 4278918
-0.112009 0.031271 0.597000 3490437
-0.111070 0.034392 0.592000 2964098
-0.110132 0.037456 0.587000 3226501
-0.109570 0.040602 0.584000 3687299
-0.109007 0.043713 0.581000 4278407
-0.107881 0.046548 0.575000 3160968
-0.107318 0.049573 0.572000 3030150
-0.106380 0.052380 0.567000 2965125
-0.106005 0.055424 0.565000 2833537
-0.105254 0.058237 0.561000 3160964
-0.104691 0.061114 0.558000 2899075
-0.103941 0.063842 0.554000 2833539
-0.103378 0.066645 0.551000 2833283
-0.103003 0.069540 0.549000 2109805
-0.103378 0.072942 0.551000 10454155
-0.103941 0.076505 0.554000 10783120
-0.104129 0.079814 0.555000 10914450
-0.133714 -0.069257 0.720000 9010322
-0.133529 -0.065052 0.719000 8878994
-0.132414 -0.060435 0.713000 7170956
-0.131486 -0.055966 0.708000 5593740
-0.130557 -0.051553 0.703000 4607617
-0.129443 -0.047130 0.697000 3817598
-0.128143 -0.042714 0.690000 3817602
-0.127029 -0.038434 0.684000 3226749
-0.126286 -0.034324 0.680000 3225981
-0.124800 -0.030080 0.672000 3291262
-0.124243 -0.026123 0.669000 3225979
-0.123500 -0.022167 0.665000 3356543
-0.122757 -0.018256 0.661000 3686788
-0.121086 -0.014282 0.652000 5477259
-0.120714 -0.010524 0.650000 4618134
-0.119786 -0.006757 0.645000 3023990
-0.118857 -0.003048 0.640000 2501235
-0.117929 0.000605 0.635000 2504061
-0.117371 0.004213 0.632000 3028865
-0.116257 0.007750 0.626000 2964099
-0.115143 0.011219 0.620000 3094913
-0.114586 0.014690 0.617000 3622539
-0.113657 0.018069 0.612000 3620999
-0.112729 0.021390 0.607000 4279428
-0.112171 0.024735 0.604000 4673921
-0.111429 0.028000 0.600000 4870278
-0.110871 0.031271 0.597000 3489415
-0.109943 0.034392 0.592000 3094916
-0.109014 0.037456 0.587000 3357831
-0.108457 0.040602 0.584000 3490180
-0.107900 0.043713 0.581000 3949957
-0.106786 0.046548 0.575000 3095178
-0.106229 0.049573 0.572000 3029894
-0.105300 0.052380 0.567000 3095940
-0.104929 0.055424 0.565000 2833535
-0.104000 0.058133 0.560000 3029636
-0.103629 0.061114 0.558000 2898818
-0.102886 0.063842 0.554000 2964612
-0.102329 0.066645 0.551000 2964356
-0.101957 0.069540 0.549000 2367341
-0.102329 0.072942 0.551000 10453899
-0.103071 0.076643 0.555000 10783122
-0.103071 0.079814 0.555000 10980243
-0.132343 -0.069257 0.720000 9339799
-0.132159 -0.065052 0.719000 7568791
-0.131056 -0.060435 0.713000 6578060
-0.129953 -0.055887 0.707000 5593226
-0.129218 -0.051553 0.703000 4542083
-0.128115 -0.047130 0.697000 3687041
-0.126829 -0.042714 0.690000 3948677
-0.125726 -0.038434 0.684000 2964351
-0.124990 -0.034324 0.680000 3226238
-0.123520 -0.030080 0.672000 3291520
-0.122969 -0.026123 0.669000 3226237
-0.122233 -0.022167 0.665000 3487870
-0.121314 -0.018229 0.660000 5193859
-0.120028 -0.014304 0.653000 10842263
-0.119109 -0.010491 0.648000 7838880
-0.118373 -0.006747 0.644000 2900852
-0.117638 -0.003048 0.640000 1913205
-0.116719 0.000605 0.635000 1981307
-0.116168 0.004213 0.632000 2963841
-0.115065 0.007750 0.626000 2963843
-0.113778 0.011201 0.619000 3029377
-0.113410 0.014690 0.617000 3818118
-0.112491 0.018069 0.612000 4079489
-0.111572 0.021390 0.607000 4147075
-0.110837 0.024694 0.603000 4279684
-0.110286 0.028000 0.600000 5459331
-0.109367 0.031167 0.595000 3488391
-0.108999 0.034450 0.593000 3226756
-0.107896 0.037456 0.587000 3555465
-0.107345 0.040602 0.584000 3228037
-0.106793 0.043713 0.581000 3621252
-0.105690 0.046548 0.575000 3029384
-0.105139 0.049573 0.572000 3030150
-0.104220 0.052380 0.567000 3226500
-0.103852 0.055424 0.565000 2899074
-0.102933 0.058133 0.560000 2833284
-0.102566 0.061114 0.558000 2898818
-0.101830 0.063842 0.554000 3029891
-0.101095 0.066524 0.550000 3029635
-0.100728 0.069413 0.548000 2569069
-0.101279 0.072942 0.551000 10520971
-0.101830 0.076505 0.554000 10717585
-0.102014 0.079814 0.555000 10980238
-0.131335 -0.069450 0.722000 9603739
-0.130971 -0.065143 0.720000 8750747
-0.129698 -0.060435 0.713000 6381963
-0.128789 -0.055966 0.708000 5593481
-0.128061 -0.051627 0.704000 4541828
-0.126788 -0.047130 0.697000 3621764
-0.125514 -0.042714 0.690000 4409224
-0.124787 -0.038547 0.686000 3160449
-0.124059 -0.034425 0.682000 3226494
-0.122240 -0.030080 0.672000 3291522
-0.121876 -0.026162 0.670000 3226238
-0.120967 -0.022167 0.665000 3356542
-0.119693 -0.018173 0.658000 3620225
-0.118784 -0.014304 0.653000 5447587
-0.117874 -0.010491 0.648000 4408234
-0.117147 -0.006747 0.644000 7774323
-0.116419 -0.003048 0.640000 7639671
-0.115691 0.000606 0.636000 4150650
-0.114964 0.004213 0.632000 2700929
-0.113872 0.007750 0.626000 2963844
-0.112599 0.011201 0.619000 3029377
-0.112053 0.014667 0.616000 3488898
-0.111508 0.018098 0.613000 3620219
-0.110416 0.021390 0.607000 3947907
-0.109689 0.024694 0.603000 3818119
-0.109143 0.028000 0.600000 4738945
-0.108233 0.031167 0.595000 3489671
-0.107870 0.034450 0.593000 3554949
-0.106778 0.037456 0.587000 3886218
-0.106232 0.040602 0.584000 3555206
-0.105505 0.043638 0.580000 4016259
-0.104595 0.046548 0.575000 2963847
-0.104050 0.049573 0.572000 3030150
-0.103322 0.052472 0.568000 3160709
-0.102776 0.055424 0.565000 2833540
-0.101867 0.058133 0.560000 2898821
-0.101503 0.061114 0.558000 2833281
-0.100593 0.063727 0.553000 2964098
-0.100048 0.066524 0.550000 3029890
-0.099866 0.069540 0.549000 2761070
-0.100230 0.072942 0.551000 10454922
-0.100775 0.076505 0.554000 10717584
-0.100957 0.079814 0.555000 10980489
-0.129960 -0.069450 0.722000 9868443
-0.129600 -0.065143 0.720000 9931672
-0.127980 -0.060266 0.711000 6250377
-0.127440 -0.055966 0.708000 5527688
-0.126720 -0.051627 0.704000 4606596
-0.125460 -0.047130 0.697000 3491202
-0.124020 -0.042652 0.689000 4870019
-0.123120 -0.038434 0.684000 3291521
-0.122760 -0.034425 0.682000 3227262
-0.120960 -0.030080 0.672000 3226240
-0.120600 -0.026162 0.670000 3160703
-0.119700 -0.022167 0.665000 3225727
-0.118440 -0.018173 0.658000 2112640
-0.117540 -0.014304 0.653000 75420
-0.116640 -0.010491 0.648000 983455
-0.115920 -0.006747 0.644000 12622188
-0.115200 -0.003048 0.640000 13350504
-0.114300 0.000605 0.635000 6254720
-0.113760 0.004213 0.632000 2504323
-0.112860 0.007763 0.627000 2963842
-0.111420 0.011201 0.619000 3029377
-0.111060 0.014690 0.617000 3094913
-0.110160 0.018069 0.612000 3227518
-0.109260 0.021390 0.607000 3687556
-0.108540 0.024694 0.603000 3357574
-0.108000 0.028000 0.600000 4016001
-0.107100 0.031167 0.595000 3490701
-0.106740 0.034450 0.593000 3817605
-0.105660 0.037456 0.587000 4282248
-0.104940 0.040532 0.583000 3884167
-0.104220 0.043563 0.579000 4412547
-0.103500 0.046548 0.575000 2833029
-0.102960 0.049573 0.572000 3030149
-0.102240 0.052472 0.568000 3029892
-0.101700 0.055424 0.565000 2833542
-0.100800 0.058133 0.560000 2899077
-0.100440 0.061114 0.558000 2833282
-0.099720 0.063842 0.554000 2833538
-0.099000 0.066524 0.550000 3096195
-0.098820 0.069540 0.549000 2963054
-0.099180 0.072942 0.551000 10456201
-0.099720 0.076505 0.554000 10717584
-0.099900 0.079814 0.555000 10980494
-0.128585 -0.069450 0.722000 10458011
-0.128229 -0.065143 0.720000 10263958
-0.126626 -0.060266 0.711000 6119302
-0.126091 -0.055966 0.708000 5527431
-0.125379 -0.051627 0.704000 4672643
-0.124132 -0.047130 0.697000 3752577
-0.122708 -0.042652 0.689000 4342654
-0.121817 -0.038434 0.684000 3292032
-0.121461 -0.034425 0.682000 3226750
-0.119680 -0.030080 0.672000 3357311
-0.119324 -0.026162 0.670000 3226240
-0.118433 -0.022167 0.665000 3225472
-0.117187 -0.018173 0.658000 2373246
-0.116652 -0.014348 0.655000 4872597
-0.115762 -0.010524 0.650000 4802195
-0.114693 -0.006747 0.644000 10462309
-0.113981 -0.003048 0.640000 8941913
-0.113090 0.000605 0.635000 7571846
-0.112556 0.004213 0.632000 2372740
-0.111666 0.007763 0.627000 3095169
-0.110241 0.011201 0.619000 2963841
-0.109707 0.014667 0.616000 3356288
-0.108994 0.018069 0.612000 3556224
-0.108104 0.021390 0.607000 4083333
-0.107391 0.024694 0.603000 3096452
-0.107035 0.028047 0.601000 4079746
-0.105967 0.031167 0.595000 3754898
-0.105610 0.034450 0.593000 3817605
-0.104542 0.037456 0.587000 3883909
-0.103830 0.040532 0.583000 4081031
-0.103295 0.043638 0.580000 4148355
-0.102405 0.046548 0.575000 3030146
-0.101870 0.049573 0.572000 3029892
-0.100980 0.052380 0.567000 3029891
-0.100624 0.055424 0.565000 2899335
-0.099733 0.058133 0.560000 3030149
-0.099377 0.061114 0.558000 2899074
-0.098487 0.063727 0.553000 2899330
-0.098130 0.066645 0.551000 3095939
-0.097774 0.069540 0.549000 3221102
-0.098130 0.072942 0.551000 10454663
-0.098665 0.076505 0.554000 10717584
-0.098843 0.079814 0.555000 10980754
-0.127210 -0.069450 0.722000 10981277
-0.126857 -0.065143 0.720000 10522773
-0.125624 -0.060435 0.713000 6053517
-0.124743 -0.055966 0.708000 5527176
-0.124038 -0.051627 0.704000 4672644
-0.122805 -0.047130 0.697000 3949442
-0.121395 -0.042652 0.689000 3817086
-0.120338 -0.038378 0.683000 3291775
-0.120162 -0.034425 0.682000 3226238
-0.118929 -0.030214 0.675000 3487870
-0.118048 -0.026162 0.670000 3291775
-0.116814 -0.022100 0.663000 3225472
-0.115933 -0.018173 0.658000 2701436
-0.115405 -0.014348 0.655000 9661845
-0.114171 -0.010491 0.648000 8616870
-0.113467 -0.006747 0.644000 8221038
-0.112762 -0.003048 0.640000 4523855
-0.111881 0.000605 0.635000 8878978
-0.111176 0.004207 0.631000 2241923
-0.110471 0.007763 0.627000 3160448
-0.109062 0.011201 0.619000 2964098
-0.108533 0.014667 0.616000 3554689
-0.108005 0.018098 0.613000 3951236
-0.107124 0.021425 0.608000 4412297
-0.106243 0.024694 0.603000 2899591
-0.105890 0.028047 0.601000 4081027
-0.105362 0.031324 0.598000 4084621
-0.104305 0.034392 0.592000 3819139
-0.103600 0.037520 0.588000 3554178
-0.103071 0.040671 0.585000 4279690
-0.102014 0.043563 0.579000 3887492
-0.101310 0.046548 0.575000 3160708
-0.100781 0.049573 0.572000 3095173
-0.100076 0.052472 0.568000 3029636
-0.099548 0.055424 0.565000 2964614
-0.098843 0.058237 0.561000 3095428
-0.098314 0.061114 0.558000 3029890
-0.097433 0.063727 0.553000 2899330
-0.097081 0.066645 0.551000 3161730
-0.096729 0.069540 0.549000 3487849
-0.097081 0.072942 0.551000 10453642
-0.097610 0.076505 0.554000 10717585
-0.097962 0.079958 0.556000 10980499
-0.125834 -0.069450 0.722000 10981790
-0.125486 -0.065143 0.720000 9078420
-0.123917 -0.060266 0.711000 6316948
-0.123394 -0.055966 0.708000 5789578
-0.122523 -0.051553 0.703000 4870021
-0.121477 -0.047130 0.697000 3949442
-0.120083 -0.042652 0.689000 3686270
-0.119037 -0.038378 0.683000 3291774
-0.118514 -0.034324 0.680000 3160702
-0.117643 -0.030214 0.675000 3356541
-0.116771 -0.026162 0.670000 3291517
-0.116074 -0.022200 0.666000 3225473
-0.114680 -0.018173 0.658000 2896506
-0.114331 -0.014370 0.656000 8952213
-0.112937 -0.010491 0.648000 8026296
-0.112240 -0.006747 0.644000 8610167
-0.111543 -0.003048 0.640000 5447748
-0.110671 0.000605 0.635000 8950910
-0.109626 0.004193 0.629000 2306946
-0.109277 0.007763 0.627000 3095166
-0.108057 0.011219 0.620000 3095426
-0.107360 0.014667 0.616000 3752321
-0.106663 0.018069 0.612000 4082567
-0.105966 0.021425 0.608000 4872845
-0.105269 0.024735 0.604000 3293321
-0.104746 0.028047 0.601000 4083845
-0.104049 0.031271 0.597000 4213895
-0.103177 0.034392 0.592000 4214657
-0.102480 0.037520 0.588000 3489407
-0.101957 0.040671 0.585000 4216205
-0.101086 0.043638 0.580000 3753860
-0.100214 0.046548 0.575000 3160709
-0.099866 0.049660 0.573000 3095430
-0.098994 0.052472 0.568000 3029636
-0.098471 0.055424 0.565000 2964356
-0.097949 0.058341 0.562000 3095427
-0.097251 0.061114 0.558000 3029633
-0.096380 0.063727 0.553000 2833281
-0.096031 0.066645 0.551000 3160961
-0.095683 0.069540 0.549000 3810405
-0.096031 0.072942 0.551000 10520204
-0.096554 0.076505 0.554000 10717330
-0.096729 0.079814 0.555000 11046036
-0.124459 -0.069450 0.722000 10916517
-0.124459 -0.065324 0.722000 7635859
-0.122563 -0.060266 0.711000 6645908
-0.122046 -0.055966 0.708000 5987468
-0.121184 -0.051553 0.703000 5066887
-0.120322 -0.047198 0.698000 3884162
-0.118943 -0.042714 0.690000 3555199
-0.117736 -0.038378 0.683000 3291774
-0.117219 -0.034324 0.680000 3160450
-0.116357 -0.030214 0.675000 3225472
-0.115495 -0.026162 0.670000 3225727
-0.114633 -0.022167 0.665000 3159937
-0.113427 -0.018173 0.658000 3093113
-0.112910 -0.014348 0.655000 8153743
-0.111703 -0.010491 0.648000 7369897
-0.111013 -0.006747 0.644000 8946295
-0.110324 -0.003048 0.640000 6374502
-0.109462 0.000605 0.635000 8944255
-0.108428 0.004193 0.629000 2372995
-0.108083 0.007763 0.627000 2964352
-0.106876 0.011219 0.620000 3226498
-0.106187 0.014667 0.616000 3885186
-0.105670 0.018098 0.613000 4279431
-0.104808 0.021425 0.608000 5262986
-0.104118 0.024735 0.604000 3684230
-0.103601 0.028047 0.601000 4082821
-0.102567 0.031167 0.595000 4409222
-0.102222 0.034450 0.593000 4542854
-0.101360 0.037520 0.588000 3423618
-0.100843 0.040671 0.585000 4148361
-0.099981 0.043638 0.580000 3555204
-0.099119 0.046548 0.575000 3095428
-0.098774 0.049660 0.573000 3030661
-0.097912 0.052472 0.568000 3029892
-0.097395 0.055424 0.565000 2899075
-0.096878 0.058341 0.562000 3095427
-0.096361 0.061224 0.559000 2963841
-0.095499 0.063842 0.554000 2767746
-0.094982 0.066645 0.551000 3226498
-0.094637 0.069540 0.549000 4079719
-0.094982 0.072942 0.551000 10520717
-0.095499 0.076505 0.554000 10717329
-0.095844 0.079958 0.556000 11111827
-0.123084 -0.069450 0.722000 10853547
-0.123084 -0.065324 0.722000 7896211
-0.121209 -0.060266 0.711000 7039891
-0.120527 -0.055887 0.707000 6316942
-0.119845 -0.051553 0.703000 5198472
-0.118992 -0.047198 0.698000 3949954
-0.117629 -0.042714 0.690000 3620735
-0.116435 -0.038378 0.683000 3422847
-0.116265 -0.034425 0.682000 3292037
-0.115242 -0.030259 0.676000 3225475
-0.114219 -0.026162 0.670000 3160192
-0.113537 -0.022200 0.666000 3225474
-0.112514 -0.018229 0.660000 3158904
-0.111662 -0.014348 0.655000 8419209
-0.110469 -0.010491 0.648000 7039130
-0.109957 -0.006757 0.645000 10403448
-0.109105 -0.003048 0.640000 9607815
-0.108252 0.000605 0.635000 6779776
-0.107230 0.004193 0.629000 2568579
-0.106889 0.007763 0.627000 2964098
-0.106036 0.011255 0.622000 3160706
-0.105184 0.014690 0.617000 3952258
-0.104672 0.018128 0.614000 4410759
-0.103650 0.021425 0.608000 4407687
-0.102968 0.024735 0.604000 3160194
-0.102627 0.028093 0.602000 3950725
-0.101433 0.031167 0.595000 4475524
-0.101092 0.034450 0.593000 4543626
-0.100240 0.037520 0.588000 3227012
-0.099729 0.040671 0.585000 3752325
-0.099047 0.043713 0.581000 3358083
-0.098024 0.046548 0.575000 3095427
-0.097683 0.049660 0.573000 2964868
-0.096830 0.052472 0.568000 3030660
-0.096319 0.055424 0.565000 2964610
-0.095978 0.058445 0.563000 3226499
-0.095296 0.061224 0.559000 3029633
-0.094444 0.063842 0.554000 2898563
-0.093932 0.066645 0.551000 3030147
-0.093762 0.069667 0.550000 4668265
-0.094103 0.073074 0.552000 10520717
-0.094444 0.076505 0.554000 10913936
-0.094785 0.079958 0.556000 10915218
-0.121709 -0.069450 0.722000 10787999
-0.121709 -0.065324 0.722000 8157840
-0.119854 -0.060266 0.711000 7366544
-0.119349 -0.055966 0.708000 6646927
-0.118506 -0.051553 0.703000 5394313
-0.117663 -0.047198 0.698000 4015490
-0.116314 -0.042714 0.690000 3620735
-0.115134 -0.038378 0.683000 3488382
-0.114629 -0.034324 0.680000 3357316
-0.113786 -0.030214 0.675000 3225730
-0.112943 -0.026162 0.670000 3160191
-0.112100 -0.022167 0.665000 3225728
-0.111426 -0.018256 0.661000 3159163
-0.110414 -0.014348 0.655000 8676742
-0.109234 -0.010491 0.648000 6722195
-0.108729 -0.006757 0.645000 11830901
-0.107886 -0.003048 0.640000 12821368
-0.107043 0.000605 0.635000 4607862
-0.106031 0.004193 0.629000 2701443
-0.105526 0.007750 0.626000 2964098
-0.104851 0.011255 0.622000 3160450
-0.104009 0.014690 0.617000 3949697
-0.103503 0.018128 0.614000 4608139
-0.102491 0.021425 0.608000 3489158
-0.101817 0.024735 0.604000 2636675
-0.101311 0.028047 0.601000 3753605
-0.100637 0.031271 0.597000 4539522
-0.099963 0.034450 0.593000 4542343
-0.099120 0.037520 0.588000 3029634
-0.098614 0.040671 0.585000 3357571
-0.097940 0.043713 0.581000 3161222
-0.096929 0.046548 0.575000 3095426
-0.096591 0.049660 0.573000 2899335
-0.095749 0.052472 0.568000 2964867
-0.095243 0.055424 0.565000 3095685
-0.094906 0.058445 0.563000 3357571
-0.094231 0.061224 0.559000 3029890
-0.093557 0.063957 0.555000 3029635
-0.093051 0.066766 0.552000 2833795
-0.092883 0.069793 0.551000 5195368
-0.093051 0.073074 0.552000 10520717
-0.093557 0.076643 0.555000 11110546
-0.093894 0.080102 0.557000 10718609
-0.120500 -0.069546 0.723000 9535635
-0.120333 -0.065324 0.722000 7960206
-0.119000 -0.060520 0.714000 7368588
-0.117833 -0.055887 0.707000 7305360
-0.117167 -0.051553 0.703000 5395849
-0.116667 -0.047333 0.700000 4080001
-0.115000 -0.042714 0.690000 3620479
-0.114000 -0.038434 0.684000 3356798
-0.113333 -0.034324 0.680000 3423106
-0.112500 -0.030214 0.675000 3291520
-0.111667 -0.026162 0.670000 3160446
-0.111000 -0.022200 0.666000 3225727
-0.110333 -0.018284 0.662000 3159678
-0.108833 -0.014304 0.653000 5656451
-0.108000 -0.010491 0.648000 4543371
-0.107500 -0.006757 0.645000 6510194
-0.106500 -0.003043 0.639000 6838632
-0.105833 0.000605 0.635000 3223917
-0.105167 0.004207 0.631000 2832770
-0.104500 0.007763 0.627000 2964098
-0.103667 0.011255 0.622000 3226497
-0.103000 0.014714 0.618000 3749760
-0.102500 0.018157 0.615000 4279951
-0.101333 0.021425 0.608000 3095174
-0.100833 0.024776 0.605000 3161732
-0.100333 0.028093 0.602000 3950981
-0.099167 0.031167 0.595000 3752320
-0.098833 0.034450 0.593000 4083075
-0.098167 0.037584 0.589000 2964352
-0.097667 0.040741 0.586000 2897537
-0.096833 0.043713 0.581000 2767240
-0.096000 0.046629 0.576000 3029122
-0.095500 0.049660 0.573000 2767754
-0.094667 0.052472 0.568000 2701954
-0.094167 0.055424 0.565000 2636168
-0.093833 0.058445 0.563000 3226499
-0.093167 0.061224 0.559000 3029890
-0.092500 0.063957 0.555000 3095171
-0.091833 0.066645 0.551000 2768003
-0.091667 0.069667 0.550000 5456231
-0.092167 0.073207 0.553000 10586253
-0.092500 0.076643 0.555000 10979477
-0.092833 0.080102 0.557000 10783887
-0.119123 -0.069546 0.723000 8349847
-0.118958 -0.065324 0.722000 7764878
-0.117970 -0.060690 0.716000 7304334
-0.116651 -0.055966 0.708000 7957904
-0.115828 -0.051553 0.703000 5395338
-0.115333 -0.047333 0.700000 4081794
-0.113686 -0.042714 0.690000 3685759
-0.112697 -0.038434 0.684000 3160447
-0.112368 -0.034425 0.682000 3489417
-0.111379 -0.030259 0.676000 3291520
-0.110226 -0.026123 0.669000 3225981
