# .PCD v.7 - Point Cloud Data file format
VERSION .7
FIELDS x y z rgb
SIZE 4 4 4 4
TYPE F F F I
COUNT 1 1 1 1
WIDTH 1290
HEIGHT 1
POINTS 1290
DATA ascii
-0.186686 -0.077314 0.660000 3359115
-0.186969 -0.073654 0.661000 3555473
-0.188100 -0.070300 0.665000 3425424
-0.188383 -0.066600 0.666000 3425936
-0.189231 -0.063077 0.669000 3556753
-0.189514 -0.059343 0.670000 3556243
-0.190080 -0.055680 0.672000 3294098
-0.190646 -0.051994 0.674000 3622033
-0.191211 -0.048286 0.676000 3294865
-0.192060 -0.044620 0.679000 5000078
-0.192343 -0.040800 0.680000 4740502
-0.193191 -0.037077 0.683000 4016789
-0.194040 -0.033320 0.686000 5068187
-0.194889 -0.029529 0.689000 4609434
-0.194889 -0.025591 0.689000 3885204
-0.195171 -0.021686 0.690000 4148629
-0.196303 -0.017846 0.694000 4542355
-0.196586 -0.013900 0.695000 4805779
-0.197434 -0.009971 0.698000 4673685
-0.198283 -0.006009 0.701000 4607126
-0.199131 -0.002011 0.704000 4805012
-0.199414 0.002014 0.705000 5067927
-0.199980 0.006060 0.707000 5265303
-0.201111 0.010157 0.711000 5528211
-0.201677 0.014260 0.713000 5857432
-0.182057 -0.209211 0.648000 5860018
-0.182057 -0.205509 0.648000 8086143
-0.181495 -0.201183 0.646000 16645884
-0.180933 -0.196880 0.644000 16051959
-0.178686 -0.190800 0.636000 16379380
-0.170538 -0.178631 0.607000 9604053
-0.170819 -0.175451 0.608000 10393001
-0.170819 -0.171977 0.608000 11512492
-0.171662 -0.169334 0.611000 10131626
-0.171943 -0.166114 0.612000 8683935
-0.172224 -0.162883 0.613000 8619429
-0.172505 -0.159640 0.614000 8750501
-0.172786 -0.156386 0.615000 8618658
-0.173348 -0.153369 0.617000 8356767
-0.174190 -0.150571 0.620000 7698334
-0.174190 -0.147029 0.620000 7632798
-0.175033 -0.144180 0.623000 6975644
-0.175314 -0.140846 0.624000 6515100
-0.176157 -0.137940 0.627000 6384282
-0.176438 -0.134571 0.628000 5790872
-0.177281 -0.131609 0.631000 6119575
-0.177843 -0.128409 0.633000 5330838
-0.178124 -0.124989 0.634000 5265557
-0.179248 -0.122131 0.638000 4805777
-0.179529 -0.118671 0.639000 4477333
-0.179810 -0.115200 0.640000 4214676
-0.180933 -0.112240 0.644000 4017555
-0.180933 -0.108560 0.644000 4017298
-0.181214 -0.105043 0.645000 4081549
-0.181495 -0.101514 0.646000 4279705
-0.182057 -0.098126 0.648000 3621778
-0.182900 -0.094860 0.651000 4403077
-0.183462 -0.091420 0.653000 8103094
-0.184305 -0.088091 0.656000 7572689
-0.184867 -0.084600 0.658000 2842552
-0.185429 -0.081086 0.660000 3159427
-0.185710 -0.077431 0.661000 2178439
-0.185710 -0.073654 0.661000 2767764
-0.187114 -0.070406 0.666000 3556238
-0.187395 -0.066700 0.667000 3425679
-0.187957 -0.063077 0.669000 3491217
-0.188519 -0.059431 0.671000 3556497
-0.188800 -0.055680 0.672000 3424402
-0.189643 -0.052071 0.675000 3556495
-0.190486 -0.048429 0.678000 3490961
-0.190767 -0.044620 0.679000 4475792
-0.191610 -0.040920 0.682000 4410771
-0.192171 -0.037131 0.684000 4016785
-0.192733 -0.033320 0.686000 4935065
-0.193857 -0.029571 0.690000 5069212
-0.194138 -0.025666 0.691000 3688083
-0.194700 -0.021780 0.693000 4476053
-0.195262 -0.017871 0.695000 4346006
-0.195824 -0.013940 0.697000 4346514
-0.196667 -0.010000 0.700000 4410770
-0.196948 -0.006009 0.701000 4542101
-0.198071 -0.002014 0.705000 4673941
-0.198633 0.002020 0.707000 4870807
-0.198914 0.006069 0.708000 5133719
-0.199757 0.010157 0.711000 5462158
-0.200319 0.014260 0.713000 5725591
-0.181381 -0.213571 0.650000 13348801
-0.180823 -0.209211 0.648000 3693226
-0.180823 -0.205509 0.648000 8485531
-0.180265 -0.201183 0.646000 16579323
-0.179707 -0.196880 0.644000 16052727
-0.178032 -0.191400 0.638000 16509429
-0.169382 -0.178631 0.607000 9271231
-0.169661 -0.175451 0.608000 12363436
-0.169940 -0.172260 0.609000 11706538
-0.170777 -0.169611 0.612000 8753575
-0.171056 -0.166386 0.613000 8815521
-0.171335 -0.163149 0.614000 8684965
-0.171614 -0.159900 0.615000 8750500
-0.171893 -0.156640 0.616000 8553377
-0.172451 -0.153617 0.618000 8291487
-0.173010 -0.150571 0.620000 7567519
-0.173568 -0.147503 0.622000 7567520
-0.174126 -0.144411 0.624000 6647707
-0.174405 -0.141071 0.625000 6317979
-0.175242 -0.138160 0.628000 6120857
-0.175521 -0.134786 0.629000 5593493
-0.176358 -0.131817 0.632000 5528981
-0.176637 -0.128409 0.633000 5133204
-0.177195 -0.125186 0.635000 5068436
-0.178311 -0.122323 0.639000 4674193
-0.178590 -0.118857 0.640000 4477075
-0.178870 -0.115380 0.641000 4148883
-0.179707 -0.112240 0.644000 3952019
-0.179707 -0.108560 0.644000 3886226
-0.179986 -0.105043 0.645000 3950480
-0.180544 -0.101671 0.647000 3951766
-0.181381 -0.098429 0.650000 3294610
-0.181939 -0.095006 0.652000 6105993
-0.182776 -0.091700 0.655000 8624583
-0.183334 -0.088226 0.657000 12166826
-0.184171 -0.084857 0.660000 5525933
-0.184730 -0.081331 0.662000 2637695
-0.184730 -0.077549 0.662000 932492
-0.185567 -0.074100 0.665000 2042511
-0.185846 -0.070406 0.666000 3621005
-0.186683 -0.066900 0.669000 3426192
-0.186962 -0.063171 0.670000 3359889
-0.187241 -0.059431 0.671000 3556498
-0.188078 -0.055846 0.674000 3490451
-0.188636 -0.052149 0.676000 3556752
-0.189194 -0.048429 0.678000 3622289
-0.189752 -0.044686 0.680000 4017296
-0.190590 -0.040980 0.683000 4082322
-0.190869 -0.037131 0.684000 4082065
-0.191706 -0.033369 0.687000 4803735
-0.192543 -0.029571 0.690000 5530008
-0.193380 -0.025740 0.693000 3491476
-0.193938 -0.021843 0.695000 4803989
-0.194496 -0.017923 0.697000 4084630
-0.194775 -0.013960 0.698000 3886996
-0.195612 -0.010014 0.701000 4083091
-0.196170 -0.006026 0.703000 4411543
-0.197287 -0.002020 0.707000 4542869
-0.197287 0.002020 0.707000 4673944
-0.198124 0.006086 0.710000 5002647
-0.198961 0.010186 0.713000 5330577
-0.199240 0.014280 0.714000 5594006
-0.180143 -0.213571 0.650000 12891328
-0.179589 -0.209211 0.648000 2373794
-0.180697 -0.206777 0.652000 10588855
-0.179034 -0.201183 0.646000 16513530
-0.177926 -0.196269 0.642000 16051959
-0.176817 -0.191400 0.638000 16054007
-0.168503 -0.178926 0.608000 9274281
-0.168503 -0.175451 0.608000 12367535
-0.169334 -0.172826 0.611000 10851496
-0.169611 -0.169611 0.612000 8883364
-0.169889 -0.166386 0.613000 8816035
-0.170720 -0.163680 0.616000 8684964
-0.170997 -0.160420 0.617000 8619171
-0.170997 -0.156894 0.617000 8422049
-0.171829 -0.154114 0.620000 8094111
-0.172383 -0.151057 0.622000 7435935
-0.172383 -0.147503 0.622000 7501473
-0.172937 -0.144411 0.624000 6582171
-0.173769 -0.141523 0.627000 6449306
-0.174323 -0.138380 0.629000 6055063
-0.174877 -0.135214 0.631000 5528465
-0.175431 -0.132026 0.633000 5397652
-0.175709 -0.128611 0.634000 4936338
-0.176817 -0.125777 0.638000 4937107
-0.177371 -0.122514 0.640000 4542865
-0.177371 -0.118857 0.640000 4280466
-0.177926 -0.115560 0.642000 4017810
-0.178480 -0.112240 0.644000 3820947
-0.178757 -0.108729 0.645000 3755154
-0.179034 -0.105206 0.646000 3819922
-0.179589 -0.101829 0.648000 3819667
-0.180143 -0.098429 0.650000 3622801
-0.180974 -0.095151 0.653000 5983884
-0.181806 -0.091840 0.656000 10465753
-0.182360 -0.088360 0.658000 11898754
-0.183191 -0.084986 0.661000 5190561
-0.183469 -0.081331 0.662000 7968123
-0.183746 -0.077666 0.663000 6120593
-0.184300 -0.074100 0.665000 5393033
-0.184854 -0.070511 0.667000 3293325
-0.185409 -0.066900 0.669000 3425425
-0.185686 -0.063171 0.670000 3491217
-0.186240 -0.059520 0.672000 3556498
-0.187071 -0.055929 0.675000 3424916
-0.187903 -0.052303 0.678000 3490961
-0.188180 -0.048500 0.679000 3490961
-0.189011 -0.044817 0.682000 3819407
-0.189566 -0.041040 0.684000 3884946
-0.190120 -0.037240 0.686000 4147089
-0.190951 -0.033466 0.689000 4082837
-0.191506 -0.029614 0.691000 5132947
-0.192337 -0.025777 0.694000 4278933
-0.192614 -0.021843 0.695000 5265813
-0.193169 -0.017923 0.697000 4674454
-0.193446 -0.013960 0.698000 4609942
-0.194277 -0.010014 0.701000 3820691
-0.195109 -0.006034 0.704000 4476824
-0.195940 -0.002020 0.707000 4542869
-0.196217 0.002023 0.708000 4870808
-0.197049 0.006094 0.711000 5002648
-0.197880 0.010200 0.714000 5265043
-0.179180 -0.210180 0.651000 1062048
-0.179730 -0.207094 0.653000 12767939
-0.177804 -0.201183 0.646000 16381946
-0.177253 -0.196880 0.644000 16117751
-0.176152 -0.192000 0.640000 15587830
-0.167345 -0.178926 0.608000 9341868
-0.167620 -0.175740 0.609000 12298919
-0.168170 -0.172826 0.611000 10063026
-0.168721 -0.169889 0.613000 9013925
-0.168996 -0.166657 0.614000 8816546
-0.169547 -0.163680 0.616000 8619172
-0.170097 -0.160680 0.618000 8553637
-0.170648 -0.157657 0.620000 8290466
-0.171198 -0.154611 0.622000 7896990
-0.171473 -0.151300 0.623000 7304094
-0.171473 -0.147740 0.623000 7369632
-0.172299 -0.144874 0.626000 6450075
-0.172850 -0.141749 0.628000 6645657
-0.173125 -0.138380 0.629000 5923734
-0.173675 -0.135214 0.631000 5463186
-0.174226 -0.132026 0.633000 5200277
-0.174776 -0.128814 0.635000 4739219
-0.175602 -0.125777 0.638000 4739986
-0.176152 -0.122514 0.640000 4411281
-0.176428 -0.119043 0.641000 4083602
-0.177253 -0.115920 0.644000 3886484
-0.177529 -0.112414 0.645000 3689109
-0.177529 -0.108729 0.645000 3689362
-0.178354 -0.105531 0.648000 3623313
-0.179180 -0.102300 0.651000 3752849
-0.179180 -0.098580 0.651000 3883661
-0.180281 -0.095443 0.655000 5910915
-0.180831 -0.091980 0.657000 12233408
-0.181657 -0.088629 0.660000 11566255
-0.182208 -0.085114 0.662000 4812696
-0.182483 -0.081454 0.663000 13352828
-0.183033 -0.077900 0.665000 11314067
-0.183309 -0.074211 0.666000 8753297
-0.184134 -0.070723 0.669000 2908318
-0.184410 -0.067000 0.670000 3423889
-0.184960 -0.063360 0.672000 3622034
-0.185510 -0.059697 0.674000 3621780
-0.186061 -0.056011 0.676000 3359890
-0.186887 -0.052380 0.679000 3425424
-0.187162 -0.048571 0.680000 3359889
-0.187712 -0.044817 0.682000 3687570
-0.188263 -0.041040 0.684000 3621776
-0.188813 -0.037240 0.686000 4212883
-0.189914 -0.033514 0.690000 3361687
-0.190740 -0.029700 0.693000 4802965
-0.191015 -0.025777 0.694000 5002648
-0.191841 -0.021906 0.697000 5727382
-0.192116 -0.017949 0.698000 5199510
-0.192942 -0.014020 0.701000 5400985
-0.193492 -0.010043 0.703000 3492499
-0.193768 -0.006034 0.704000 4542105
-0.194869 -0.002023 0.708000 4542356
-0.194869 0.002023 0.708000 5132950
-0.196245 0.006111 0.713000 5002393
-0.196520 0.010200 0.714000 5199252
-0.178213 -0.210503 0.652000 795294
-0.178487 -0.207094 0.653000 13749198
-0.177120 -0.201806 0.648000 16315386
-0.175480 -0.196269 0.642000 16117494
-0.174933 -0.192000 0.640000 15131126
-0.166460 -0.179220 0.609000 8420270
-0.166460 -0.175740 0.609000 11771551
-0.167280 -0.173109 0.612000 10131644
-0.167553 -0.169889 0.613000 8685990
-0.167827 -0.166657 0.614000 8816289
-0.168647 -0.163946 0.617000 8684452
-0.168920 -0.160680 0.618000 8422054
-0.169467 -0.157657 0.620000 8159139
-0.170013 -0.154611 0.622000 7699357
-0.170560 -0.151543 0.624000 7106461
-0.170560 -0.147977 0.624000 7106463
-0.171107 -0.144874 0.626000 6185627
-0.171927 -0.141974 0.629000 6383256
-0.172473 -0.138820 0.631000 5661077
-0.172747 -0.135429 0.632000 5397651
-0.173293 -0.132234 0.634000 5069206
-0.173567 -0.128814 0.635000 4608403
-0.174660 -0.125974 0.639000 4608913
-0.175207 -0.122706 0.641000 4279953
-0.175480 -0.119229 0.642000 3952530
-0.176027 -0.115920 0.644000 3689109
-0.176300 -0.112414 0.645000 3622807
-0.176573 -0.108897 0.646000 3623313
-0.177667 -0.105857 0.650000 3688849
-0.178213 -0.102457 0.652000 3687567
-0.178487 -0.098883 0.653000 4471178
-0.179580 -0.095734 0.657000 4006522
-0.179853 -0.092120 0.658000 6846120
-0.180400 -0.088629 0.660000 9341660
-0.181220 -0.085243 0.663000 7494031
-0.181767 -0.081700 0.665000 11049084
-0.182040 -0.078017 0.666000 12438165
-0.182313 -0.074323 0.667000 10270361
-0.182860 -0.070723 0.669000 4882351
-0.183407 -0.067100 0.671000 3161744
-0.183680 -0.063360 0.672000 3621778
-0.184500 -0.059786 0.675000 3490454
-0.185320 -0.056177 0.678000 3491216
-0.185867 -0.052457 0.680000 3425679
-0.186413 -0.048714 0.682000 3425425
-0.186687 -0.044883 0.683000 3555733
-0.187507 -0.041160 0.686000 3621774
-0.187780 -0.037294 0.687000 4804757
-0.188600 -0.033514 0.690000 3951770
-0.189693 -0.029743 0.694000 4804502
-0.190513 -0.025889 0.697000 4937884
-0.190787 -0.021937 0.698000 5462422
-0.191333 -0.018000 0.700000 5199767
-0.192153 -0.014060 0.703000 5070235
-0.192427 -0.010057 0.704000 4343187
-0.193247 -0.006060 0.707000 5002649
-0.193520 -0.002023 0.708000 4738451
-0.193520 0.002023 0.708000 5462419
-0.194887 0.006111 0.713000 5067930
-0.195707 0.010229 0.716000 5067925
-0.176971 -0.214229 0.652000 11253192
-0.177243 -0.210826 0.653000 466842
-0.177243 -0.207094 0.653000 14806755
-0.176429 -0.202429 0.650000 16184826
-0.174257 -0.196269 0.642000 16183029
-0.173986 -0.192300 0.641000 14668527
-0.165843 -0.179809 0.611000 7496105
-0.166114 -0.176606 0.612000 11175070
-0.166386 -0.173391 0.613000 10192048
-0.166657 -0.170166 0.614000 8292518
-0.166929 -0.166929 0.615000 8816291
-0.167743 -0.164211 0.618000 8684965
-0.168286 -0.161200 0.620000 8356005
-0.168829 -0.158166 0.622000 8028066
-0.169371 -0.155109 0.624000 7568031
-0.169643 -0.151786 0.625000 6909341
-0.169643 -0.148214 0.625000 6843552
-0.170457 -0.145337 0.628000 5923483
-0.171271 -0.142426 0.631000 6120088
-0.171271 -0.138820 0.631000 5397909
-0.171543 -0.135429 0.632000 5396884
-0.172086 -0.132234 0.634000 4872082
-0.172629 -0.129017 0.636000 4542866
-0.173714 -0.126171 0.640000 4477587
-0.173986 -0.122706 0.641000 4214421
-0.174257 -0.119229 0.642000 3821202
-0.174800 -0.115920 0.644000 3491734
-0.175343 -0.112589 0.646000 3557524
-0.175343 -0.108897 0.646000 3556754
-0.176700 -0.106020 0.651000 3688080
-0.177243 -0.102614 0.653000 3622799
-0.177786 -0.099186 0.655000 5003674
-0.178329 -0.095734 0.657000 2115246
-0.178600 -0.092120 0.658000 1401269
-0.179414 -0.088763 0.661000 7172021
-0.179957 -0.085243 0.663000 10120585
-0.180500 -0.081700 0.665000 8748147
-0.181043 -0.078134 0.667000 13479046
-0.181043 -0.074323 0.667000 11834765
-0.181857 -0.070829 0.670000 6769824
-0.182400 -0.067200 0.672000 2965905
-0.182943 -0.063549 0.674000 3555985
-0.183486 -0.059874 0.676000 3424915
-0.184300 -0.056260 0.679000 3556496
-0.185114 -0.052611 0.682000 3425680
-0.185386 -0.048786 0.683000 3490703
-0.185657 -0.044949 0.684000 3424658
-0.186471 -0.041220 0.687000 3556496
-0.187286 -0.037457 0.690000 5393813
-0.187557 -0.033563 0.691000 4542614
-0.188643 -0.029786 0.695000 4738195
-0.189186 -0.025889 0.697000 4805526
-0.189457 -0.021937 0.698000 5265302
-0.190271 -0.018026 0.701000 5134234
-0.190814 -0.014060 0.703000 4740506
-0.191357 -0.010071 0.705000 5131669
-0.191900 -0.006060 0.707000 5400220
-0.192171 -0.002023 0.708000 4870037
-0.192714 0.002029 0.710000 5858709
-0.193800 0.006120 0.714000 5067671
-0.194343 0.010229 0.716000 5002132
-0.175730 -0.214229 0.652000 10594252
-0.176538 -0.211471 0.655000 461206
-0.176538 -0.207729 0.655000 15524855
-0.175190 -0.202429 0.650000 16249338
-0.173034 -0.196269 0.642000 16248308
-0.172765 -0.192300 0.641000 13618920
-0.164949 -0.180103 0.612000 7827619
-0.165218 -0.176894 0.613000 9720989
-0.165488 -0.173674 0.614000 9799075
-0.165488 -0.170166 0.614000 8751526
-0.166296 -0.167471 0.617000 8881572
-0.167105 -0.164743 0.620000 8750758
-0.167644 -0.161720 0.622000 8290723
-0.167913 -0.158420 0.623000 8027810
-0.168452 -0.155357 0.625000 7436448
-0.168991 -0.152271 0.627000 6844061
-0.168991 -0.148689 0.627000 6646945
-0.169530 -0.145569 0.629000 5922971
-0.170070 -0.142426 0.631000 5857944
-0.170339 -0.139040 0.632000 5264790
-0.170609 -0.135643 0.633000 5134228
-0.171148 -0.132443 0.635000 4346766
-0.171956 -0.129423 0.638000 4477073
-0.172495 -0.126171 0.640000 4346516
-0.172765 -0.122706 0.641000 4083353
-0.173573 -0.119600 0.644000 3820947
-0.173843 -0.116100 0.645000 3623063
-0.174651 -0.112937 0.648000 3557778
-0.175190 -0.109571 0.650000 3490963
-0.175730 -0.106183 0.652000 3622032
-0.175999 -0.102614 0.653000 3359887
-0.176808 -0.099337 0.656000 6260651
-0.177077 -0.095734 0.657000 7774434
-0.177347 -0.092120 0.658000 6460609
-0.178155 -0.088763 0.661000 6378381
-0.179233 -0.085500 0.665000 10916483
-0.179503 -0.081823 0.666000 10321770
-0.180311 -0.078369 0.669000 13681015
-0.180311 -0.074546 0.669000 8082817
-0.180850 -0.070934 0.671000 4733586
-0.181659 -0.067400 0.674000 3162002
-0.182198 -0.063737 0.676000 3556240
-0.182198 -0.059874 0.676000 3424656
-0.183276 -0.056343 0.680000 3687313
-0.183815 -0.052611 0.682000 3425425
-0.184354 -0.048857 0.684000 3359117
-0.184893 -0.045080 0.686000 3424910
-0.185702 -0.041340 0.689000 3622034
-0.185971 -0.037457 0.690000 4869268
-0.186780 -0.033660 0.693000 4081555
-0.187319 -0.029786 0.695000 4212111
-0.187858 -0.025889 0.697000 4934543
-0.188667 -0.022000 0.700000 5527445
-0.189475 -0.018077 0.703000 5001373
-0.189745 -0.014080 0.704000 4607128
-0.190553 -0.010100 0.707000 5988759
-0.190823 -0.006069 0.708000 5201310
-0.191362 -0.002029 0.710000 4607895
-0.191631 0.002031 0.711000 5265559
-0.192440 0.006120 0.714000 4476309
-0.193249 0.010243 0.717000 4805267
-0.175290 -0.215214 0.655000 9940664
-0.175558 -0.211794 0.656000 396961
-0.175558 -0.208046 0.656000 16318203
-0.173952 -0.202429 0.650000 16315897
-0.171811 -0.196269 0.642000 16313588
-0.171544 -0.192300 0.641000 12564451
-0.163783 -0.180103 0.612000 8090787
-0.164050 -0.176894 0.613000 8292260
-0.164318 -0.173674 0.614000 9410477
-0.164586 -0.170443 0.615000 9210279
-0.165389 -0.167743 0.618000 8946596
-0.165924 -0.164743 0.620000 8816804
-0.166727 -0.161980 0.623000 8290213
-0.166727 -0.158420 0.623000 8027553
-0.167530 -0.155606 0.626000 7371166
-0.168065 -0.152514 0.628000 6778523
-0.168332 -0.149163 0.629000 6449822
-0.168868 -0.146031 0.631000 5857435
-0.169135 -0.142651 0.632000 5660824
-0.169403 -0.139260 0.633000 5133974
-0.169938 -0.136071 0.635000 4936853
-0.170741 -0.133069 0.638000 3821968
-0.171009 -0.129626 0.639000 4345489
-0.171276 -0.126171 0.640000 4149139
-0.171811 -0.122897 0.642000 3952021
-0.172614 -0.119786 0.645000 3820690
-0.172882 -0.116280 0.646000 3754133
-0.173417 -0.112937 0.648000 3557520
-0.174755 -0.110077 0.653000 3359122
-0.174755 -0.106346 0.653000 3490702
-0.175290 -0.102929 0.655000 3096975
-0.175826 -0.099489 0.657000 7493784
-0.176093 -0.095880 0.658000 13480920
-0.176629 -0.092400 0.660000 11502011
-0.177431 -0.089031 0.663000 5607582
-0.178234 -0.085629 0.666000 11696247
-0.178502 -0.081946 0.667000 11964032
-0.179037 -0.078369 0.669000 13872759
-0.179305 -0.074657 0.670000 4289426
-0.180375 -0.071251 0.674000 2701714
-0.180643 -0.067500 0.675000 3423887
-0.181446 -0.063926 0.678000 3556241
-0.181713 -0.060140 0.679000 3489680
-0.182516 -0.056509 0.682000 3818129
-0.182784 -0.052689 0.683000 3425426
-0.183587 -0.049000 0.686000 3162768
-0.183854 -0.045146 0.687000 3424656
-0.184657 -0.041400 0.690000 3687827
-0.184925 -0.037511 0.691000 4411033
-0.185728 -0.033709 0.694000 3556498
-0.186530 -0.029871 0.697000 3687826
-0.186798 -0.025926 0.698000 5066900
-0.187601 -0.022031 0.701000 5789075
-0.188136 -0.018077 0.703000 4870550
-0.188671 -0.014100 0.705000 4540565
-0.189474 -0.010114 0.708000 6774422
-0.190010 -0.006086 0.710000 5003420
-0.190812 -0.002037 0.713000 4279959
-0.190812 0.002037 0.713000 4608148
-0.191615 0.006137 0.716000 3886741
-0.191883 0.010243 0.717000 4608404
-0.174043 -0.215214 0.655000 8950179
-0.174574 -0.212117 0.657000 1769900
-0.174309 -0.208046 0.656000 16514558
-0.173246 -0.203051 0.652000 16315641
-0.170323 -0.195963 0.641000 16314356
-0.170589 -0.192600 0.642000 10397149
-0.162883 -0.180397 0.613000 9143714
-0.163149 -0.177183 0.614000 10534316
-0.163414 -0.173957 0.615000 11251894
-0.163680 -0.170720 0.616000 9602728
-0.164477 -0.168014 0.619000 9671587
-0.165274 -0.165274 0.622000 8818594
-0.165540 -0.161980 0.623000 8354982
-0.166071 -0.158929 0.625000 8158368
-0.166337 -0.155606 0.626000 7239836
-0.166869 -0.152514 0.628000 6712474
-0.167666 -0.149637 0.631000 6318747
-0.167666 -0.146031 0.631000 5726362
-0.167931 -0.142651 0.632000 5529239
-0.168463 -0.139480 0.634000 5002903
-0.168994 -0.136286 0.636000 4805781
-0.169791 -0.133277 0.639000 4083602
-0.170057 -0.129829 0.640000 4279953
-0.170323 -0.126369 0.641000 4017555
-0.171120 -0.123280 0.644000 3886224
-0.171651 -0.119971 0.646000 3755154
-0.171917 -0.116460 0.647000 3622802
-0.172714 -0.113286 0.650000 3557518
-0.173511 -0.110077 0.653000 3359632
-0.174043 -0.106671 0.655000 3556237
-0.174043 -0.102929 0.655000 3228046
-0.174574 -0.099489 0.657000 3873669
-0.174840 -0.095880 0.658000 9534669
-0.175637 -0.092540 0.661000 5778869
-0.176169 -0.089031 0.663000 6325422
-0.176966 -0.085629 0.666000 7890796
-0.177763 -0.082191 0.669000 10723478
-0.178029 -0.078486 0.670000 10390392
-0.178029 -0.074657 0.670000 7905699
-0.179091 -0.071251 0.674000 2570387
-0.179623 -0.067600 0.676000 3359115
-0.180154 -0.063926 0.678000 3425938
-0.180686 -0.060229 0.680000 3359120
-0.181483 -0.056591 0.683000 3686802
-0.181749 -0.052766 0.684000 3359379
-0.182280 -0.049000 0.686000 3162515
-0.183077 -0.045277 0.689000 3621522
-0.183609 -0.041460 0.691000 4081045
-0.184140 -0.037620 0.693000 4872605
-0.184671 -0.033757 0.695000 3752850
-0.185469 -0.029914 0.698000 4213141
-0.186000 -0.026000 0.700000 5596569
-0.186266 -0.022031 0.701000 5264017
-0.187063 -0.018103 0.704000 4147087
-0.187860 -0.014140 0.707000 4410258
-0.188657 -0.010143 0.710000 6316182
-0.188923 -0.006094 0.711000 4606617
-0.189720 -0.002040 0.714000 4213911
-0.190251 0.002046 0.716000 4411024
-0.190251 0.006137 0.716000 4214421
-0.191049 0.010271 0.719000 4608660
-0.173323 -0.215871 0.657000 7967151
-0.173323 -0.212117 0.657000 3090856
-0.173059 -0.208046 0.656000 16711422
-0.172004 -0.203051 0.652000 16315640
-0.169366 -0.196269 0.642000 16314103
-0.169366 -0.192600 0.642000 8230874
-0.161715 -0.180397 0.613000 10124448
-0.162243 -0.177471 0.615000 12693925
-0.162507 -0.174240 0.616000 13083051
-0.162770 -0.170997 0.617000 9999786
-0.163298 -0.168014 0.619000 10460321
-0.164090 -0.165274 0.622000 8751270
-0.164617 -0.162240 0.624000 8485287
-0.164881 -0.158929 0.625000 8225703
-0.165409 -0.155854 0.627000 7108765
-0.165936 -0.152757 0.629000 6580634
-0.166464 -0.149637 0.631000 6187418
-0.166991 -0.146494 0.633000 5594776
-0.166991 -0.142877 0.633000 5332373
-0.167519 -0.139700 0.635000 4806294
-0.168310 -0.136714 0.638000 4739988
-0.168838 -0.133486 0.640000 4280465
-0.169102 -0.130031 0.641000 4214417
-0.169366 -0.126566 0.642000 3885970
-0.170157 -0.123471 0.645000 3819918
-0.170949 -0.120343 0.648000 3623313
-0.170949 -0.116640 0.648000 3491474
-0.172004 -0.113634 0.652000 3491471
-0.172795 -0.110414 0.655000 3359632
-0.172795 -0.106671 0.655000 3556238
-0.173059 -0.103086 0.656000 3358863
-0.173323 -0.099489 0.657000 207751
-0.174114 -0.096171 0.660000 5678039
-0.174642 -0.092680 0.662000 81576
-0.174906 -0.089031 0.663000 7055275
-0.175961 -0.085757 0.667000 4016249
-0.176489 -0.082191 0.669000 9536140
-0.176752 -0.078486 0.670000 6837115
-0.177016 -0.074769 0.671000 11514011
-0.178071 -0.071357 0.675000 2375315
-0.178335 -0.067600 0.676000 3359118
-0.179127 -0.064020 0.679000 3294352
-0.179390 -0.060229 0.680000 3228560
-0.180446 -0.056674 0.684000 3556242
-0.180973 -0.052920 0.686000 3293331
-0.181237 -0.049071 0.687000 3162768
-0.182029 -0.045343 0.690000 3818899
-0.182292 -0.041460 0.691000 4409235
-0.183084 -0.037674 0.694000 5400474
-0.183875 -0.033854 0.697000 3884434
-0.184667 -0.030000 0.700000 4672919
-0.184930 -0.026037 0.701000 6052758
-0.185458 -0.022094 0.703000 4803727
-0.185986 -0.018129 0.705000 3361937
-0.186777 -0.014160 0.708000 4279957
-0.187305 -0.010143 0.710000 5857688
-0.187569 -0.006094 0.711000 4211348
-0.188888 -0.002046 0.716000 4082582
-0.189151 0.002049 0.717000 4213907
-0.189151 0.006146 0.717000 4476564
-0.189679 0.010271 0.719000 4608659
-0.172333 -0.216200 0.658000 6845627
-0.172333 -0.212440 0.658000 6881701
-0.172071 -0.208363 0.657000 16580094
-0.171024 -0.203363 0.653000 16315639
-0.168143 -0.196269 0.642000 15855354
-0.168143 -0.192600 0.642000 8226007
-0.160810 -0.180691 0.614000 9536157
-0.161071 -0.177471 0.615000 10789278
-0.161333 -0.174240 0.616000 10916767
-0.161595 -0.170997 0.617000 9936299
-0.162381 -0.168286 0.620000 10130846
-0.163429 -0.165806 0.624000 8814250
-0.163429 -0.162240 0.624000 8553639
-0.163952 -0.159183 0.626000 8359599
-0.164476 -0.156103 0.628000 6777757
-0.164738 -0.152757 0.629000 6383515
-0.165524 -0.149874 0.632000 5923481
-0.166048 -0.146726 0.634000 5463191
-0.166310 -0.143329 0.635000 5200787
-0.167095 -0.140360 0.638000 4805781
-0.167095 -0.136714 0.638000 4608915
-0.167881 -0.133694 0.641000 4214673
-0.168143 -0.130234 0.642000 4148881
-0.168667 -0.126960 0.644000 3820177
-0.169190 -0.123663 0.646000 3754123
-0.169714 -0.120343 0.648000 3623056
-0.170238 -0.117000 0.650000 3491218
-0.171024 -0.113809 0.653000 3425424
-0.171548 -0.110414 0.655000 3359376
-0.171810 -0.106834 0.656000 3425424
-0.172071 -0.103243 0.657000 3359120
-0.172333 -0.099640 0.658000 992905
-0.173119 -0.096317 0.661000 8299489
-0.173643 -0.092820 0.663000 5933724
-0.174167 -0.089300 0.665000 5992103
-0.175214 -0.086014 0.669000 3488645
-0.175476 -0.082314 0.670000 5587585
-0.175738 -0.078603 0.671000 4722302
-0.176000 -0.074880 0.672000 7175058
-0.176786 -0.071357 0.675000 2767507
-0.177571 -0.067800 0.678000 3424656
-0.178095 -0.064114 0.680000 3358862
-0.178619 -0.060406 0.682000 3359631
-0.179143 -0.056674 0.684000 3687571
-0.179667 -0.052920 0.686000 3359378
-0.180452 -0.049214 0.689000 3621260
-0.180976 -0.045409 0.691000 4345748
-0.180976 -0.041460 0.691000 4081809
-0.182024 -0.037729 0.695000 4411031
-0.182810 -0.033903 0.698000 3949970
-0.183333 -0.030000 0.700000 4739992
-0.183595 -0.026037 0.701000 4999571
-0.184119 -0.022094 0.703000 4475276
-0.184643 -0.018129 0.705000 3821204
-0.185429 -0.014160 0.708000 4607640
-0.186214 -0.010157 0.711000 6450330
-0.186738 -0.006111 0.713000 4146575
-0.187524 -0.002046 0.716000 4017046
-0.187786 0.002049 0.717000 4082581
-0.188310 0.006163 0.719000 4476052
-0.171080 -0.216200 0.658000 5725113
-0.171080 -0.212440 0.658000 10640299
-0.170820 -0.208363 0.657000 16514814
-0.170300 -0.203986 0.655000 16314614
-0.166920 -0.196269 0.642000 15331576
-0.159900 -0.184500 0.615000 8227534
-0.159900 -0.180986 0.615000 8945826
-0.159900 -0.177471 0.615000 8818082
-0.160160 -0.174240 0.616000 8752804
-0.160420 -0.170997 0.617000 9801380
-0.161200 -0.168286 0.620000 9870243
-0.161980 -0.165540 0.623000 8882604
-0.162500 -0.162500 0.625000 8687524
-0.162760 -0.159183 0.626000 8422567
-0.163280 -0.156103 0.628000 6447773
-0.163540 -0.152757 0.629000 6186394
-0.164320 -0.149874 0.632000 5725336
-0.164580 -0.146494 0.633000 5331351
-0.165100 -0.143329 0.635000 5003156
-0.165880 -0.140360 0.638000 4805013
-0.166140 -0.136929 0.639000 4477331
-0.166920 -0.133903 0.642000 4083346
-0.167440 -0.130640 0.644000 4148626
-0.167440 -0.126960 0.644000 3689106
-0.168220 -0.123854 0.647000 3688333
-0.169000 -0.120714 0.650000 3556498
-0.169260 -0.117180 0.651000 3490961
-0.169780 -0.113809 0.653000 3359120
-0.170300 -0.110414 0.655000 3358864
-0.170560 -0.106834 0.656000 3294095
-0.171080 -0.103400 0.658000 3293585
-0.171600 -0.099943 0.660000 1779595
-0.171860 -0.096317 0.661000 10920355
-0.172900 -0.093100 0.665000 11769006
-0.173160 -0.089434 0.666000 4931479
-0.174200 -0.086143 0.670000 2963590
-0.174460 -0.082437 0.671000 1716613
-0.175240 -0.078954 0.674000 2566791
-0.175240 -0.075103 0.674000 2905999
-0.175760 -0.071463 0.676000 3158159
-0.176540 -0.067900 0.679000 3490192
-0.176800 -0.064114 0.680000 3359120
-0.177320 -0.060406 0.682000 3490703
-0.177840 -0.056674 0.684000 3818641
-0.178620 -0.052997 0.687000 3425170
-0.179400 -0.049286 0.690000 4081295
-0.179660 -0.045409 0.691000 4939668
-0.180180 -0.041580 0.693000 3688336
-0.181220 -0.037837 0.697000 3489942
-0.181480 -0.033903 0.698000 3950739
-0.182260 -0.030043 0.701000 4739222
-0.182260 -0.026037 0.701000 3885458
-0.183040 -0.022126 0.704000 4147348
-0.183820 -0.018180 0.707000 4280468
-0.184600 -0.014200 0.710000 4935320
-0.185380 -0.010186 0.713000 6972567
-0.185640 -0.006120 0.714000 4146064
-0.186420 -0.002049 0.717000 3951507
-0.186420 0.002049 0.717000 4016277
-0.187200 0.006171 0.720000 4410514
-0.169827 -0.216200 0.658000 5002166
-0.169827 -0.212440 0.658000 12025777
-0.169310 -0.208046 0.656000 16448510
-0.169052 -0.203986 0.655000 16249077
-0.165697 -0.196269 0.642000 15262454
-0.158729 -0.184500 0.615000 8750278
-0.158729 -0.180986 0.615000 9013670
-0.158987 -0.177760 0.616000 8946086
-0.159245 -0.174523 0.617000 8618921
-0.159761 -0.171551 0.619000 9009564
-0.160019 -0.168286 0.620000 9275559
-0.161051 -0.165806 0.624000 9088943
-0.161310 -0.162500 0.625000 8423584
-0.161826 -0.159437 0.627000 7960992
-0.162084 -0.156103 0.628000 6776220
-0.162858 -0.153243 0.631000 6252442
-0.163374 -0.150111 0.633000 5463191
-0.163632 -0.146726 0.634000 5330840
-0.163890 -0.143329 0.635000 4871572
-0.164665 -0.140360 0.638000 4607893
-0.164923 -0.136929 0.639000 4280467
-0.165439 -0.133694 0.641000 4017556
-0.166213 -0.130640 0.644000 3951762
-0.166213 -0.126960 0.644000 3688596
-0.166988 -0.123854 0.647000 3622798
-0.167246 -0.120343 0.648000 3556244
-0.168020 -0.117180 0.651000 3490448
-0.168536 -0.113809 0.653000 3358864
-0.169052 -0.110414 0.655000 3359120
-0.169310 -0.106834 0.656000 3359631
-0.169569 -0.103243 0.657000 4211346
-0.170601 -0.100094 0.661000 3020429
-0.171117 -0.096609 0.663000 6507877
-0.171891 -0.093240 0.666000 6911168
-0.172150 -0.089569 0.667000 2894982
-0.172924 -0.086143 0.670000 2045318
-0.173440 -0.082560 0.672000 1520521
-0.173956 -0.078954 0.674000 3096209
-0.174214 -0.075214 0.675000 3359372
-0.174989 -0.071674 0.678000 3292556
-0.175505 -0.068000 0.680000 3424400
-0.176021 -0.064303 0.682000 3425171
-0.176279 -0.060494 0.683000 3424910
-0.177053 -0.056840 0.686000 3490703
-0.177828 -0.053151 0.689000 3490705
-0.178344 -0.049357 0.691000 3950483
-0.178860 -0.045540 0.693000 4675219
-0.179118 -0.041640 0.694000 4015247
-0.179892 -0.037837 0.697000 3752596
-0.180667 -0.034000 0.700000 4278165
-0.181441 -0.030129 0.703000 4279956
-0.181699 -0.026149 0.704000 3950737
-0.181957 -0.022157 0.705000 4477083
-0.183248 -0.018257 0.710000 4477331
-0.184022 -0.014260 0.713000 5002135
-0.184022 -0.010186 0.713000 5987476
-0.184280 -0.006120 0.714000 4804753
-0.185570 -0.002054 0.719000 4081809
-0.185570 0.002054 0.719000 3885205
-0.186345 0.006189 0.722000 4279441
-0.168573 -0.216200 0.658000 4212142
-0.168573 -0.212440 0.658000 13406649
-0.168317 -0.208363 0.657000 16449278
-0.167805 -0.203986 0.655000 16183286
-0.166011 -0.198103 0.648000 15199225
-0.157813 -0.184800 0.616000 9280453
-0.157813 -0.181280 0.616000 9079975
-0.158070 -0.178049 0.617000 9077924
-0.158326 -0.174806 0.618000 8485789
-0.158582 -0.171551 0.619000 8225952
-0.159607 -0.169100 0.623000 8749221
-0.159863 -0.165806 0.624000 9280684
-0.160375 -0.162760 0.626000 8160159
-0.160631 -0.159437 0.627000 7503262
-0.161144 -0.156351 0.629000 7104923
-0.161912 -0.153486 0.632000 6317720
-0.162169 -0.150111 0.633000 5200791
-0.162425 -0.146726 0.634000 5265302
-0.162937 -0.143554 0.636000 4739989
-0.163450 -0.140360 0.638000 4411541
-0.163962 -0.137143 0.640000 4149139
-0.164474 -0.133903 0.642000 3951763
-0.164987 -0.130640 0.644000 3820690
-0.165243 -0.127157 0.645000 3622802
-0.165755 -0.123854 0.647000 3491471
-0.166524 -0.120714 0.650000 3555987
-0.167036 -0.117360 0.652000 3555728
-0.167292 -0.113809 0.653000 3359120
-0.168061 -0.110583 0.656000 3424400
-0.168317 -0.106997 0.657000 3359374
-0.168573 -0.103400 0.658000 5128852
-0.169342 -0.100094 0.661000 4283551
-0.170623 -0.097046 0.666000 2186400
-0.170879 -0.093380 0.667000 1985986
-0.170879 -0.089569 0.667000 863876
-0.171648 -0.086143 0.670000 1065610
-0.172160 -0.082560 0.672000 1384586
-0.172672 -0.078954 0.674000 3553421
-0.172929 -0.075214 0.675000 3816333
-0.173697 -0.071674 0.678000 3424653
-0.174722 -0.068200 0.682000 3358864
-0.174978 -0.064397 0.683000 3424657
-0.174978 -0.060494 0.683000 3359119
-0.175747 -0.056840 0.686000 3097232
-0.176515 -0.053151 0.689000 3556498
-0.177028 -0.049357 0.691000 3819153
-0.177540 -0.045540 0.693000 4412052
-0.178052 -0.041700 0.695000 4345489
-0.178821 -0.037891 0.698000 4014997
-0.179590 -0.034049 0.701000 4541845
-0.180358 -0.030171 0.704000 3755158
-0.180614 -0.026186 0.705000 3951250
-0.181383 -0.022251 0.708000 4805535
-0.182151 -0.018283 0.711000 4673687
-0.182664 -0.014260 0.713000 5067925
-0.182920 -0.010200 0.714000 5002134
-0.183432 -0.006137 0.716000 5462423
-0.184201 -0.002054 0.719000 4148883
-0.184457 0.002057 0.720000 3819415
-0.185738 0.006214 0.725000 4082835
-0.168337 -0.221297 0.662000 13350077
-0.168083 -0.217186 0.661000 3224486
-0.167829 -0.213086 0.660000 15055809
-0.167066 -0.208363 0.657000 16514045
-0.166049 -0.203363 0.653000 16183542
-0.164777 -0.198103 0.648000 15395579
-0.156894 -0.185100 0.617000 9678020
-0.156894 -0.181574 0.617000 8619176
-0.157149 -0.178337 0.618000 8946850
-0.157403 -0.175089 0.619000 9934481
-0.158166 -0.172383 0.622000 8755107
-0.158420 -0.169100 0.623000 8684706
-0.158929 -0.166071 0.625000 9348521
-0.159183 -0.162760 0.626000 7434909
-0.159691 -0.159691 0.628000 8030621
-0.159946 -0.156351 0.629000 6843545
-0.160963 -0.153729 0.633000 6055318
-0.161217 -0.150349 0.634000 5200279
-0.161471 -0.146957 0.635000 5461908
-0.162234 -0.144006 0.638000 4739990
-0.162489 -0.140580 0.639000 4607893
-0.162997 -0.137357 0.641000 4017811
-0.163760 -0.134320 0.644000 3951250
-0.164014 -0.130843 0.645000 3754386
-0.164269 -0.127354 0.646000 3622033
-0.164777 -0.124046 0.648000 3491472
-0.165540 -0.120900 0.651000 3425170
-0.165794 -0.117360 0.652000 3424656
-0.166557 -0.114157 0.655000 3293584
-0.167066 -0.110751 0.657000 3358863
-0.167320 -0.107160 0.658000 3359373
-0.168083 -0.103871 0.661000 4475286
-0.168591 -0.100397 0.663000 6001586
-0.169354 -0.097046 0.666000 7052762
-0.169609 -0.093380 0.667000 5802179
-0.170117 -0.089837 0.669000 4803713
-0.170626 -0.086271 0.671000 6981774
-0.170880 -0.082560 0.672000 5658506
-0.171897 -0.079189 0.676000 2896010
-0.171897 -0.075326 0.676000 3555214
-0.172660 -0.071780 0.679000 3424910
-0.173677 -0.068300 0.683000 3359120
-0.173931 -0.064491 0.684000 3424655
-0.173931 -0.060583 0.684000 3293584
-0.174694 -0.056923 0.687000 3163025
-0.175457 -0.053229 0.690000 3556242
-0.176220 -0.049500 0.693000 3883407
-0.176474 -0.045606 0.694000 5067157
-0.176729 -0.041700 0.695000 4809620
-0.177491 -0.037891 0.698000 4738710
-0.178000 -0.034000 0.700000 4542870
-0.179017 -0.030171 0.704000 4213655
-0.179271 -0.026186 0.705000 4607892
-0.180034 -0.022251 0.708000 5200546
-0.180543 -0.018257 0.710000 4476571
-0.181306 -0.014260 0.713000 4673683
-0.181560 -0.010200 0.714000 4606617
-0.182323 -0.006146 0.717000 4937116
-0.182831 -0.002054 0.719000 4017812
-0.183086 0.002057 0.720000 3819672
-0.184357 0.006214 0.725000 4082838
-0.167076 -0.221297 0.662000 13349568
-0.166824 -0.217186 0.661000 2165917
-0.166571 -0.213086 0.660000 16695245
-0.165562 -0.208046 0.656000 16514300
-0.164805 -0.203363 0.653000 16117495
-0.163543 -0.198103 0.648000 15592438
-0.155719 -0.185100 0.617000 10000312
-0.155719 -0.181574 0.617000 8224932
-0.156224 -0.178626 0.619000 8816545
-0.156476 -0.175371 0.620000 11381653
-0.157486 -0.172937 0.624000 9281957
-0.157486 -0.169371 0.624000 8685219
-0.157738 -0.166071 0.625000 9340835
-0.158243 -0.163020 0.627000 6710941
-0.158748 -0.159946 0.629000 8555421
-0.159252 -0.156849 0.631000 6647191
-0.160010 -0.153971 0.634000 5791895
-0.160262 -0.150586 0.635000 5265046
-0.160514 -0.147189 0.636000 5592723
-0.161271 -0.144231 0.639000 4673940
-0.161271 -0.140580 0.639000 4739476
-0.162029 -0.137571 0.642000 3951763
-0.162786 -0.134529 0.645000 3885711
-0.162786 -0.130843 0.645000 3688338
-0.163038 -0.127354 0.646000 3556752
-0.164048 -0.124429 0.650000 3426191
-0.164552 -0.121086 0.652000 3228561
-0.164805 -0.117540 0.653000 3358864
-0.165310 -0.114157 0.655000 3162512
-0.165814 -0.110751 0.657000 3358349
-0.166067 -0.107160 0.658000 3293325
-0.167076 -0.104029 0.662000 3747220
-0.167833 -0.100700 0.665000 7622298
-0.168338 -0.097191 0.667000 11898536
-0.168843 -0.093660 0.669000 9593512
-0.169095 -0.089971 0.670000 8748686
-0.169600 -0.086400 0.672000 12822914
-0.170357 -0.082929 0.675000 9938056
-0.170610 -0.079189 0.676000 2188438
-0.171114 -0.075549 0.678000 3293324
-0.172124 -0.072097 0.682000 3359376
-0.172376 -0.068300 0.683000 3293584
-0.172629 -0.064491 0.684000 3359120
-0.173133 -0.060760 0.686000 3228048
-0.173890 -0.057089 0.689000 3228305
-0.174143 -0.053229 0.690000 3556243
-0.175152 -0.049571 0.694000 3884177
-0.175405 -0.045671 0.695000 5788562
-0.176162 -0.041880 0.698000 5266579
-0.176667 -0.038000 0.700000 5459605
-0.177424 -0.034146 0.703000 4477075
-0.177929 -0.030214 0.705000 4736662
-0.178433 -0.026260 0.707000 5199253
-0.179190 -0.022314 0.710000 5661850
-0.179190 -0.018257 0.710000 4279193
-0.179948 -0.014260 0.713000 4344720
-0.180705 -0.010229 0.716000 4213654
-0.180957 -0.006146 0.717000 4477338
-0.181462 -0.002054 0.719000 3820948
-0.182219 0.002063 0.722000 3885206
-0.182976 0.006214 0.725000 4082323
-0.165815 -0.221297 0.662000 13287876
-0.166066 -0.217843 0.663000 2955155
-0.165565 -0.213409 0.661000 16710873
-0.164813 -0.208680 0.658000 16513530
-0.163561 -0.203363 0.653000 16116471
-0.162810 -0.198714 0.650000 13814768
-0.154794 -0.185400 0.618000 9140909
-0.154794 -0.181869 0.618000 9473183
-0.155295 -0.178914 0.620000 9802399
-0.156297 -0.176503 0.624000 11313305
-0.156548 -0.173214 0.625000 9808040
-0.156548 -0.169643 0.625000 8356259
-0.156798 -0.166337 0.626000 8023710
-0.157299 -0.163280 0.628000 6908573
-0.158050 -0.160454 0.631000 8559262
-0.158551 -0.157346 0.633000 6120596
-0.159052 -0.154214 0.635000 5594776
-0.159303 -0.150823 0.636000 4936853
-0.159804 -0.147651 0.638000 5330577
-0.160054 -0.144231 0.639000 4542609
-0.160305 -0.140800 0.640000 5001875
-0.160806 -0.137571 0.642000 4017042
-0.161557 -0.134529 0.645000 3754637
-0.162058 -0.131249 0.647000 3557266
-0.162309 -0.127749 0.648000 3556751
-0.163060 -0.124620 0.651000 3359886
-0.163561 -0.121271 0.653000 3162768
-0.163561 -0.117540 0.653000 3227792
-0.164312 -0.114331 0.656000 3162512
-0.164813 -0.110920 0.658000 3293066
-0.165314 -0.107486 0.660000 3161998
-0.166066 -0.104186 0.663000 5915281
-0.166817 -0.100851 0.666000 5898626
-0.167068 -0.097191 0.667000 6174837
-0.167569 -0.093660 0.669000 4930188
-0.168070 -0.090106 0.671000 9740699
-0.168821 -0.086657 0.674000 10135926
-0.169322 -0.083051 0.676000 10661509
-0.169322 -0.079189 0.676000 7445665
-0.169823 -0.075549 0.678000 2636170
-0.170825 -0.072097 0.682000 3359122
-0.171326 -0.068400 0.684000 3359120
-0.171827 -0.064680 0.686000 3358864
-0.171827 -0.060760 0.686000 3293584
-0.172829 -0.057171 0.690000 3424656
-0.173079 -0.053306 0.691000 3753108
-0.173830 -0.049571 0.694000 3753363
-0.174582 -0.045803 0.697000 4870031
-0.175333 -0.042000 0.700000 4805522
-0.175584 -0.038054 0.701000 4541588
-0.176335 -0.034194 0.704000 4080528
-0.177087 -0.030300 0.707000 4475284
-0.177337 -0.026297 0.708000 5331095
-0.178089 -0.022346 0.711000 5134738
-0.178089 -0.018283 0.711000 4081558
-0.178590 -0.014260 0.713000 4081549
-0.179591 -0.010243 0.717000 4017300
-0.180092 -0.006163 0.719000 4148375
-0.180343 -0.002057 0.720000 3689364
-0.181094 0.002066 0.723000 3885203
-0.181846 0.006223 0.726000 4016529
-0.164803 -0.221631 0.663000 13214914
-0.164803 -0.217843 0.663000 3738763
-0.164554 -0.213731 0.662000 16706779
-0.163560 -0.208680 0.658000 16512248
-0.162814 -0.203986 0.655000 16051703
-0.161571 -0.198714 0.650000 11974122
-0.153866 -0.185700 0.619000 8225456
-0.153866 -0.182163 0.619000 10787753
-0.154860 -0.179780 0.623000 10791848
-0.155357 -0.176786 0.625000 11245216
-0.155606 -0.173491 0.626000 10329511
-0.155357 -0.169643 0.625000 8027044
-0.156103 -0.166869 0.628000 6647709
-0.156849 -0.164060 0.631000 7170971
-0.157097 -0.160709 0.632000 8550810
-0.157594 -0.157594 0.634000 5658519
-0.157843 -0.154214 0.635000 5397143
-0.158589 -0.151297 0.638000 4608150
-0.158837 -0.147883 0.639000 5002387
-0.159086 -0.144457 0.640000 4411023
-0.159334 -0.141020 0.641000 5198491
-0.160080 -0.138000 0.644000 4082068
-0.160577 -0.134737 0.646000 3623055
-0.161074 -0.131451 0.648000 3490961
-0.161074 -0.127749 0.648000 3556751
-0.162069 -0.124811 0.652000 3228045
-0.162317 -0.121271 0.653000 3097230
-0.162814 -0.117900 0.655000 3096719
-0.163063 -0.114331 0.656000 3096978
-0.163560 -0.110920 0.658000 3227790
-0.164306 -0.107649 0.661000 3030926
-0.165300 -0.104500 0.665000 8097189
-0.165549 -0.100851 0.666000 4222382
-0.166294 -0.097483 0.669000 544936
-0.166543 -0.093800 0.670000 209309
-0.167040 -0.090240 0.672000 10669718
-0.167537 -0.086657 0.674000 7425145
-0.168034 -0.083051 0.676000 11435605
-0.168531 -0.079423 0.678000 12687261
-0.168780 -0.075660 0.679000 1913482
-0.169774 -0.072203 0.683000 3358865
-0.170023 -0.068400 0.684000 3424656
-0.170520 -0.064680 0.686000 3358864
-0.171266 -0.061026 0.689000 3424656
-0.171514 -0.057171 0.690000 3621522
-0.172260 -0.053460 0.693000 3884444
-0.172757 -0.049643 0.695000 3622035
-0.173503 -0.045869 0.698000 4017552
-0.174000 -0.042000 0.700000 4279184
-0.174249 -0.038054 0.701000 3624085
-0.174994 -0.034194 0.704000 3687314
-0.175740 -0.030300 0.707000 4278420
-0.175989 -0.026297 0.708000 5461909
-0.176734 -0.022346 0.711000 4610198
-0.176734 -0.018283 0.711000 3818902
-0.177480 -0.014280 0.714000 3819153
-0.178226 -0.010243 0.717000 3819924
-0.178971 -0.006171 0.720000 3884693
-0.179717 -0.002066 0.723000 3557779
-0.180214 0.002071 0.725000 3884691
-0.165020 -0.223637 0.669000 11316160
-0.164033 -0.218500 0.665000 4855938
-0.163293 -0.213731 0.662000 16711390
-0.162800 -0.209314 0.660000 16381174
-0.161813 -0.204297 0.656000 16051191
-0.160333 -0.198714 0.650000 12696292
-0.152687 -0.185700 0.619000 9671092
-0.152933 -0.182457 0.620000 10658227
-0.153673 -0.179780 0.623000 12044976
-0.154167 -0.176786 0.625000 11053478
-0.154413 -0.173491 0.626000 8749479
-0.154660 -0.170186 0.627000 7961764
-0.155647 -0.167666 0.631000 6712477
-0.155647 -0.164060 0.631000 6843801
-0.155893 -0.160709 0.632000 6971287
-0.156387 -0.157594 0.634000 5659545
-0.156880 -0.154457 0.636000 5331863
-0.157373 -0.151297 0.638000 4673943
-0.157867 -0.148114 0.640000 4740246
-0.158113 -0.144683 0.641000 4345229
-0.158360 -0.141240 0.642000 6510243
-0.158853 -0.138000 0.644000 4016534
-0.159593 -0.134946 0.647000 3688337
-0.160333 -0.131857 0.650000 3556751
-0.160827 -0.128537 0.652000 3425680
-0.161073 -0.125003 0.653000 3228043
-0.161567 -0.121643 0.655000 3097484
-0.161567 -0.117900 0.655000 3227789
-0.162060 -0.114506 0.657000 3096980
-0.162800 -0.111257 0.660000 3096721
-0.163293 -0.107811 0.662000 3291789
-0.164033 -0.104500 0.665000 7636664
-0.164527 -0.101003 0.667000 7720666
-0.165020 -0.097483 0.669000 6393051
-0.165513 -0.093940 0.671000 202158
-0.166253 -0.090509 0.674000 10988433
-0.166747 -0.086914 0.676000 7143804
-0.167487 -0.083420 0.679000 9127973
-0.167240 -0.079423 0.678000 12568728
-0.167487 -0.075660 0.679000 1978505
-0.168473 -0.072203 0.683000 3358864
-0.169213 -0.068600 0.686000 3358864
-0.169460 -0.064774 0.687000 3227791
-0.170200 -0.061114 0.690000 3359120
-0.170940 -0.057420 0.693000 3949460
-0.171187 -0.053537 0.694000 4541348
-0.171927 -0.049786 0.697000 3425427
-0.172667 -0.046000 0.700000 3819153
-0.172913 -0.042060 0.701000 4146575
-0.173407 -0.038163 0.703000 3885974
-0.173900 -0.034243 0.705000 3359893
-0.174640 -0.030343 0.708000 4016020
-0.175133 -0.026371 0.710000 5264788
-0.175380 -0.022346 0.711000 4212889
-0.175873 -0.018334 0.713000 4081302
-0.176613 -0.014320 0.716000 3819924
-0.177353 -0.010271 0.719000 3950484
-0.178093 -0.006189 0.722000 3753874
-0.178833 -0.002071 0.725000 3688851
-0.179080 0.002074 0.726000 3819667
-0.163746 -0.223637 0.669000 9408954
-0.162767 -0.218500 0.665000 6031746
-0.162032 -0.213731 0.662000 16710118
-0.161543 -0.209314 0.660000 16315126
-0.160319 -0.203986 0.655000 15985912
-0.158606 -0.198103 0.648000 13351398
-0.151508 -0.185700 0.619000 11116975
-0.151752 -0.182457 0.620000 10523567
-0.152731 -0.180069 0.624000 13283498
-0.152976 -0.176786 0.625000 10924453
-0.153221 -0.173491 0.626000 7176870
-0.153710 -0.170457 0.628000 7962788
-0.154690 -0.167931 0.632000 6712478
-0.154690 -0.164320 0.632000 6581657
-0.154934 -0.160963 0.633000 5398164
-0.155179 -0.157594 0.634000 5659799
-0.155669 -0.154457 0.636000 5200533
-0.156158 -0.151297 0.638000 4805013
-0.156648 -0.148114 0.640000 4477589
-0.157137 -0.144909 0.642000 4279439
-0.157137 -0.141240 0.642000 7823001
-0.157871 -0.138214 0.645000 4014483
-0.158606 -0.135154 0.648000 3688336
-0.159340 -0.132060 0.651000 3556496
-0.159585 -0.128537 0.652000 3294353
-0.160319 -0.125386 0.655000 3162254
-0.160564 -0.121829 0.656000 3031437
-0.160564 -0.118080 0.656000 3293581
-0.161053 -0.114680 0.658000 3096721
-0.161788 -0.111426 0.661000 3030929
-0.162277 -0.107974 0.663000 3488142
-0.163011 -0.104657 0.666000 7167646
-0.163256 -0.101003 0.667000 11104934
-0.163990 -0.097629 0.670000 12215720
-0.164480 -0.094080 0.672000 205726
-0.164970 -0.090509 0.674000 11389317
-0.165459 -0.086914 0.676000 6912136
-0.166193 -0.083420 0.679000 6851163
-0.166193 -0.079540 0.679000 12360078
-0.166928 -0.075994 0.682000 2045322
-0.167417 -0.072309 0.684000 3293329
-0.167907 -0.068600 0.686000 3358864
-0.168641 -0.064963 0.689000 3096720
-0.169130 -0.061203 0.691000 3359120
-0.169865 -0.057503 0.694000 4211858
-0.170110 -0.053614 0.695000 5201053
-0.170599 -0.049786 0.697000 3228304
-0.171333 -0.046000 0.700000 3621264
-0.171578 -0.042060 0.701000 3950226
-0.172312 -0.038217 0.704000 4214429
-0.172557 -0.034243 0.705000 3032982
-0.173291 -0.030343 0.708000 3753367
-0.174026 -0.026409 0.711000 5068437
-0.174515 -0.022409 0.713000 3883416
-0.174515 -0.018334 0.713000 4279706
-0.175494 -0.014340 0.717000 3885719
-0.176229 -0.010286 0.720000 4081301
-0.176718 -0.006189 0.722000 3688083
-0.177452 -0.002071 0.725000 3819410
-0.178187 0.002080 0.728000 3819922
-0.161986 -0.222969 0.667000 8491956
-0.161743 -0.218829 0.666000 6630018
-0.161014 -0.214054 0.663000 16711406
-0.160286 -0.209314 0.660000 16315638
-0.159557 -0.204609 0.657000 15984632
-0.150329 -0.189237 0.619000 13552871
-0.150571 -0.186000 0.620000 11578794
-0.151057 -0.183046 0.622000 11181482
-0.151543 -0.180069 0.624000 11572900
-0.151786 -0.176786 0.625000 10786979
-0.152271 -0.173769 0.627000 9212837
-0.152757 -0.170729 0.629000 7832739
-0.153486 -0.167931 0.632000 6579614
-0.153729 -0.164580 0.633000 6318745
-0.153971 -0.161217 0.634000 5462161
-0.154214 -0.157843 0.635000 5528725
-0.154943 -0.154943 0.638000 5134996
-0.155186 -0.151534 0.639000 4739474
-0.155671 -0.148346 0.641000 4346516
-0.155914 -0.144909 0.642000 4148369
-0.156400 -0.141680 0.644000 5724048
-0.156643 -0.138214 0.645000 3687567
-0.157857 -0.135571 0.650000 3557519
-0.158343 -0.132263 0.652000 3490704
-0.159071 -0.129129 0.655000 3294098
-0.159314 -0.125577 0.656000 3227792
-0.159557 -0.122014 0.657000 3162511
-0.159557 -0.118260 0.657000 3293325
-0.159800 -0.114680 0.658000 3096207
-0.160771 -0.111594 0.662000 3227536
-0.161014 -0.107974 0.663000 4144014
-0.161743 -0.104657 0.666000 6174084
-0.161986 -0.101003 0.667000 6619506
-0.162714 -0.097629 0.670000 6766197
-0.163686 -0.094360 0.674000 1512591
-0.163929 -0.090643 0.675000 10267257
-0.164657 -0.087171 0.678000 10149781
-0.164900 -0.083420 0.679000 10201489
-0.165143 -0.079657 0.680000 8424325
-0.165871 -0.076106 0.683000 2438794
-0.166600 -0.072520 0.686000 3293074
-0.166843 -0.068700 0.687000 3358864
-0.167571 -0.065057 0.690000 3228049
-0.168300 -0.061380 0.693000 3359120
-0.168543 -0.057503 0.694000 3817872
-0.168786 -0.053614 0.695000 4541077
-0.169271 -0.049786 0.697000 3358862
-0.170000 -0.046000 0.700000 3556239
-0.170729 -0.042180 0.703000 4081813
-0.171214 -0.038271 0.705000 4740259
-0.171700 -0.034340 0.707000 4148376
-0.172429 -0.030429 0.710000 3753881
-0.172671 -0.026409 0.711000 4676245
