# .PCD v.7 - Point Cloud Data file format
VERSION .7
FIELDS x y z rgb
SIZE 4 4 4 4
TYPE F F F I
COUNT 1 1 1 1
WIDTH 1311
HEIGHT 1
POINTS 1311
DATA ascii
-0.188362 0.062000 0.620000 6168949
-0.189273 0.065860 0.623000 6968473
-0.189273 0.069420 0.623000 8609680
-0.190489 0.073449 0.627000 7421017
-0.243939 -0.053097 0.808000 7157857
-0.240618 -0.047820 0.797000 6111075
-0.237297 -0.042669 0.786000 5651306
-0.236693 -0.038080 0.784000 4211044
-0.231863 -0.032914 0.768000 4079972
-0.228844 -0.028154 0.758000 3883873
-0.227334 -0.023666 0.753000 5199205
-0.226429 -0.019286 0.750000 5592681
-0.223410 -0.014800 0.740000 5725035
-0.217975 -0.006189 0.722000 5658219
-0.217070 -0.002054 0.719000 5725544
-0.215560 0.002040 0.714000 4870250
0.001914 0.008295 0.670000 3158139
-0.209220 0.009900 0.693000 4867953
0.001891 0.011979 0.662000 2832256
-0.208012 0.013780 0.689000 5854311
0.001880 0.015667 0.658000 2766720
-0.207107 0.017640 0.686000 6377316
0.001866 0.019279 0.653000 3029375
-0.205899 0.021434 0.682000 5988461
0.001846 0.022764 0.646000 3159421
-0.201974 0.024849 0.669000 5658723
0.001834 0.026291 0.642000 6705806
-0.201370 0.028586 0.667000 5855602
0.001831 0.029913 0.641000 14208217
-0.199861 0.032154 0.662000 5919591
0.001834 0.033629 0.642000 13879263
-0.196842 0.035394 0.652000 5660021
0.001843 0.037471 0.645000 14207201
-0.195332 0.038820 0.647000 6444655
0.001849 0.041285 0.647000 14470887
-0.193521 0.042123 0.641000 5725560
0.001851 0.045051 0.648000 14668784
-0.192917 0.045643 0.639000 6382463
-0.189898 0.048523 0.629000 6250621
-0.188690 0.051786 0.625000 5724277
-0.187785 0.055091 0.622000 8284026
-0.186879 0.058363 0.619000 7755381
-0.187181 0.062000 0.620000 9471659
-0.188087 0.065860 0.623000 10068924
-0.188389 0.069531 0.624000 10130615
-0.189294 0.073449 0.627000 6315927
-0.240600 -0.052703 0.802000 4596569
-0.239100 -0.047820 0.797000 4266584
-0.236400 -0.042777 0.788000 4405086
-0.235200 -0.038080 0.784000 4205158
-0.230400 -0.032914 0.768000 4802667
-0.228000 -0.028229 0.760000 4081259
-0.225900 -0.023666 0.753000 5396077
-0.224100 -0.019209 0.747000 5789808
-0.222000 -0.014800 0.740000 6053742
-0.220200 -0.010486 0.734000 6778233
-0.216600 -0.006189 0.722000 6316399
-0.215100 -0.002049 0.717000 6252659
-0.214200 0.002040 0.714000 6251888
-0.212400 0.006069 0.708000 5595244
0.003186 0.008283 0.669000 1714551
-0.208200 0.009914 0.694000 6382966
0.003152 0.011979 0.662000 2634626
-0.207000 0.013800 0.690000 6384752
0.003133 0.015667 0.658000 2963328
-0.205800 0.017640 0.686000 6775921
0.003119 0.019338 0.655000 3029375
-0.204600 0.021434 0.682000 6384501
0.003081 0.022799 0.647000 3225215
-0.201000 0.024886 0.670000 6383476
0.003057 0.026291 0.642000 6906255
-0.199500 0.028500 0.665000 6580599
0.003052 0.029913 0.641000 14009816
-0.198000 0.032057 0.660000 6514295
0.003057 0.033629 0.642000 13483228
-0.195600 0.035394 0.652000 6252926
0.003071 0.037471 0.645000 13877468
-0.194100 0.038820 0.647000 6645117
0.003081 0.041285 0.647000 14271969
-0.193200 0.042320 0.644000 6186630
0.003086 0.045051 0.648000 14931697
-0.191700 0.045643 0.639000 6645389
-0.188700 0.048523 0.629000 6317702
-0.187800 0.051869 0.626000 5988223
-0.186600 0.055091 0.622000 6706296
-0.185400 0.058269 0.618000 9536916
-0.186000 0.062000 0.620000 11451617
-0.186900 0.065860 0.623000 11712735
-0.187200 0.069531 0.624000 11713501
-0.238476 -0.052571 0.800000 2110310
-0.236986 -0.047700 0.795000 2371680
-0.234899 -0.042777 0.788000 3162473
-0.231620 -0.037740 0.777000 4142441
-0.228937 -0.032914 0.768000 5527910
-0.226552 -0.028229 0.760000 4214388
-0.224466 -0.023666 0.753000 5593199
-0.222081 -0.019157 0.745000 5921394
-0.220292 -0.014780 0.739000 6448247
-0.218206 -0.010457 0.732000 7627639
-0.215225 -0.006189 0.722000 6972786
-0.213734 -0.002049 0.717000 6712186
-0.212542 0.002037 0.713000 7695734
-0.210157 0.006043 0.705000 6712695
0.004460 0.008283 0.669000 279696
-0.206878 0.009914 0.694000 7963011
0.004413 0.011979 0.662000 2369919
-0.205686 0.013800 0.690000 6843764
0.004380 0.015643 0.657000 3094398
-0.204493 0.017640 0.686000 7171448
0.004353 0.019279 0.653000 3029888
-0.202705 0.021371 0.680000 6712184
0.004313 0.022799 0.647000 3224960
-0.199724 0.024886 0.670000 7105916
0.004280 0.026291 0.642000 7100816
-0.197637 0.028414 0.663000 7301753
0.004273 0.029913 0.641000 13745614
-0.196743 0.032057 0.660000 7106168
0.004293 0.033733 0.644000 13089225
-0.194358 0.035394 0.652000 6843520
0.004293 0.037413 0.644000 13547724
-0.192868 0.038820 0.647000 6842751
0.004307 0.041221 0.646000 14074055
-0.191377 0.042189 0.642000 6645376
0.004313 0.044982 0.647000 15128292
-0.190483 0.045643 0.639000 6842244
-0.186608 0.048291 0.626000 6317954
-0.186310 0.051786 0.625000 6317696
-0.185415 0.055091 0.622000 5068413
-0.184521 0.058363 0.619000 11382945
-0.184819 0.062000 0.620000 13353439
-0.185713 0.065860 0.623000 13353440
-0.186011 0.069531 0.624000 13287905
-0.236360 -0.052440 0.798000 2964594
-0.235471 -0.047700 0.795000 2898793
-0.232806 -0.042669 0.786000 3489908
-0.229548 -0.037643 0.775000 3881835
-0.227178 -0.032871 0.767000 5131616
-0.225105 -0.028229 0.760000 4608380
-0.223031 -0.023666 0.753000 5527152
-0.220662 -0.019157 0.745000 5396340
-0.218885 -0.014780 0.739000 6383743
-0.216811 -0.010457 0.732000 6773110
-0.213850 -0.006189 0.722000 7039093
-0.212072 -0.002046 0.716000 6712449
-0.210295 0.002029 0.710000 7564924
-0.208518 0.006034 0.704000 7105922
0.005734 0.008283 0.669000 5927080
-0.205852 0.009929 0.695000 8095376
0.005674 0.011979 0.662000 2962556
-0.204371 0.013800 0.690000 6712185
0.005631 0.015643 0.657000 2045307
-0.202594 0.017589 0.684000 7369343
0.005597 0.019279 0.653000 3029632
-0.201113 0.021340 0.679000 6646395
0.005546 0.022799 0.647000 3487106
-0.198744 0.024923 0.671000 6777220
0.005494 0.026250 0.641000 7168912
-0.196374 0.028414 0.663000 6776444
0.005503 0.029960 0.642000 12690628
-0.195486 0.032057 0.660000 6843257
0.005520 0.033733 0.644000 12166838
-0.193412 0.035449 0.653000 6712193
0.005520 0.037413 0.644000 11839675
-0.191339 0.038760 0.646000 6579841
0.005529 0.041157 0.645000 11968940
-0.190154 0.042189 0.642000 6316923
0.005546 0.044982 0.647000 13224919
-0.189266 0.045643 0.639000 6513787
-0.186304 0.048523 0.629000 6252159
-0.184823 0.051703 0.624000 5922944
-0.183638 0.054914 0.620000 5002626
-0.183342 0.058363 0.619000 11380654
-0.183638 0.062000 0.620000 13616604
-0.184823 0.065966 0.624000 13682145
-0.185119 0.069643 0.625000 13747940
-0.234840 -0.052440 0.798000 3883114
-0.233957 -0.047700 0.795000 3357027
-0.230720 -0.042560 0.784000 3881839
-0.228660 -0.037740 0.777000 3619942
-0.225717 -0.032871 0.767000 4735838
-0.223657 -0.028229 0.760000 5001330
-0.222186 -0.023729 0.755000 5461869
-0.218654 -0.019106 0.743000 4871277
-0.217477 -0.014780 0.739000 6318967
-0.215417 -0.010457 0.732000 5923183
-0.212474 -0.006189 0.722000 7036264
-0.210120 -0.002040 0.714000 6647417
-0.208354 0.002023 0.708000 7430257
-0.206883 0.006026 0.703000 7433332
-0.204529 0.009929 0.695000 8291450
0.006935 0.011979 0.662000 3560089
-0.203057 0.013800 0.690000 6514029
0.006883 0.015643 0.657000 994690
-0.201880 0.017640 0.686000 7567483
0.006830 0.019250 0.652000 3095165
-0.198937 0.021246 0.676000 6579830
0.006768 0.022764 0.646000 3747208
-0.197466 0.024923 0.671000 6514034
0.006715 0.026250 0.641000 7300239
-0.195111 0.028414 0.663000 6251635
0.006715 0.029913 0.641000 11574448
-0.193640 0.031960 0.658000 6514806
0.006747 0.033733 0.644000 11312295
-0.191874 0.035394 0.652000 6514549
0.006747 0.037413 0.644000 10060449
-0.190403 0.038820 0.647000 6316923
0.006757 0.041157 0.645000 9855884
-0.189520 0.042320 0.644000 5923448
0.006778 0.044982 0.647000 11302794
-0.187754 0.045571 0.638000 6185583
-0.185106 0.048523 0.629000 6120058
-0.183634 0.051703 0.624000 5593714
-0.183046 0.055091 0.622000 4937346
-0.182457 0.058457 0.620000 11447211
-0.182457 0.062000 0.620000 13812956
-0.183634 0.065966 0.624000 14010079
-0.183929 0.069643 0.625000 14141156
-0.233320 -0.052440 0.798000 3422049
-0.231858 -0.047580 0.793000 3617885
-0.229227 -0.042560 0.784000 4078953
-0.226595 -0.037643 0.775000 3881826
-0.223671 -0.032786 0.765000 4734811
-0.222210 -0.028229 0.760000 5197159
-0.220748 -0.023729 0.755000 5592938
-0.216947 -0.019080 0.742000 5329255
-0.216070 -0.014780 0.739000 7104110
-0.214023 -0.010457 0.732000 7235688
-0.210514 -0.006171 0.720000 7035739
-0.208760 -0.002040 0.714000 7762545
-0.207006 0.002023 0.708000 7431525
-0.205544 0.006026 0.703000 6707814
-0.203205 0.009929 0.695000 7235428
0.008196 0.011979 0.662000 8095413
-0.201743 0.013800 0.690000 6771297
0.008134 0.015643 0.657000 4142473
-0.199404 0.017537 0.682000 7104374
0.008072 0.019250 0.652000 1977978
-0.197357 0.021214 0.675000 6250866
0.007973 0.022693 0.644000 3547022
-0.196188 0.024923 0.671000 6381407
0.007936 0.026250 0.641000 7364749
-0.193849 0.028414 0.663000 6381419
0.007936 0.029913 0.641000 11768989
-0.192387 0.031960 0.658000 6579571
0.007973 0.033733 0.644000 11505559
-0.190925 0.035449 0.653000 6513257
0.007973 0.037413 0.644000 10444678
-0.189170 0.038820 0.647000 6381940
0.007986 0.041157 0.645000 6698091
-0.188293 0.042320 0.644000 6185078
-0.185662 0.045357 0.635000 6250850
-0.184492 0.048677 0.631000 6118773
-0.182738 0.051786 0.625000 5790563
-0.181276 0.054914 0.620000 5460866
-0.181276 0.058457 0.620000 11510439
-0.181861 0.062200 0.622000 13746651
-0.182446 0.065966 0.624000 14009820
-0.183030 0.069754 0.626000 14075876
-0.231800 -0.052440 0.798000 3026533
-0.229767 -0.047460 0.791000 3881315
-0.227733 -0.042560 0.784000 4276331
-0.225119 -0.037643 0.775000 4079719
-0.222214 -0.032786 0.765000 4799850
-0.220762 -0.028229 0.760000 5394796
-0.218729 -0.023666 0.753000 5725039
-0.215533 -0.019080 0.742000 5791594
-0.214081 -0.014740 0.737000 7955819
-0.212629 -0.010457 0.732000 8483441
-0.209143 -0.006171 0.720000 7100522
-0.207400 -0.002040 0.714000 8812148
-0.205657 0.002023 0.708000 7498096
-0.204205 0.006026 0.703000 5922926
-0.201881 0.009929 0.695000 6250092
0.009457 0.011979 0.662000 12693162
-0.200719 0.013820 0.691000 6973555
0.009386 0.015643 0.657000 7304089
-0.197524 0.017486 0.680000 6643315
0.009329 0.019279 0.653000 859791
-0.196071 0.021214 0.675000 5922933
0.009200 0.022693 0.644000 3293595
-0.194910 0.024923 0.671000 6249060
0.009157 0.026250 0.641000 7501722
-0.192586 0.028414 0.663000 6513266
0.009157 0.029913 0.641000 11967136
-0.191133 0.031960 0.658000 6579831
-0.189390 0.035394 0.652000 6514032
0.009200 0.037413 0.644000 10846609
-0.187648 0.038760 0.646000 6513527
-0.187067 0.042320 0.644000 6448248
-0.184452 0.045357 0.635000 6317167
-0.182710 0.048523 0.629000 6119800
-0.181548 0.051786 0.625000 6053488
-0.180095 0.054914 0.620000 5923202
-0.180095 0.058457 0.620000 11578023
-0.180676 0.062200 0.622000 13615322
-0.181257 0.065966 0.624000 14009819
-0.181838 0.069754 0.626000 13944545
-0.229991 -0.052374 0.797000 3224169
-0.228260 -0.047460 0.791000 4144490
-0.226240 -0.042560 0.784000 4145004
-0.223643 -0.037643 0.775000 4473453
-0.221334 -0.032871 0.767000 5131128
-0.219314 -0.028229 0.760000 5395313
-0.217006 -0.023634 0.752000 6315892
-0.213543 -0.019029 0.740000 6317934
-0.212677 -0.014740 0.737000 7959911
-0.210946 -0.010443 0.731000 8751226
-0.207771 -0.006171 0.720000 6972024
-0.206040 -0.002040 0.714000 8155256
-0.204309 0.002023 0.708000 7434107
-0.202866 0.006026 0.703000 6251638
-0.200269 0.009914 0.694000 6316660
-0.199403 0.013820 0.691000 7701380
-0.196229 0.017486 0.680000 7303280
-0.194497 0.021183 0.674000 6185593
0.010427 0.022693 0.644000 7240104
-0.193631 0.024923 0.671000 7566441
0.010378 0.026250 0.641000 10130342
-0.191323 0.028414 0.663000 6776442
0.010362 0.029867 0.640000 12164002
-0.189880 0.031960 0.658000 6711674
-0.187860 0.035340 0.651000 6842488
-0.186417 0.038760 0.646000 6645882
-0.185840 0.042320 0.644000 6711162
-0.182954 0.045286 0.634000 6645883
-0.181511 0.048523 0.629000 6251899
-0.180357 0.051786 0.625000 6119804
-0.178914 0.054914 0.620000 6055811
-0.178914 0.058457 0.620000 11774118
-0.179780 0.062300 0.623000 13680602
-0.180069 0.065966 0.624000 13944026
-0.180646 0.069754 0.626000 13944030
-0.228473 -0.052374 0.797000 3486827
-0.226180 -0.047340 0.789000 4343150
-0.224173 -0.042451 0.782000 4078960
-0.221593 -0.037546 0.773000 4867693
-0.219873 -0.032871 0.767000 5526910
-0.217867 -0.028229 0.760000 5330549
-0.215860 -0.023666 0.753000 6904694
-0.212133 -0.019029 0.740000 6776948
-0.210987 -0.014720 0.736000 7896944
-0.209553 -0.010443 0.731000 8944507
-0.206113 -0.006163 0.719000 6907258
-0.204680 -0.002040 0.714000 7433338
-0.202960 0.002023 0.708000 7372673
-0.201527 0.006026 0.703000 6579321
-0.198947 0.009914 0.694000 6447990
-0.197800 0.013800 0.690000 8419711
-0.194933 0.017486 0.680000 7962226
-0.193213 0.021183 0.674000 6382715
-0.192353 0.024923 0.671000 8882027
0.011599 0.026250 0.641000 12819370
-0.190060 0.028414 0.663000 6974847
-0.188340 0.031911 0.657000 6777468
-0.186333 0.035286 0.650000 7105403
-0.184900 0.038700 0.645000 6843261
-0.183753 0.042123 0.641000 6974334
-0.181747 0.045286 0.634000 6908541
-0.180313 0.048523 0.629000 6317949
-0.179167 0.051786 0.625000 6251648
-0.177447 0.054826 0.619000 6121352
-0.177733 0.058457 0.620000 11909810
-0.178593 0.062300 0.623000 13680602
-0.179167 0.066071 0.625000 13878490
-0.179453 0.069754 0.626000 13944286
-0.226955 -0.056929 0.797000 2367080
-0.226955 -0.052374 0.797000 3619181
-0.224392 -0.047280 0.788000 4607859
-0.222684 -0.042451 0.782000 4275827
-0.220121 -0.037546 0.773000 5263982
-0.218412 -0.032871 0.767000 6119043
-0.215850 -0.028154 0.758000 5527417
-0.214141 -0.023634 0.752000 6709111
-0.211293 -0.019080 0.742000 6513017
-0.209585 -0.014720 0.736000 7434105
-0.207591 -0.010414 0.729000 7760764
-0.204744 -0.006163 0.719000 6841723
-0.203320 -0.002040 0.714000 7235452
-0.201327 0.002020 0.707000 7634054
-0.199618 0.006009 0.701000 6513788
-0.197340 0.009900 0.693000 7106168
-0.196486 0.013800 0.690000 7761274
-0.193638 0.017486 0.680000 7368820
-0.191930 0.021183 0.674000 6579070
-0.191075 0.024923 0.671000 8683885
0.012780 0.026169 0.639000 12755374
-0.188797 0.028414 0.663000 7039620
-0.186804 0.031863 0.656000 6777469
-0.185095 0.035286 0.650000 6908798
-0.183956 0.038760 0.646000 6777983
-0.182532 0.042123 0.641000 6909314
-0.180539 0.045286 0.634000 6843007
-0.179115 0.048523 0.629000 6383744
-0.177976 0.051786 0.625000 6186372
-0.176268 0.054826 0.619000 6055053
-0.176552 0.058457 0.620000 12432573
-0.177407 0.062300 0.623000 13680602
-0.177976 0.066071 0.625000 13878490
-0.178261 0.069754 0.626000 14009567
-0.225437 -0.056929 0.797000 3286119
-0.225437 -0.052374 0.797000 3817325
-0.223174 -0.047340 0.789000 4868979
-0.221194 -0.042451 0.782000 4472691
-0.218366 -0.037497 0.772000 5592688
-0.216386 -0.032786 0.765000 6713213
-0.214406 -0.028154 0.758000 5724791
-0.212143 -0.023571 0.750000 6446455
-0.209880 -0.019080 0.742000 6186103
-0.207617 -0.014680 0.734000 6973561
-0.206203 -0.010414 0.729000 6580345
-0.203374 -0.006163 0.719000 6775932
-0.201960 -0.002040 0.714000 6972795
-0.200263 0.002023 0.708000 7897727
-0.198283 0.006009 0.701000 6383482
-0.196020 0.009900 0.693000 7765103
-0.194323 0.013740 0.687000 7104889
-0.192343 0.017486 0.680000 6711417
-0.190646 0.021183 0.674000 6776189
-0.189514 0.024886 0.670000 8484212
-0.187534 0.028414 0.663000 7106433
-0.185837 0.031911 0.657000 6777213
-0.183857 0.035286 0.650000 6711934
-0.182726 0.038760 0.646000 6777982
-0.181029 0.042057 0.640000 6778241
-0.179331 0.045286 0.634000 6711678
-0.177634 0.048446 0.628000 6383745
-0.176786 0.051786 0.625000 6186117
-0.174806 0.054737 0.618000 5989778
-0.175089 0.058363 0.619000 12896706
-0.176503 0.062400 0.624000 13614810
-0.177069 0.066177 0.626000 13878233
-0.177069 0.069754 0.626000 14010078
-0.226448 -0.057571 0.806000 3092582
-0.224200 -0.052440 0.798000 3883628
-0.221390 -0.047280 0.788000 4934516
-0.219705 -0.042451 0.782000 4671603
-0.216895 -0.037497 0.772000 5527154
-0.214929 -0.032786 0.765000 6316406
-0.212962 -0.028154 0.758000 5921909
-0.210714 -0.023571 0.750000 6513014
-0.208467 -0.019080 0.742000 6448502
-0.205657 -0.014640 0.732000 6776440
-0.204533 -0.010400 0.728000 6514806
-0.202005 -0.006163 0.719000 6513276
-0.200600 -0.002040 0.714000 6578554
-0.198633 0.002020 0.707000 7303288
-0.196948 0.006009 0.701000 6447737
-0.194700 0.009900 0.693000 7040358
-0.192733 0.013720 0.686000 6579064
-0.191048 0.017486 0.680000 6185085
-0.189362 0.021183 0.674000 6514045
-0.187957 0.024849 0.669000 7104635
-0.186271 0.028414 0.663000 6447999
-0.184586 0.031911 0.657000 6580092
-0.182619 0.035286 0.650000 6645886
-0.181495 0.038760 0.646000 6777725
-0.179810 0.042057 0.640000 6777984
-0.178124 0.045286 0.634000 6777213
-0.176157 0.048369 0.627000 6515074
-0.175314 0.051703 0.624000 6514566
-0.173629 0.054737 0.618000 6316184
-0.173910 0.058363 0.619000 13024710
-0.175314 0.062400 0.624000 13614554
-0.175876 0.066177 0.626000 13812696
-0.176157 0.069866 0.627000 14009822
-0.224912 -0.057571 0.806000 2896488
-0.222680 -0.052440 0.798000 4015213
-0.219890 -0.047280 0.788000 5000307
-0.218215 -0.042451 0.782000 4869490
-0.215425 -0.037497 0.772000 5396082
-0.213471 -0.032786 0.765000 5921910
-0.211518 -0.028154 0.758000 6119029
-0.209286 -0.023571 0.750000 6513015
-0.207053 -0.019080 0.742000 6645109
-0.203984 -0.014620 0.731000 6644855
-0.203147 -0.010400 0.728000 6382710
-0.200635 -0.006163 0.719000 6250874
-0.199240 -0.002040 0.714000 6184314
-0.197287 0.002020 0.707000 6712437
-0.195333 0.006000 0.700000 6448760
-0.193380 0.009900 0.693000 6382191
-0.191427 0.013720 0.686000 6053749
-0.189752 0.017486 0.680000 5725050
-0.188078 0.021183 0.674000 6250877
-0.186125 0.024774 0.667000 5726842
-0.184450 0.028329 0.661000 5792380
-0.183334 0.031911 0.657000 6382972
-0.181381 0.035286 0.650000 6580093
-0.179986 0.038700 0.645000 6777724
-0.178590 0.042057 0.640000 6777983
-0.176916 0.045286 0.634000 6777215
-0.174963 0.048369 0.627000 6646401
-0.173847 0.051620 0.623000 6842247
-0.172451 0.054737 0.618000 6648470
-0.172730 0.058363 0.619000 13092301
-0.174405 0.062500 0.625000 13549272
-0.174684 0.066177 0.626000 13812953
-0.174963 0.069866 0.627000 13944541
-0.223377 -0.057571 0.806000 3290731
-0.221160 -0.052440 0.798000 3949677
-0.218389 -0.047280 0.788000 5133938
-0.216726 -0.042451 0.782000 5198192
-0.213400 -0.037400 0.770000 5395571
-0.212014 -0.032786 0.765000 5856117
-0.210074 -0.028154 0.758000 6250358
-0.207857 -0.023571 0.750000 6513271
-0.205917 -0.019106 0.743000 6645108
-0.202591 -0.014620 0.731000 6579318
-0.201760 -0.010400 0.728000 6316663
-0.199266 -0.006163 0.719000 6119800
-0.197880 -0.002040 0.714000 6118266
-0.195940 0.002020 0.707000 6973041
-0.193446 0.005983 0.698000 6382199
-0.192060 0.009900 0.693000 6053240
-0.190120 0.013720 0.686000 5856626
-0.188457 0.017486 0.680000 5659511
-0.186794 0.021183 0.674000 6184829
-0.184577 0.024737 0.666000 6185593
-0.183191 0.028329 0.661000 5988730
-0.182083 0.031911 0.657000 6316923
-0.180143 0.035286 0.650000 6579836
-0.178757 0.038700 0.645000 6711931
-0.177094 0.041991 0.639000 6843518
-0.175709 0.045286 0.634000 6843264
-0.173769 0.048369 0.627000 6712193
-0.172660 0.051620 0.623000 6974855
-0.171274 0.054737 0.618000 7499156
-0.171829 0.058457 0.620000 13221843
-0.173214 0.062500 0.625000 13549270
-0.173491 0.066177 0.626000 13812697
-0.173769 0.069866 0.627000 13944284
-0.221842 -0.057571 0.806000 3685228
-0.219365 -0.052374 0.797000 3884910
-0.216888 -0.047280 0.788000 5263730
-0.215236 -0.042451 0.782000 5591409
-0.211933 -0.037400 0.770000 5330293
-0.210007 -0.032700 0.763000 5856117
-0.208080 -0.028080 0.756000 6315895
-0.206979 -0.023634 0.752000 6447992
-0.204227 -0.019080 0.742000 6645110
-0.201199 -0.014620 0.731000 6513525
-0.199823 -0.010371 0.726000 6185592
-0.197896 -0.006163 0.719000 6054008
-0.197070 -0.002046 0.716000 5987703
-0.194593 0.002020 0.707000 7233652
-0.192116 0.005983 0.698000 6317691
-0.190740 0.009900 0.693000 5658745
-0.188813 0.013720 0.686000 5595246
-0.187162 0.017486 0.680000 5659770
-0.185510 0.021183 0.674000 6056059
-0.183584 0.024774 0.667000 6644091
-0.181932 0.028329 0.661000 6120318
-0.180831 0.031911 0.657000 6250876
-0.178905 0.035286 0.650000 6580092
-0.177253 0.038640 0.644000 6711932
-0.175877 0.041991 0.639000 6908800
-0.174501 0.045286 0.634000 6974337
-0.172574 0.048369 0.627000 6777985
-0.171473 0.051620 0.623000 7170697
-0.170372 0.054826 0.619000 8354450
-0.171198 0.058646 0.622000 13353428
-0.172024 0.062500 0.625000 13483989
-0.172574 0.066283 0.627000 13812698
-0.172850 0.069977 0.628000 13944541
-0.220307 -0.057571 0.806000 3292268
-0.217847 -0.052374 0.797000 4212591
-0.215387 -0.047280 0.788000 5265522
-0.213747 -0.042451 0.782000 5460594
-0.210467 -0.037400 0.770000 5461622
-0.208553 -0.032700 0.763000 5987445
-0.206640 -0.028080 0.756000 6315897
-0.205547 -0.023634 0.752000 6447736
-0.202267 -0.019029 0.740000 6776183
-0.200080 -0.014640 0.732000 6644596
-0.198440 -0.010371 0.726000 6185594
-0.196800 -0.006171 0.720000 5988471
-0.195160 -0.002040 0.714000 5856116
-0.192427 0.002011 0.704000 6643830
-0.190513 0.005974 0.697000 6120575
-0.189420 0.009900 0.693000 5724537
-0.186960 0.013680 0.684000 7369066
-0.185867 0.017486 0.680000 5725309
-0.184227 0.021183 0.674000 7832185
-0.182040 0.024737 0.666000 7433085
-0.180673 0.028329 0.661000 6054529
-0.179307 0.031863 0.656000 6185597
-0.177667 0.035286 0.650000 6514556
-0.176027 0.038640 0.644000 6645885
-0.174387 0.041926 0.638000 6908546
-0.173293 0.045286 0.634000 6908801
-0.171107 0.048291 0.626000 6974338
-0.170287 0.051620 0.623000 7237515
-0.169193 0.054826 0.619000 8874896
-0.170013 0.058646 0.622000 13417940
-0.170833 0.062500 0.625000 13549268
-0.171380 0.066283 0.627000 13812698
-0.171653 0.069977 0.628000 13944797
-0.218771 -0.057571 0.806000 2899569
-0.216329 -0.052374 0.797000 4541296
-0.213886 -0.047280 0.788000 5263731
-0.212257 -0.042451 0.782000 5330035
-0.209000 -0.037400 0.770000 5528181
-0.207100 -0.032700 0.763000 6119030
-0.205200 -0.028080 0.756000 6316407
-0.203571 -0.023571 0.750000 6513017
-0.200857 -0.019029 0.740000 6908026
-0.199229 -0.014680 0.734000 6840696
-0.197057 -0.010371 0.726000 6119546
-0.195429 -0.006171 0.720000 5923193
-0.193800 -0.002040 0.714000 5724535
-0.190814 0.002009 0.703000 6117749
-0.189186 0.005974 0.697000 5922686
-0.188100 0.009900 0.693000 5724283
-0.185657 0.013680 0.684000 9074798
-0.184571 0.017486 0.680000 5857150
-0.182129 0.021089 0.671000 9535102
-0.180771 0.024737 0.666000 8217469
-0.179414 0.028329 0.661000 5990015
-0.178057 0.031863 0.656000 6185596
-0.176429 0.035286 0.650000 6448764
-0.174257 0.038520 0.642000 6645629
-0.173171 0.041926 0.638000 6843264
-0.172086 0.045286 0.634000 6843010
-0.169643 0.048214 0.625000 7171203
-0.168829 0.051537 0.622000 7236749
-0.168014 0.054826 0.619000 9339029
-0.169100 0.058740 0.623000 13418197
-0.169914 0.062600 0.626000 13549268
-0.170457 0.066389 0.628000 13812955
-0.170729 0.070089 0.629000 13879261
-0.217236 -0.057571 0.806000 3292022
-0.214810 -0.052374 0.797000 4671857
-0.212385 -0.047280 0.788000 5461621
-0.210768 -0.042451 0.782000 5330547
-0.208072 -0.037497 0.772000 5725556
-0.206186 -0.032786 0.765000 6250871
-0.203490 -0.028043 0.755000 6513782
-0.201334 -0.023477 0.747000 6513273
-0.199448 -0.019029 0.740000 6711934
-0.198370 -0.014720 0.736000 6447227
-0.195674 -0.010371 0.726000 5856379
-0.193788 -0.006163 0.719000 5593466
-0.192170 -0.002037 0.713000 5461370
-0.188936 0.002003 0.701000 5854836
-0.187858 0.005974 0.697000 5789565
-0.186780 0.009900 0.693000 5526908
-0.184354 0.013680 0.684000 8487539
-0.183276 0.017486 0.680000 6316414
-0.181120 0.021120 0.672000 8880772
-0.179503 0.024737 0.666000 7103356
-0.178155 0.028329 0.661000 5790333
-0.176808 0.031863 0.656000 6054010
-0.175460 0.035340 0.651000 6317180
-0.173034 0.038520 0.642000 6514300
-0.171956 0.041926 0.638000 6712191
-0.170878 0.045286 0.634000 6843266
-0.168452 0.048214 0.625000 7040133
-0.167644 0.051537 0.622000 7172238
-0.167105 0.054914 0.620000 10256283
-0.168183 0.058834 0.624000 13417942
-0.168722 0.062600 0.626000 13614805
-0.169261 0.066389 0.628000 13812956
-0.215166 -0.057429 0.804000 3686511
-0.213292 -0.052374 0.797000 4803185
-0.210884 -0.047280 0.788000 5593461
-0.208743 -0.042343 0.780000 5331061
-0.206602 -0.037497 0.772000 5856630
-0.204729 -0.032786 0.765000 6382456
-0.202052 -0.028043 0.755000 6710392
-0.200179 -0.023509 0.748000 6513529
-0.197770 -0.019003 0.739000 6514298
-0.196432 -0.014680 0.734000 6052474
-0.194291 -0.010371 0.726000 5593210
-0.192418 -0.006163 0.719000 5329786
-0.190812 -0.002037 0.713000 5132918
-0.187601 0.002003 0.701000 5591413
-0.186530 0.005974 0.697000 5593213
-0.185460 0.009900 0.693000 5328763
-0.183051 0.013680 0.684000 7892085
-0.181981 0.017486 0.680000 6776189
-0.179840 0.021120 0.672000 8223101
-0.178234 0.024737 0.666000 6053246
-0.176629 0.028286 0.660000 5593210
-0.175290 0.031814 0.655000 5922429
-0.173952 0.035286 0.650000 6185340
-0.171811 0.038520 0.642000 6382456
-0.170741 0.041926 0.638000 6515071
-0.169670 0.045286 0.634000 6843011
-0.166994 0.048137 0.624000 6909316
-0.166459 0.051537 0.622000 7173261
-0.165924 0.054914 0.620000 11178400
-0.166994 0.058834 0.624000 13417685
-0.167530 0.062600 0.626000 13615061
-0.168065 0.066389 0.628000 13878492
-0.213634 -0.057429 0.804000 3489129
-0.211774 -0.052374 0.797000 4737905
-0.209383 -0.047280 0.788000 5792118
-0.207257 -0.042343 0.780000 5527926
-0.205131 -0.037497 0.772000 6053496
-0.202740 -0.032700 0.763000 6447737
-0.200614 -0.028043 0.755000 6644859
-0.198489 -0.023477 0.747000 6447992
-0.196363 -0.019003 0.739000 6119287
-0.194503 -0.014640 0.732000 5790072
-0.192909 -0.010371 0.726000 5526906
-0.191049 -0.006163 0.719000 5198713
-0.189454 -0.002037 0.713000 5132403
-0.186266 0.002003 0.701000 5395061
-0.185203 0.005974 0.697000 5463166
-0.183609 0.009871 0.691000 5197433
-0.181483 0.013660 0.683000 6708855
-0.180686 0.017486 0.680000 6645627
-0.178294 0.021089 0.671000 7893877
-0.176966 0.024737 0.666000 5657727
-0.175371 0.028286 0.660000 5461623
-0.174043 0.031814 0.655000 5790591
-0.172714 0.035286 0.650000 5987708
-0.170589 0.038520 0.642000 6185331
-0.169526 0.041926 0.638000 6514559
-0.168463 0.045286 0.634000 6842755
-0.165806 0.048137 0.624000 6909315
-0.165274 0.051537 0.622000 7172492
-0.164743 0.054914 0.620000 11836068
-0.166071 0.058929 0.625000 13352148
-0.166337 0.062600 0.626000 13680598
-0.166869 0.066389 0.628000 13944028
-0.167134 0.070089 0.629000 13944797
-0.212103 -0.057429 0.804000 3227758
-0.209729 -0.052243 0.795000 4671089
-0.207882 -0.047280 0.788000 5988466
-0.205771 -0.042343 0.780000 5790322
-0.203661 -0.037497 0.772000 6184825
-0.201287 -0.032700 0.763000 6447738
-0.199176 -0.028043 0.755000 6579321
-0.196538 -0.023414 0.745000 6447991
-0.194955 -0.019003 0.739000 5725815
-0.193109 -0.014640 0.732000 5527158
-0.191262 -0.010357 0.725000 5396088
-0.189151 -0.006146 0.717000 5132920
-0.187569 -0.002031 0.711000 5066867
-0.185458 0.002009 0.703000 5263986
-0.184139 0.005983 0.698000 5330810
-0.182292 0.009871 0.691000 5000567
-0.179918 0.013640 0.682000 5461882
-0.179390 0.017486 0.680000 6580859
-0.177016 0.021089 0.671000 7564660
-0.175697 0.024737 0.666000 5262716
-0.174114 0.028286 0.660000 5265017
-0.172795 0.031814 0.655000 5593470
-0.171476 0.035286 0.650000 5790845
-0.169366 0.038520 0.642000 6054009
-0.167783 0.041794 0.636000 6514304
-0.167255 0.045286 0.634000 6842756
-0.164881 0.048214 0.625000 6909315
-0.164090 0.051537 0.622000 7239312
-0.163562 0.054914 0.620000 12427946
-0.164881 0.058929 0.625000 13351890
-0.165145 0.062600 0.626000 13680599
-0.165409 0.066283 0.627000 14009563
-0.210048 -0.057286 0.802000 3882612
-0.208738 -0.052374 0.797000 4867953
-0.206381 -0.047280 0.788000 6513519
-0.204024 -0.042289 0.779000 5855854
-0.202452 -0.037546 0.773000 6250361
-0.199833 -0.032700 0.763000 6447994
-0.197738 -0.028043 0.755000 6513527
-0.195119 -0.023414 0.745000 6447222
-0.193548 -0.019003 0.739000 7954295
-0.191452 -0.014620 0.731000 6382195
-0.189881 -0.010357 0.725000 5330806
-0.187786 -0.006146 0.717000 5001591
-0.185952 -0.002029 0.710000 4936052
-0.184119 0.002009 0.703000 4936047
-0.182810 0.005983 0.698000 5067127
-0.180976 0.009871 0.691000 5066356
-0.178619 0.013640 0.682000 5787005
-0.177833 0.017460 0.679000 6317947
-0.176524 0.021183 0.674000 6646387
-0.174690 0.024774 0.667000 5197945
-0.172333 0.028200 0.658000 5199739
-0.171024 0.031717 0.653000 5593469
-0.169714 0.035177 0.648000 5856381
-0.167619 0.038400 0.640000 6054271
-0.166571 0.041794 0.636000 6514305
-0.166048 0.045286 0.634000 6777221
-0.163690 0.048214 0.625000 6974852
-0.162905 0.051537 0.622000 7500436
-0.162381 0.054914 0.620000 12890032
-0.163429 0.058834 0.624000 13351888
-0.164214 0.062700 0.627000 13680599
-0.164476 0.066389 0.628000 13878234
-0.209560 -0.062177 0.806000 4271722
-0.208520 -0.057286 0.802000 4540786
-0.207220 -0.052374 0.797000 5063797
-0.204880 -0.047280 0.788000 6970993
-0.202540 -0.042289 0.779000 5921648
-0.200720 -0.037497 0.772000 6250871
-0.198380 -0.032700 0.763000 6447996
-0.195780 -0.027969 0.753000 6382456
-0.193700 -0.023414 0.745000 6446708
-0.192140 -0.019003 0.739000 10191746
-0.190320 -0.014640 0.732000 7240843
-0.188760 -0.010371 0.726000 5198710
-0.186160 -0.006137 0.716000 4935799
-0.184600 -0.002029 0.710000 4804469
-0.182780 0.002009 0.703000 4673393
-0.181480 0.005983 0.698000 4738677
-0.179400 0.009857 0.690000 5066103
-0.177580 0.013660 0.683000 6119549
-0.176540 0.017460 0.679000 6054780
-0.174460 0.021089 0.671000 5725303
-0.173160 0.024737 0.666000 5133176
-0.171080 0.028200 0.658000 5133946
-0.169780 0.031717 0.653000 5528189
-0.168480 0.035177 0.648000 5856638
-0.166920 0.038520 0.642000 6119808
-0.165360 0.041794 0.636000 6448768
-0.164060 0.045071 0.631000 6711684
-0.162500 0.048214 0.625000 6975108
-0.161720 0.051537 0.622000 7763343
-0.160940 0.054826 0.619000 13282486
-0.162240 0.058834 0.624000 13286096
-0.162760 0.062600 0.626000 13680598
-0.163280 0.066389 0.628000 13812699
-0.163540 0.070089 0.629000 14010335
-0.208025 -0.062177 0.806000 4276075
-0.206992 -0.057286 0.802000 5134705
-0.205186 -0.052243 0.795000 5197433
-0.203379 -0.047280 0.788000 6445940
-0.201056 -0.042289 0.779000 6513266
-0.199250 -0.037497 0.772000 6579061
-0.196410 -0.032614 0.761000 6447997
-0.194346 -0.027969 0.753000 6251130
-0.192281 -0.023414 0.745000 6643313
-0.190732 -0.019003 0.739000 9610637
-0.188668 -0.014620 0.731000 6317219
-0.187377 -0.010371 0.726000 4935798
-0.184796 -0.006137 0.716000 4410487
-0.183248 -0.002029 0.710000 4541558
-0.181699 0.002011 0.704000 4344435
-0.180150 0.005983 0.698000 4344691
-0.178086 0.009857 0.690000 5066361
-0.176021 0.013640 0.682000 7108734
-0.175247 0.017460 0.679000 5593213
-0.173182 0.021089 0.671000 5263994
-0.171891 0.024737 0.666000 5001846
-0.169569 0.028157 0.657000 5133690
-0.168278 0.031669 0.652000 5528189
-0.166988 0.035123 0.647000 5725566
-0.165439 0.038460 0.641000 5988480
-0.163890 0.041729 0.635000 6383232
-0.162858 0.045071 0.631000 6711939
-0.161310 0.048214 0.625000 6974596
-0.160535 0.051537 0.622000 7828873
-0.160019 0.054914 0.620000 13349564
-0.161051 0.058834 0.624000 13286351
-0.161826 0.062700 0.627000 13680598
-0.162084 0.066389 0.628000 13812700
-0.162342 0.070089 0.629000 14075870
-0.206490 -0.062177 0.806000 4212075
-0.205465 -0.057286 0.802000 5656947
-0.203671 -0.052243 0.795000 5395581
-0.201366 -0.047160 0.786000 5855605
-0.199572 -0.042289 0.779000 7103859
-0.196754 -0.037303 0.768000 6843254
-0.194961 -0.032614 0.761000 6447739
-0.193424 -0.028043 0.755000 6119288
-0.190862 -0.023414 0.745000 6772336
-0.189325 -0.019003 0.739000 8945293
-0.187275 -0.014620 0.731000 5386630
-0.185994 -0.010371 0.726000 4606327
-0.183432 -0.006137 0.716000 3949685
-0.181383 -0.002023 0.708000 4212084
-0.180614 0.002014 0.705000 4080498
-0.178565 0.005974 0.697000 3950195
-0.176515 0.009843 0.689000 5065335
-0.174210 0.013600 0.680000 8088696
-0.173697 0.017434 0.678000 5131387
-0.171904 0.021089 0.671000 4804218
-0.169854 0.024626 0.663000 4935541
-0.168317 0.028157 0.657000 5133178
-0.167036 0.031669 0.652000 5462141
-0.165499 0.035069 0.646000 5528446
-0.163962 0.038400 0.640000 5922688
-0.162681 0.041729 0.635000 6316928
-0.161144 0.044929 0.629000 6711683
-0.160119 0.048214 0.625000 6974853
-0.159350 0.051537 0.622000 7958920
-0.158838 0.054914 0.620000 13349050
-0.160119 0.058929 0.625000 13351377
-0.160631 0.062700 0.627000 13615061
-0.160888 0.066389 0.628000 13747419
-0.161144 0.070089 0.629000 14075870
-0.204954 -0.062177 0.806000 4211562
-0.203937 -0.057286 0.802000 4934004
-0.202157 -0.052243 0.795000 5462400
-0.199869 -0.047160 0.786000 5855095
-0.198089 -0.042289 0.779000 6908019
-0.195291 -0.037303 0.768000 6844023
-0.193511 -0.032614 0.761000 6382200
-0.191986 -0.028043 0.755000 6053494
-0.189443 -0.023414 0.745000 6774638
-0.187154 -0.018926 0.736000 8482700
-0.185883 -0.014620 0.731000 4734313
-0.184357 -0.010357 0.725000 4409720
-0.181306 -0.006111 0.713000 3949683
-0.179780 -0.002020 0.707000 4080755
-0.179017 0.002011 0.704000 3883377
-0.177237 0.005974 0.697000 3817844
-0.175203 0.009843 0.689000 4736884
-0.172914 0.013600 0.680000 6447218
-0.171897 0.017383 0.676000 4540280
-0.170371 0.021057 0.670000 4803450
-0.168337 0.024589 0.662000 4476276
-0.167066 0.028157 0.657000 5132154
-0.165794 0.031669 0.652000 5133949
-0.164269 0.035069 0.646000 5331069
-0.162743 0.038400 0.640000 5725055
-0.161471 0.041729 0.635000 6053504
-0.159946 0.044929 0.629000 6514563
-0.158929 0.048214 0.625000 6908550
-0.158166 0.051537 0.622000 8417670
-0.157657 0.054914 0.620000 13415608
-0.158929 0.058929 0.625000 13286098
-0.159691 0.062800 0.628000 13614549
-0.159946 0.066494 0.629000 13747161
-0.203924 -0.062331 0.808000 4211827
-0.202410 -0.057286 0.802000 4213620
-0.200138 -0.052111 0.793000 5594235
-0.197867 -0.047040 0.784000 5855864
-0.196100 -0.042180 0.777000 6710387
-0.193071 -0.037157 0.765000 6777719
-0.191810 -0.032571 0.760000 6316408
-0.190043 -0.027969 0.753000 5922167
-0.187519 -0.023351 0.743000 6772594
-0.185752 -0.018926 0.736000 8024462
-0.184490 -0.014620 0.731000 4146290
-0.182471 -0.010329 0.723000 4212854
-0.179948 -0.006111 0.713000 4015218
-0.178433 -0.002020 0.707000 3949427
-0.177424 0.002009 0.703000 3752051
-0.175910 0.005974 0.697000 3620724
-0.173890 0.009843 0.689000 4408690
-0.172124 0.013640 0.682000 4806257
-0.170357 0.017357 0.675000 3948405
-0.169095 0.021057 0.670000 4738939
-0.166824 0.024551 0.661000 4082807
-0.165814 0.028157 0.657000 5133695
-0.164552 0.031669 0.652000 4871294
-0.162786 0.035014 0.645000 5133691
-0.161524 0.038400 0.640000 5592958
-0.160262 0.041729 0.635000 5791360
-0.158748 0.044929 0.629000 6317187
-0.157738 0.048214 0.625000 6777478
-0.156981 0.051537 0.622000 8874886
-0.156476 0.054914 0.620000 13482687
-0.157738 0.058929 0.625000 13285842
-0.158495 0.062800 0.628000 13549269
-0.158748 0.066494 0.629000 13681626
-0.201884 -0.062177 0.806000 4408955
-0.199880 -0.057000 0.798000 4673141
-0.198127 -0.051980 0.791000 5790069
-0.195872 -0.046920 0.782000 6118265
-0.194620 -0.042180 0.777000 6579314
-0.191614 -0.037157 0.765000 6645112
-0.189861 -0.032486 0.758000 6184824
-0.188358 -0.027931 0.752000 5790584
-0.186104 -0.023351 0.743000 6381685
-0.184350 -0.018926 0.736000 7697040
-0.183098 -0.014620 0.731000 4081531
-0.181595 -0.010357 0.725000 4147060
-0.178590 -0.006111 0.713000 3818353
-0.177087 -0.002020 0.707000 3817844
-0.175584 0.002003 0.701000 3686516
-0.174081 0.005957 0.695000 3620212
-0.172578 0.009843 0.689000 4146543
-0.170825 0.013640 0.682000 4674160
-0.169071 0.017357 0.675000 4079986
-0.167569 0.021026 0.669000 4872060
-0.165815 0.024589 0.662000 4475770
-0.164563 0.028157 0.657000 5594756
-0.163310 0.031669 0.652000 5068159
-0.161808 0.035069 0.646000 5133433
-0.160305 0.038400 0.640000 5527420
-0.159052 0.041729 0.635000 5725312
-0.157299 0.044857 0.628000 6251394
-0.156548 0.048214 0.625000 6842503
-0.155796 0.051537 0.622000 8943237
-0.155295 0.054914 0.620000 13484486
-0.156548 0.058929 0.625000 13351633
-0.157299 0.062800 0.628000 13614804
-0.157550 0.066494 0.629000 13746907
-0.200349 -0.062177 0.806000 4671860
-0.198857 -0.057143 0.800000 5066868
-0.196123 -0.051849 0.789000 6052728
-0.194880 -0.047040 0.784000 6381943
-0.193140 -0.042180 0.777000 6514036
-0.190157 -0.037157 0.765000 6447993
-0.188417 -0.032486 0.758000 6053241
-0.186926 -0.027931 0.752000 5658744
-0.185186 -0.023414 0.745000 6049139
-0.182949 -0.018926 0.736000 7298689
-0.181706 -0.014620 0.731000 4080761
-0.179717 -0.010329 0.723000 4080756
-0.177231 -0.006111 0.713000 3686770
-0.175740 -0.002020 0.707000 3686260
-0.174249 0.002003 0.701000 3686260
-0.172757 0.005957 0.695000 3555187
-0.170769 0.009814 0.687000 3949938
-0.169526 0.013640 0.682000 4542067
-0.167786 0.017357 0.675000 4211832
-0.166543 0.021057 0.670000 5002366
-0.164554 0.024589 0.662000 4802428
-0.163311 0.028157 0.657000 5986944
-0.162069 0.031669 0.652000 5263742
-0.160329 0.035014 0.645000 5133434
-0.159086 0.038400 0.640000 5462140
-0.158091 0.041794 0.636000 5660033
-0.156103 0.044857 0.628000 6251393
-0.155357 0.048214 0.625000 6842760
-0.154114 0.051371 0.620000 9008773
-0.154611 0.055091 0.622000 13483464
-0.155606 0.059023 0.626000 13351378
-0.156103 0.062800 0.628000 13615318
-0.156849 0.066706 0.631000 13812443
-0.198813 -0.062177 0.806000 4212076
-0.197333 -0.057143 0.800000 5066868
-0.194373 -0.051783 0.788000 6447739
-0.192893 -0.046920 0.782000 6579060
-0.191660 -0.042180 0.777000 6579574
-0.188700 -0.037157 0.765000 6448251
-0.186973 -0.032486 0.758000 5921913
-0.185493 -0.027931 0.752000 5527161
-0.183767 -0.023414 0.745000 5781872
-0.181053 -0.018874 0.734000 8079986
-0.179820 -0.014580 0.729000 4079223
-0.178340 -0.010329 0.723000 3817588
-0.175873 -0.006111 0.713000 3554930
-0.174393 -0.002020 0.707000 3489139
-0.172913 0.002003 0.701000 3489139
-0.171187 0.005949 0.694000 3424115
-0.169213 0.009800 0.686000 3883381
-0.168227 0.013640 0.682000 4936310
-0.166253 0.017331 0.674000 4804478
-0.165267 0.021057 0.670000 5263999
-0.163293 0.024589 0.662000 4868990
-0.162060 0.028157 0.657000 5395068
-0.160827 0.031669 0.652000 5132413
-0.159100 0.035014 0.645000 5133436
-0.157620 0.038340 0.639000 5461884
-0.156633 0.041729 0.635000 5725313
-0.154907 0.044857 0.628000 6185856
-0.154167 0.048214 0.625000 6908297
-0.153427 0.051537 0.622000 9339012
-0.153427 0.055091 0.622000 13483722
-0.154413 0.059023 0.626000 13351379
-0.154907 0.062800 0.628000 13681112
-0.155647 0.066706 0.631000 13878490
-0.197278 -0.062177 0.806000 3754353
-0.195810 -0.057143 0.800000 5067125
-0.192872 -0.051783 0.788000 6839417
-0.191404 -0.046920 0.782000 6711158
-0.189690 -0.042071 0.775000 6645109
-0.187732 -0.037254 0.767000 6382713
-0.185530 -0.032486 0.758000 5856120
-0.184061 -0.027931 0.752000 5395576
-0.182348 -0.023414 0.745000 5523313
-0.179655 -0.018874 0.734000 8810640
-0.178431 -0.014580 0.729000 4077685
-0.176963 -0.010329 0.723000 3554675
-0.174515 -0.006111 0.713000 3357554
-0.173047 -0.002020 0.707000 3292018
-0.171578 0.002003 0.701000 3292019
-0.170110 0.005957 0.695000 3226993
-0.167907 0.009800 0.686000 3816309
-0.166438 0.013600 0.680000 5261941
-0.164970 0.017331 0.674000 5458555
-0.163990 0.021057 0.670000 5461885
-0.162277 0.024626 0.663000 4935297
-0.160809 0.028157 0.657000 4804220
-0.159585 0.031669 0.652000 4935550
-0.157627 0.034960 0.644000 5132924
-0.156403 0.038340 0.639000 5461883
-0.155424 0.041729 0.635000 5790847
-0.153710 0.044857 0.628000 6120320
-0.152976 0.048214 0.625000 6974086
-0.152242 0.051537 0.622000 9666958
-0.152487 0.055180 0.623000 13483468
-0.153221 0.059023 0.626000 13351122
-0.153710 0.062800 0.628000 13746390
-0.154445 0.066706 0.631000 13878490
-0.195743 -0.062177 0.806000 4279413
-0.193800 -0.057000 0.798000 5329526
-0.191371 -0.051783 0.788000 6577783
-0.189914 -0.046920 0.782000 6644088
-0.188214 -0.042071 0.775000 6645108
-0.186271 -0.037254 0.767000 6382968
-0.183600 -0.032400 0.756000 5790582
-0.182629 -0.027931 0.752000 5264759
-0.180443 -0.023351 0.743000 5723506
-0.178257 -0.018874 0.734000 7765166
-0.176800 -0.014560 0.728000 3818354
-0.175586 -0.010329 0.723000 3554418
-0.173157 -0.006111 0.713000 3291761
-0.171700 -0.002020 0.707000 3226225
-0.170243 0.002003 0.701000 3226227
-0.168543 0.005949 0.694000 3226736
-0.166114 0.009771 0.684000 3948149
-0.165143 0.013600 0.680000 3818611
-0.163686 0.017331 0.674000 4933752
-0.162714 0.021057 0.670000 5329532
-0.161014 0.024626 0.663000 4870531
-0.159557 0.028157 0.657000 4475261
-0.158343 0.031669 0.652000 4476030
-0.156643 0.035014 0.645000 4935548
-0.155186 0.038340 0.639000 5199225
-0.154214 0.041729 0.635000 5659518
-0.152757 0.044929 0.629000 6054272
-0.151543 0.048137 0.624000 6711940
-0.151057 0.051537 0.622000 10062488
-0.151300 0.055180 0.623000 13483213
-0.152029 0.059023 0.626000 13351377
-0.152514 0.062800 0.628000 13745620
-0.153243 0.066706 0.631000 13878745
-0.194690 -0.062331 0.808000 4803959
-0.192280 -0.057000 0.798000 5527160
-0.189389 -0.051651 0.786000 6316409
-0.188425 -0.046920 0.782000 6578808
-0.186256 -0.041963 0.773000 6710134
-0.184810 -0.037254 0.767000 6316921
-0.182160 -0.032400 0.756000 5724790
-0.181196 -0.027931 0.752000 5132918
-0.179028 -0.023351 0.743000 5983602
-0.176377 -0.018823 0.732000 6642319
-0.175413 -0.014560 0.728000 3487348
-0.173968 -0.010314 0.722000 3488882
-0.171799 -0.006111 0.713000 3226225
-0.170353 -0.002020 0.707000 3095154
-0.168667 0.002000 0.700000 3159923
-0.167221 0.005949 0.694000 3226227
-0.164811 0.009771 0.684000 4079735
-0.163848 0.013600 0.680000 2311032
-0.162643 0.017357 0.675000 4475002
-0.161438 0.021057 0.670000 5198714
-0.159510 0.024589 0.662000 4806017
-0.158065 0.028114 0.656000 4080763
-0.157101 0.031669 0.652000 4081533
-0.155173 0.034960 0.644000 4672891
-0.153969 0.038340 0.639000 5002106
-0.153005 0.041729 0.635000 5462143
-0.151559 0.044929 0.629000 5922433
-0.150354 0.048137 0.624000 6449542
-0.149872 0.051537 0.622000 10456727
-0.150113 0.055180 0.623000 13417421
-0.151077 0.059117 0.627000 13417168
-0.151318 0.062800 0.628000 13746389
-0.152041 0.066706 0.631000 13878746
-0.193150 -0.062331 0.808000 5197945
-0.191238 -0.057143 0.800000 5724537
-0.187891 -0.051651 0.786000 6381946
-0.186935 -0.046920 0.782000 6579320
-0.184545 -0.041909 0.772000 6513272
-0.183350 -0.037254 0.767000 6053755
-0.180720 -0.032400 0.756000 5461878
-0.179286 -0.027857 0.750000 5001589
-0.177373 -0.023320 0.742000 4802674
-0.174983 -0.018823 0.732000 4854384
-0.173549 -0.014520 0.726000 3488629
-0.172592 -0.010314 0.722000 3488882
-0.170441 -0.006111 0.713000 3226224
-0.169007 -0.002020 0.707000 3225971
-0.167333 0.002000 0.700000 3225715
-0.165899 0.005949 0.694000 3553142
-0.163509 0.009771 0.684000 4344696
-0.162313 0.013580 0.679000 3424893
-0.161357 0.017357 0.675000 4475771
-0.160162 0.021057 0.670000 4871801
-0.158250 0.024589 0.662000 4541311
-0.156815 0.028114 0.656000 3883129
-0.155620 0.031620 0.651000 4015484
-0.154186 0.035014 0.645000 4541051
-0.152751 0.038340 0.639000 4936059
-0.151795 0.041729 0.635000 5396096
-0.149883 0.044786 0.627000 5790337
-0.149166 0.048137 0.624000 6252935
-0.148688 0.051537 0.622000 10850709
-0.148927 0.055180 0.623000 13351885
-0.150122 0.059211 0.628000 13417167
-0.150361 0.062900 0.629000 13812439
-0.151078 0.066811 0.632000 13878746
-0.191611 -0.062331 0.808000 5591929
-0.189240 -0.057000 0.798000 5921657
-0.186869 -0.051783 0.788000 6447738
-0.185446 -0.046920 0.782000 6579321
-0.183311 -0.041963 0.773000 6316409
-0.182126 -0.037303 0.768000 5725050
-0.179754 -0.032486 0.758000 5263735
-0.178331 -0.027931 0.752000 4803697
-0.175960 -0.023320 0.742000 3686004
-0.173589 -0.018823 0.732000 3032693
-0.172640 -0.014560 0.728000 3552625
-0.171217 -0.010314 0.722000 3422833
-0.169083 -0.006111 0.713000 3291248
-0.167660 -0.002020 0.707000 3357041
-0.166000 0.002000 0.700000 3225459
-0.164340 0.005940 0.693000 3817077
-0.162206 0.009771 0.684000 4609144
-0.161020 0.013580 0.679000 4474746
-0.160071 0.017357 0.675000 4476282
-0.158886 0.021057 0.670000 4542585
-0.156989 0.024589 0.662000 4344195
-0.155566 0.028114 0.656000 3686523
-0.154380 0.031620 0.651000 3949691
-0.152720 0.034960 0.644000 4410234
-0.151771 0.038400 0.640000 4870524
-0.150349 0.041663 0.634000 5330558
-0.148689 0.044786 0.627000 5658752
-0.147740 0.048060 0.623000 5988742
-0.147503 0.051537 0.622000 11246998
-0.147977 0.055269 0.624000 13286606
-0.148926 0.059211 0.628000 13417168
-0.149637 0.063100 0.631000 13812440
-0.149874 0.066811 0.632000 13944028
-0.191013 -0.067280 0.812000 5124729
-0.190072 -0.062331 0.808000 5724280
-0.187485 -0.056929 0.797000 6052473
-0.185368 -0.051783 0.788000 6447738
-0.183956 -0.046920 0.782000 6907002
-0.181839 -0.041963 0.773000 6251129
-0.180428 -0.037254 0.767000 5724538
-0.177840 -0.032400 0.756000 5132664
-0.176429 -0.027857 0.750000 4672110
-0.174076 -0.023257 0.740000 4935029
-0.172194 -0.018823 0.732000 5732217
-0.171253 -0.014560 0.728000 3289964
-0.169371 -0.010286 0.720000 3291249
-0.167725 -0.006111 0.713000 3159919
-0.165843 -0.002014 0.705000 3291248
-0.164667 0.002000 0.700000 3290994
-0.163020 0.005940 0.693000 4146549
-0.160903 0.009771 0.684000 4542839
-0.159727 0.013580 0.679000 5131127
-0.158550 0.017331 0.674000 4475257
-0.157610 0.021057 0.670000 4474490
-0.155728 0.024589 0.662000 4608135
-0.154316 0.028114 0.656000 3752061
-0.153140 0.031620 0.651000 3884666
-0.151493 0.034960 0.644000 4344442
-0.150552 0.038400 0.640000 4870524
-0.149141 0.041663 0.634000 5330557
-0.147494 0.044786 0.627000 5659007
-0.146553 0.048060 0.623000 5923717
-0.146318 0.051537 0.622000 11509399
-0.146789 0.055269 0.624000 13286607
-0.147730 0.059211 0.628000 13417424
-0.148435 0.063100 0.631000 13878489
-0.189467 -0.067280 0.812000 5000829
-0.188533 -0.062331 0.808000 5856379
-0.186200 -0.057000 0.798000 6118778
-0.183867 -0.051783 0.788000 6513274
-0.182467 -0.046920 0.782000 7168890
-0.180367 -0.041963 0.773000 6185336
-0.178500 -0.037157 0.765000 5659001
-0.176400 -0.032400 0.756000 5066871
-0.175000 -0.027857 0.750000 4474993
-0.173133 -0.023320 0.742000 6175859
-0.170800 -0.018823 0.732000 8417657
-0.169867 -0.014560 0.728000 3026283
-0.168000 -0.010286 0.720000 3094129
-0.166367 -0.006111 0.713000 3028338
-0.164267 -0.002011 0.704000 3159919
-0.163333 0.002000 0.700000 3356531
-0.161933 0.005949 0.694000 4475252
-0.159600 0.009771 0.684000 4542584
-0.158433 0.013580 0.679000 5720439
-0.157500 0.017357 0.675000 4408442
-0.156100 0.021026 0.669000 4343931
-0.154233 0.024551 0.661000 4873090
-0.153067 0.028114 0.656000 3817595
-0.151900 0.031620 0.651000 3819386
-0.150267 0.034960 0.644000 4213626
-0.149333 0.038400 0.640000 4936060
-0.147700 0.041597 0.633000 5265021
-0.146300 0.044786 0.627000 5724543
-0.145367 0.048060 0.623000 5857668
-0.145133 0.051537 0.622000 11711139
-0.145600 0.055269 0.624000 13220816
-0.146767 0.059306 0.629000 13417681
-0.147233 0.063100 0.631000 13878489
-0.147467 0.066811 0.632000 14010333
-0.187457 -0.067114 0.810000 5199489
-0.186531 -0.062177 0.806000 6052478
-0.184680 -0.057000 0.798000 6250106
-0.182366 -0.051783 0.788000 6513274
-0.180977 -0.046920 0.782000 6775674
-0.178894 -0.041963 0.773000 6054262
-0.177043 -0.037157 0.765000 5528184
-0.174960 -0.032400 0.756000 4870262
-0.173109 -0.027783 0.748000 4343669
-0.171720 -0.023320 0.742000 5785456
-0.169406 -0.018823 0.732000 7560313
-0.168480 -0.014560 0.728000 2895977
-0.166629 -0.010286 0.720000 3027825
-0.165009 -0.006111 0.713000 3028084
-0.162926 -0.002011 0.704000 2962799
-0.162000 0.002000 0.700000 3488628
-0.160611 0.005949 0.694000 4213876
-0.158297 0.009771 0.684000 4147577
-0.157140 0.013580 0.679000 4801143
-0.156446 0.017383 0.676000 4079739
-0.154826 0.021026 0.669000 4213116
