# .PCD v.7 - Point Cloud Data file format
VERSION .7
FIELDS x y z rgb
SIZE 4 4 4 4
TYPE F F F I
COUNT 1 1 1 1
WIDTH 1319
HEIGHT 1
POINTS 1319
DATA ascii
-0.096840 0.071221 0.538000 3225729
-0.096300 0.073881 0.535000 3029887
-0.095760 0.076507 0.532000 3029888
-0.094860 0.078799 0.527000 3029888
-0.094320 0.081345 0.524000 4795235
-0.094320 0.084339 0.524000 10190711
-0.094860 0.087833 0.527000 10388349
-0.094860 0.090845 0.527000 10519939
-0.127516 -0.027958 0.716000 8222077
-0.127160 -0.023800 0.714000 7235460
-0.124845 -0.019361 0.701000 5922178
-0.123598 -0.015202 0.694000 4738687
-0.122351 -0.011123 0.687000 4081019
-0.120927 -0.007113 0.679000 3620219
-0.119680 -0.003200 0.672000 3554167
-0.118611 0.000634 0.666000 3422329
-0.117009 0.004380 0.657000 3291769
-0.116652 0.008110 0.655000 3028603
-0.114693 0.011653 0.644000 4942694
-0.113625 0.015190 0.638000 7510427
-0.112734 0.018689 0.633000 7702888
-0.111488 0.022059 0.626000 7572320
-0.110775 0.025472 0.622000 5528452
-0.109529 0.028700 0.615000 3160192
-0.107926 0.031743 0.606000 3291517
-0.107570 0.035090 0.604000 3423872
-0.106501 0.038158 0.598000 4410238
-0.105610 0.041228 0.593000 3422588
-0.104542 0.044165 0.587000 3488895
-0.103651 0.047114 0.582000 4211073
-0.102761 0.050007 0.577000 4081026
-0.101692 0.052750 0.571000 3687044
-0.101158 0.055718 0.568000 3883391
-0.100090 0.058341 0.562000 6779539
-0.099377 0.061114 0.558000 4473459
-0.098309 0.063611 0.552000 7633811
-0.097418 0.066161 0.547000 4342138
-0.096884 0.068907 0.544000 5137303
-0.095815 0.071221 0.538000 2963585
-0.095281 0.073881 0.535000 3029888
-0.094569 0.076363 0.531000 3029888
-0.093856 0.078799 0.527000 3030146
-0.093144 0.081190 0.523000 4732261
-0.093322 0.084339 0.524000 10256248
-0.093678 0.087667 0.526000 10322556
-0.094034 0.091017 0.528000 10519683
-0.126152 -0.027958 0.716000 8484999
-0.125624 -0.023767 0.713000 6581638
-0.123510 -0.019361 0.701000 5658500
-0.122276 -0.015202 0.694000 4607358
-0.121043 -0.011123 0.687000 4080507
-0.119810 -0.007124 0.680000 3619963
-0.118400 -0.003200 0.672000 3488120
-0.117343 0.000634 0.666000 3357047
-0.115933 0.004387 0.658000 3357305
-0.115405 0.008110 0.655000 3095163
-0.113643 0.011671 0.645000 7175537
-0.112410 0.015190 0.638000 7028098
-0.111352 0.018659 0.632000 9021292
-0.110295 0.022059 0.626000 4543074
-0.109590 0.025472 0.622000 5529978
-0.108357 0.028700 0.615000 3094143
-0.106771 0.031743 0.606000 3226237
-0.106419 0.035090 0.604000 2899071
-0.105186 0.038094 0.597000 4082047
-0.104657 0.041297 0.594000 3490433
-0.103248 0.044090 0.586000 3095168
-0.102367 0.047033 0.581000 3619966
-0.101838 0.050093 0.578000 3554689
-0.100605 0.052750 0.571000 3686785
-0.099900 0.055620 0.567000 3555197
-0.099195 0.058445 0.563000 8482709
-0.098490 0.061224 0.559000 4340853
-0.097257 0.063611 0.552000 8020880
-0.096552 0.066282 0.548000 4665723
-0.095848 0.068907 0.544000 5465744
-0.094790 0.071221 0.538000 2766462
-0.094438 0.074019 0.536000 3029888
-0.093557 0.076363 0.531000 2964352
-0.092676 0.078650 0.526000 3030144
-0.092148 0.081190 0.523000 4727907
-0.092148 0.084178 0.523000 10255477
-0.092676 0.087667 0.526000 10322556
-0.093029 0.091017 0.528000 10519683
-0.124963 -0.027997 0.717000 8618128
-0.124266 -0.023767 0.713000 6514057
-0.122523 -0.019416 0.703000 5593221
-0.120954 -0.015202 0.694000 4607102
-0.119560 -0.011107 0.686000 4015227
-0.118514 -0.007124 0.680000 3619963
-0.117120 -0.003200 0.672000 3422585
-0.116074 0.000634 0.666000 3357302
-0.114680 0.004387 0.658000 3422585
-0.113809 0.008085 0.653000 3225212
-0.112589 0.011690 0.646000 4798076
-0.111369 0.015214 0.639000 5833066
-0.110323 0.018689 0.633000 6711919
-0.108929 0.022024 0.625000 4461156
-0.108406 0.025472 0.622000 5726063
-0.107360 0.028747 0.616000 3029118
-0.105791 0.031795 0.607000 3357053
-0.105269 0.035090 0.604000 3292799
-0.104223 0.038158 0.598000 4147071
-0.103526 0.041297 0.594000 3425671
-0.102306 0.044165 0.587000 3226496
-0.101260 0.047033 0.581000 3356540
-0.100737 0.050093 0.578000 3357824
-0.099517 0.052750 0.571000 3488893
-0.098820 0.055620 0.567000 3227259
-0.098123 0.058445 0.563000 8684183
-0.097426 0.061224 0.559000 3422839
-0.096206 0.063611 0.552000 6571661
-0.095509 0.066282 0.548000 4864379
-0.094986 0.069033 0.545000 6910858
-0.093766 0.071221 0.538000 2831994
-0.093243 0.073881 0.535000 3029889
-0.092546 0.076363 0.531000 3095424
-0.091674 0.078650 0.526000 3095934
-0.091151 0.081190 0.523000 4731232
-0.091326 0.084339 0.524000 10321011
-0.091849 0.087833 0.527000 10322300
-0.092023 0.091017 0.528000 10519427
-0.123597 -0.027997 0.717000 8813458
-0.122563 -0.023700 0.711000 6384776
-0.121356 -0.019444 0.704000 5592709
-0.119460 -0.015180 0.693000 4541565
-0.118253 -0.011107 0.686000 3949179
-0.117219 -0.007124 0.680000 3554682
-0.115840 -0.003200 0.672000 3422842
-0.114633 0.000633 0.665000 3357048
-0.113254 0.004380 0.657000 3422841
-0.112392 0.008072 0.652000 3356794
-0.111358 0.011690 0.646000 2494847
-0.110324 0.015238 0.640000 4674953
-0.109462 0.018748 0.635000 4422774
-0.107738 0.022024 0.625000 4422257
-0.107221 0.025472 0.622000 5989748
-0.106187 0.028747 0.616000 2963069
-0.104635 0.031795 0.607000 3488383
-0.104118 0.035090 0.604000 3687042
-0.103429 0.038286 0.600000 4211070
-0.102394 0.041297 0.594000 3359618
-0.101188 0.044165 0.587000 3292031
-0.100153 0.047033 0.581000 3094910
-0.099636 0.050093 0.578000 3095681
-0.098430 0.052750 0.571000 3292285
-0.097568 0.055522 0.566000 2963581
-0.097050 0.058445 0.563000 8810644
-0.096361 0.061224 0.559000 2437493
-0.095154 0.063611 0.552000 5068176
-0.094465 0.066282 0.548000 5057655
-0.093948 0.069033 0.545000 8350608
-0.092741 0.071221 0.538000 2962298
-0.092396 0.074019 0.536000 3029889
-0.091190 0.076075 0.529000 3226752
-0.090672 0.078650 0.526000 3095679
-0.090155 0.081190 0.523000 4728164
-0.090155 0.084178 0.523000 10321520
-0.090672 0.087667 0.526000 10387839
-0.090845 0.090845 0.527000 10453892
-0.122231 -0.027997 0.717000 9208468
-0.121550 -0.023767 0.713000 6645895
-0.120527 -0.019527 0.707000 5592965
-0.118310 -0.015202 0.694000 4607357
-0.117117 -0.011123 0.687000 3949435
-0.115924 -0.007124 0.680000 3619962
-0.114560 -0.003200 0.672000 3422842
-0.113367 0.000633 0.665000 3291257
-0.112173 0.004387 0.658000 3488376
-0.111662 0.008110 0.655000 3421817
-0.109957 0.011671 0.645000 4473473
-0.108934 0.015214 0.639000 7646633
-0.108252 0.018748 0.635000 7704188
-0.106548 0.022024 0.625000 8700286
-0.106036 0.025472 0.622000 4998009
-0.105013 0.028747 0.616000 3094397
-0.103479 0.031795 0.607000 3554176
-0.103138 0.035148 0.605000 4278150
-0.102286 0.038286 0.600000 3817084
-0.101263 0.041297 0.594000 3227518
-0.100240 0.044240 0.588000 3226238
-0.099047 0.047033 0.581000 3422592
-0.098535 0.050093 0.578000 3425154
-0.097342 0.052750 0.571000 3357566
-0.096490 0.055522 0.566000 2897790
-0.096149 0.058549 0.564000 8086417
-0.095467 0.061333 0.560000 3686003
-0.094103 0.063611 0.552000 6455444
-0.093421 0.066282 0.548000 4144242
-0.092910 0.069033 0.545000 6446486
-0.091887 0.071353 0.539000 3028601
-0.091375 0.074019 0.536000 3095425
-0.090182 0.076075 0.529000 3095680
-0.089670 0.078650 0.526000 3095681
-0.089159 0.081190 0.523000 4599911
-0.089159 0.084178 0.523000 10321773
-0.089500 0.087500 0.525000 10388098
-0.089841 0.090845 0.527000 10519428
-0.090182 0.094212 0.529000 10848393
-0.120697 -0.027958 0.716000 9669784
-0.119854 -0.023700 0.711000 6845318
-0.118843 -0.019471 0.705000 5592453
-0.116989 -0.015202 0.694000 4672894
-0.115809 -0.011123 0.687000 3949179
-0.114629 -0.007124 0.680000 3620218
-0.113280 -0.003200 0.672000 3488378
-0.111763 0.000631 0.663000 3225979
-0.110920 0.004387 0.658000 3488377
-0.110414 0.008110 0.655000 3487867
-0.108729 0.011671 0.645000 6438019
-0.107717 0.015214 0.639000 10519705
-0.107043 0.018748 0.635000 10985072
-0.105357 0.022024 0.625000 12886374
-0.104851 0.025472 0.622000 4064123
-0.103840 0.028747 0.616000 3160189
-0.102491 0.031848 0.608000 3619452
-0.101817 0.035090 0.604000 4866689
-0.100806 0.038158 0.598000 3357564
-0.099963 0.041228 0.593000 3094909
-0.099289 0.044315 0.589000 3225726
-0.097940 0.047033 0.581000 3752063
-0.097434 0.050093 0.578000 3755143
-0.096254 0.052750 0.571000 3358079
-0.095411 0.055522 0.566000 2767227
-0.095074 0.058549 0.564000 7298709
-0.094231 0.061224 0.559000 4928886
-0.093051 0.063611 0.552000 7825809
-0.092377 0.066282 0.548000 3289201
-0.091871 0.069033 0.545000 4480659
-0.091029 0.071486 0.540000 3159418
-0.090354 0.074019 0.536000 3095424
-0.089006 0.075931 0.528000 3030399
-0.088669 0.078650 0.526000 3030143
-0.088163 0.081190 0.523000 4530794
-0.088163 0.084178 0.523000 10256237
-0.088500 0.087500 0.525000 10388097
-0.088837 0.090845 0.527000 10519684
-0.089174 0.094212 0.529000 10717320
-0.119333 -0.027958 0.716000 9737371
-0.118500 -0.023700 0.711000 7305605
-0.117500 -0.019471 0.705000 5396356
-0.115833 -0.015224 0.695000 4607358
-0.114500 -0.011123 0.687000 3949179
-0.113333 -0.007124 0.680000 3489401
-0.112000 -0.003200 0.672000 3422841
-0.110500 0.000631 0.663000 3357309
-0.109667 0.004387 0.658000 3488378
-0.108833 0.008085 0.653000 3487612
-0.107500 0.011671 0.645000 5655685
-0.106500 0.015214 0.639000 8082057
-0.105833 0.018748 0.635000 8880484
-0.104167 0.022024 0.625000 7304271
-0.103667 0.025472 0.622000 3352445
-0.102833 0.028793 0.617000 3160189
-0.101167 0.031795 0.607000 3422840
-0.100667 0.035090 0.604000 4079228
-0.099500 0.038094 0.597000 3226236
-0.098833 0.041228 0.593000 3160188
-0.098000 0.044240 0.588000 3357310
-0.097000 0.047114 0.582000 4671358
-0.096333 0.050093 0.578000 3821707
-0.095000 0.052657 0.570000 3292545
-0.094500 0.055620 0.567000 2832760
-0.094000 0.058549 0.564000 7563417
-0.093167 0.061224 0.559000 4537464
-0.092000 0.063611 0.552000 7560077
-0.091333 0.066282 0.548000 3880815
-0.090833 0.069033 0.545000 6385295
-0.090000 0.071486 0.540000 3028347
-0.089000 0.073743 0.534000 3095167
-0.088000 0.075931 0.528000 2964606
-0.087667 0.078650 0.526000 2899326
-0.087167 0.081190 0.523000 4403565
-0.087167 0.084178 0.523000 10256236
-0.087500 0.087500 0.525000 10388096
-0.087833 0.090845 0.527000 10519684
-0.088167 0.094212 0.529000 10717319
-0.117640 -0.027880 0.714000 9870742
-0.117146 -0.023700 0.711000 7698822
-0.116157 -0.019471 0.705000 5265028
-0.114345 -0.015202 0.694000 4475771
-0.113521 -0.011155 0.689000 4014715
-0.112368 -0.007145 0.682000 3358074
-0.111050 -0.003210 0.674000 3357306
-0.109072 0.000630 0.662000 3488379
-0.108413 0.004387 0.658000 3488378
-0.107590 0.008085 0.653000 3487868
-0.106436 0.011690 0.646000 4937346
-0.105283 0.015214 0.639000 5658773
-0.104624 0.018748 0.635000 6773097
-0.102976 0.022024 0.625000 1653089
-0.102152 0.025390 0.620000 2635388
-0.101658 0.028793 0.617000 3160700
-0.100175 0.031848 0.608000 3291770
-0.099516 0.035090 0.604000 3292285
-0.098857 0.038286 0.600000 3160701
-0.097869 0.041297 0.594000 3225981
-0.096880 0.044240 0.588000 3554175
-0.095891 0.047114 0.582000 5524095
-0.095232 0.050093 0.578000 3887750
-0.093914 0.052657 0.570000 3226496
-0.093255 0.055522 0.566000 2898556
-0.092926 0.058549 0.564000 7757712
-0.092102 0.061224 0.559000 4208769
-0.090949 0.063611 0.552000 7298451
-0.090290 0.066282 0.548000 4467568
-0.089795 0.069033 0.545000 8286871
-0.088971 0.071486 0.540000 2961787
-0.088477 0.074157 0.537000 3029887
-0.087159 0.076075 0.529000 2899071
-0.086830 0.078799 0.527000 2768253
-0.086170 0.081190 0.523000 4335470
-0.086170 0.084178 0.523000 10189930
-0.086500 0.087500 0.525000 10388096
-0.086830 0.090845 0.527000 10519685
-0.087324 0.094390 0.530000 10717319
-0.116280 -0.027880 0.714000 9735569
-0.115791 -0.023700 0.711000 7435142
-0.114814 -0.019471 0.705000 5134212
-0.113023 -0.015202 0.694000 4409977
-0.111883 -0.011123 0.687000 4015227
-0.111069 -0.007145 0.682000 3488891
-0.109929 -0.003214 0.675000 3422842
-0.107974 0.000631 0.663000 3488378
-0.107160 0.004387 0.658000 3488378
-0.106346 0.008085 0.653000 3487868
-0.105043 0.011671 0.645000 5263999
-0.104229 0.015238 0.640000 5662626
-0.103414 0.018748 0.635000 4732270
-0.101786 0.022024 0.625000 2633587
-0.100809 0.025350 0.619000 2963067
-0.100483 0.028793 0.617000 3226235
-0.099017 0.031848 0.608000 3292028
-0.098366 0.035090 0.604000 3291774
-0.097551 0.038222 0.599000 3160702
-0.096737 0.041297 0.594000 3225983
-0.095597 0.044165 0.587000 3619712
-0.094783 0.047114 0.582000 4605312
-0.094131 0.050093 0.578000 3687296
-0.092829 0.052657 0.570000 3160191
-0.092340 0.055620 0.567000 2963839
-0.091689 0.058445 0.563000 7232647
-0.091200 0.061333 0.560000 4474505
-0.089734 0.063496 0.551000 8219033
-0.089246 0.066282 0.548000 4733296
-0.088920 0.069160 0.546000 7962527
-0.087780 0.071353 0.539000 3028347
-0.087454 0.074157 0.537000 3029887
-0.086314 0.076219 0.530000 2964608
-0.085500 0.078500 0.525000 2899581
-0.085174 0.081190 0.523000 4338286
-0.085174 0.084178 0.523000 10190183
-0.085500 0.087500 0.525000 10322560
-0.085826 0.090845 0.527000 10519685
-0.086151 0.094212 0.529000 10717575
-0.114920 -0.027880 0.714000 9669004
-0.114437 -0.023700 0.711000 7173253
-0.113471 -0.019471 0.705000 5002884
-0.111540 -0.015180 0.693000 4278907
-0.110574 -0.011123 0.687000 4015490
-0.109770 -0.007145 0.682000 3554428
-0.108482 -0.003210 0.674000 3488378
-0.106711 0.000631 0.663000 3488378
-0.106229 0.004400 0.660000 3488123
-0.105102 0.008085 0.653000 3488123
-0.103653 0.011653 0.644000 5650557
-0.102849 0.015214 0.639000 5591690
-0.102044 0.018718 0.634000 2697844
-0.100756 0.022059 0.626000 3552374
-0.099630 0.025350 0.619000 3291257
-0.099308 0.028793 0.617000 3226236
-0.097698 0.031795 0.607000 3292028
-0.097215 0.035090 0.604000 3226494
-0.096250 0.038158 0.598000 3225727
-0.095606 0.041297 0.594000 3226751
-0.094479 0.044165 0.587000 3751809
-0.093674 0.047114 0.582000 3687039
-0.093030 0.050093 0.578000 3488382
-0.091904 0.052750 0.571000 3029631
-0.091260 0.055620 0.567000 2963328
-0.090616 0.058445 0.563000 6709390
-0.090133 0.061333 0.560000 4803207
-0.089007 0.063727 0.553000 9137816
-0.088202 0.066282 0.548000 4992117
-0.087719 0.069033 0.545000 7559056
-0.086753 0.071353 0.539000 3158654
-0.086270 0.074019 0.536000 3029888
-0.085627 0.076507 0.532000 3030145
-0.084500 0.078500 0.525000 3030398
-0.084178 0.081190 0.523000 4336757
-0.084178 0.084178 0.523000 10123880
-0.084500 0.087500 0.525000 10322559
-0.084822 0.090845 0.527000 10519685
-0.084983 0.094034 0.528000 10717576
-0.113560 -0.027880 0.714000 10064775
-0.113083 -0.023700 0.711000 6777733
-0.112129 -0.019471 0.705000 5199748
-0.110538 -0.015224 0.695000 4344446
-0.109266 -0.011123 0.687000 4343945
-0.108470 -0.007145 0.682000 3750269
-0.107357 -0.003214 0.675000 3488378
-0.105449 0.000631 0.663000 3488122
-0.104971 0.004400 0.660000 3357308
-0.104176 0.008110 0.655000 3423098
-0.102586 0.011671 0.645000 4405370
-0.101790 0.015238 0.640000 4207475
-0.100677 0.018689 0.633000 3093625
-0.099564 0.022059 0.626000 3356794
-0.098610 0.025390 0.620000 3291767
-0.098132 0.028793 0.617000 3553916
-0.096542 0.031795 0.607000 3357564
-0.096065 0.035090 0.604000 3292286
-0.095270 0.038222 0.599000 3225983
-0.094474 0.041297 0.594000 3423871
-0.093361 0.044165 0.587000 4410497
-0.092566 0.047114 0.582000 3752063
-0.091930 0.050093 0.578000 3291772
-0.090816 0.052750 0.571000 3160959
-0.090339 0.055718 0.568000 3029376
-0.089544 0.058445 0.563000 6452373
-0.089067 0.061333 0.560000 3949700
-0.088112 0.063842 0.554000 7694486
-0.087158 0.066282 0.548000 3880058
-0.086681 0.069033 0.545000 4655233
-0.085727 0.071353 0.539000 3028865
-0.085250 0.074019 0.536000 3029888
-0.084613 0.076507 0.532000 3029890
-0.083500 0.078500 0.525000 3030143
-0.083182 0.081190 0.523000 4273531
-0.083182 0.084178 0.523000 10123880
-0.083500 0.087500 0.525000 10322558
-0.083818 0.090845 0.527000 10453892
-0.083977 0.094034 0.528000 10717576
-0.112200 -0.027880 0.714000 10459020
-0.111729 -0.023700 0.711000 6321027
-0.110629 -0.019444 0.704000 5461379
-0.109214 -0.015224 0.695000 4409982
-0.107957 -0.011123 0.687000 4738691
-0.107329 -0.007155 0.683000 3881852
-0.106071 -0.003214 0.675000 3488634
-0.104186 0.000631 0.663000 3488378
-0.103400 0.004387 0.658000 3226491
-0.102929 0.008110 0.655000 3357050
-0.101200 0.011653 0.644000 3095418
-0.100571 0.015238 0.640000 2766454
-0.099157 0.018630 0.631000 3422332
-0.098529 0.022094 0.627000 3095162
-0.097900 0.025513 0.623000 3292284
-0.096800 0.028747 0.616000 3818111
-0.095386 0.031795 0.607000 3423102
-0.094757 0.035031 0.603000 3292543
-0.094129 0.038222 0.599000 3291776
-0.093343 0.041297 0.594000 3620478
-0.092243 0.044165 0.587000 5067394
-0.091457 0.047114 0.582000 3752319
-0.090829 0.050093 0.578000 3160446
-0.089729 0.052750 0.571000 3226496
-0.089100 0.055620 0.567000 3095167
-0.088471 0.058445 0.563000 6184334
-0.087686 0.061114 0.558000 3160711
-0.087057 0.063842 0.554000 6185371
-0.086114 0.066282 0.548000 2763895
-0.085643 0.069033 0.545000 1782922
-0.084700 0.071353 0.539000 2964100
-0.084229 0.074019 0.536000 3029889
-0.083600 0.076507 0.532000 3095425
-0.083286 0.079248 0.530000 3029889
-0.082186 0.081190 0.523000 4205180
-0.082186 0.084178 0.523000 10058088
-0.082500 0.087500 0.525000 10322814
-0.082814 0.090845 0.527000 10388612
-0.082971 0.094034 0.528000 10717832
-0.111150 -0.027958 0.716000 9143185
-0.110374 -0.023700 0.711000 6252929
-0.109443 -0.019471 0.705000 5395841
-0.107890 -0.015224 0.695000 4344190
-0.106649 -0.011123 0.687000 4343420
-0.106028 -0.007155 0.683000 3751035
-0.104786 -0.003214 0.675000 3488634
-0.102923 0.000631 0.663000 3357562
-0.102147 0.004387 0.658000 3291770
-0.101370 0.008085 0.653000 3225467
-0.100129 0.011671 0.645000 3621241
-0.099352 0.015238 0.640000 3095418
-0.097955 0.018630 0.631000 3357310
-0.097179 0.022059 0.626000 2440059
-0.096713 0.025513 0.623000 3028353
-0.095627 0.028747 0.616000 4543106
-0.094540 0.031900 0.609000 3488640
-0.093764 0.035090 0.604000 3620736
-0.093143 0.038286 0.600000 3554688
-0.092367 0.041367 0.595000 3881597
-0.090970 0.044090 0.586000 4739714
-0.090349 0.047114 0.582000 3225472
-0.089728 0.050093 0.578000 3160447
-0.088641 0.052750 0.571000 3488640
-0.088020 0.055620 0.567000 3095165
-0.087399 0.058445 0.563000 6838407
-0.086778 0.061224 0.559000 3751817
-0.086002 0.063842 0.554000 6450335
-0.085070 0.066282 0.548000 3683188
-0.084605 0.069033 0.545000 4222867
-0.083673 0.071353 0.539000 3291526
-0.083208 0.074019 0.536000 3029889
-0.082587 0.076507 0.532000 3095424
-0.082431 0.079397 0.531000 3029890
-0.081190 0.081190 0.523000 4207996
-0.081190 0.084178 0.523000 10059111
-0.081500 0.087500 0.525000 10322558
-0.081966 0.091017 0.528000 10388611
-0.082121 0.094212 0.529000 10848648
-0.109787 -0.027958 0.716000 7762575
-0.109020 -0.023700 0.711000 6187398
-0.107947 -0.019444 0.704000 5330307
-0.106567 -0.015224 0.695000 4278655
-0.105340 -0.011123 0.687000 4014972
-0.104727 -0.007155 0.683000 3619963
-0.104113 -0.003233 0.679000 3423099
-0.101967 0.000633 0.665000 3226491
-0.101200 0.004400 0.660000 3357307
-0.100127 0.008085 0.653000 3094907
-0.099053 0.011690 0.646000 4147325
-0.098287 0.015262 0.641000 3422582
-0.096753 0.018630 0.631000 3292290
-0.095987 0.022059 0.626000 1713527
-0.095373 0.025472 0.622000 2764142
-0.094607 0.028793 0.617000 5261693
-0.093380 0.031900 0.609000 3618431
-0.092613 0.035090 0.604000 3949951
-0.092000 0.038286 0.600000 3883904
-0.091387 0.041436 0.596000 4080511
-0.090007 0.044165 0.587000 4346499
-0.089240 0.047114 0.582000 2701695
-0.088627 0.050093 0.578000 3160960
-0.087553 0.052750 0.571000 3686530
-0.086940 0.055620 0.567000 3095168
-0.086480 0.058549 0.564000 7429514
-0.085713 0.061224 0.559000 4405634
-0.084947 0.063842 0.554000 6708890
-0.084027 0.066282 0.548000 4601723
-0.083567 0.069033 0.545000 6646158
-0.082647 0.071353 0.539000 3617671
-0.082187 0.074019 0.536000 3030144
-0.081573 0.076507 0.532000 3095424
-0.081420 0.079397 0.531000 2964353
-0.080193 0.081190 0.523000 4206455
-0.245539 0.084229 0.536000 1712719
-0.080040 0.084017 0.522000 10057831
-0.246455 0.087617 0.538000 1114697
-0.080193 0.087167 0.523000 10322558
-0.080807 0.090845 0.527000 10388611
-0.080960 0.094034 0.528000 10914440
-0.108423 -0.027958 0.716000 8025229
-0.107666 -0.023700 0.711000 6055307
-0.106606 -0.019444 0.704000 5396100
-0.105243 -0.015224 0.695000 4344192
-0.104031 -0.011123 0.687000 4014460
-0.103426 -0.007155 0.683000 3619963
-0.102820 -0.003233 0.679000 3423356
-0.100851 0.000634 0.666000 3226492
-0.099943 0.004400 0.660000 3357308
-0.099186 0.008110 0.655000 3225723
-0.097823 0.011690 0.646000 3752576
-0.096914 0.015238 0.640000 3094387
-0.095551 0.018630 0.631000 5202053
-0.094794 0.022059 0.626000 4194675
-0.094189 0.025472 0.622000 4873563
-0.093431 0.028793 0.617000 4472696
-0.092220 0.031900 0.609000 3487869
-0.091463 0.035090 0.604000 4147838
-0.090857 0.038286 0.600000 4607615
-0.090100 0.041367 0.595000 4475778
-0.089040 0.044240 0.588000 4411523
-0.088131 0.047114 0.582000 2964094
-0.087677 0.050180 0.579000 3357824
-0.086466 0.052750 0.571000 4540549
-0.085709 0.055522 0.566000 3357314
-0.085254 0.058445 0.563000 6448525
-0.084497 0.061114 0.558000 3815035
-0.083891 0.063842 0.554000 6639508
-0.082983 0.066282 0.548000 4736130
-0.082377 0.068907 0.544000 6578825
-0.081469 0.071221 0.538000 3355783
-0.081166 0.074019 0.536000 3030143
-0.080409 0.076363 0.531000 3029888
-0.080106 0.079098 0.529000 3029632
-0.244062 0.081014 0.535000 4802399
-0.079197 0.081190 0.523000 3945586
-0.244974 0.084386 0.537000 5003595
-0.079046 0.084017 0.522000 10059367
-0.245887 0.087780 0.539000 4142138
-0.079197 0.087167 0.523000 10322558
-0.079803 0.090845 0.527000 10388866
-0.079803 0.093856 0.527000 10848648
-0.107059 -0.027958 0.716000 8288660
-0.106311 -0.023700 0.711000 5924487
-0.105115 -0.019416 0.703000 5461637
-0.103770 -0.015202 0.694000 4410241
-0.102723 -0.011123 0.687000 3948413
-0.102125 -0.007155 0.683000 3619962
-0.101377 -0.003229 0.678000 3423354
-0.099583 0.000634 0.666000 3160955
-0.098686 0.004400 0.660000 3422590
-0.097938 0.008110 0.655000 3357306
-0.096443 0.011671 0.645000 3358846
-0.095695 0.015238 0.640000 2700147
-0.094499 0.018659 0.632000 7182197
-0.093602 0.022059 0.626000 6645112
-0.093004 0.025472 0.622000 6919018
-0.092256 0.028793 0.617000 3684728
-0.091060 0.031900 0.609000 3357308
-0.090312 0.035090 0.604000 4344190
-0.089714 0.038286 0.600000 5329792
-0.088967 0.041367 0.595000 4805251
-0.087920 0.044240 0.588000 4478853
-0.087023 0.047114 0.582000 3160960
-0.086574 0.050180 0.579000 3555201
-0.085378 0.052750 0.571000 5393794
-0.084481 0.055424 0.565000 3619457
-0.084032 0.058341 0.562000 5395852
-0.083285 0.061005 0.557000 3225731
-0.082836 0.063842 0.554000 6512536
-0.081790 0.066161 0.547000 4865411
-0.081341 0.068907 0.544000 6446739
-0.080444 0.071221 0.538000 3027845
-0.080145 0.074019 0.536000 3029888
-0.242134 0.074620 0.533000 4936308
-0.079397 0.076363 0.531000 3029888
-0.241680 0.077520 0.532000 6313819
-0.078949 0.078949 0.528000 3029887
-0.242134 0.080711 0.533000 8020064
-0.078201 0.081190 0.523000 3748725
-0.243497 0.084229 0.536000 8218211
-0.078051 0.084017 0.522000 10057831
-0.244406 0.087617 0.538000 7098462
-0.078201 0.087167 0.523000 10322559
-0.078799 0.090845 0.527000 10388610
-0.078799 0.093856 0.527000 10783368
-0.105843 -0.027997 0.717000 8553370
-0.104957 -0.023700 0.711000 6053764
-0.103481 -0.019361 0.701000 5592965
-0.102448 -0.015202 0.694000 4673154
-0.101414 -0.011123 0.687000 4014461
-0.100824 -0.007155 0.683000 3685498
-0.100086 -0.003229 0.678000 3554936
-0.098314 0.000634 0.666000 3357307
-0.097429 0.004400 0.660000 3488639
-0.096690 0.008110 0.655000 3291514
-0.095214 0.011671 0.645000 3292796
-0.094476 0.015238 0.640000 2765684
-0.093738 0.018748 0.635000 8358757
-0.092410 0.022059 0.626000 9553278
-0.091524 0.025390 0.620000 6320761
-0.090933 0.028747 0.616000 3488376
-0.089900 0.031900 0.609000 3357819
-0.089162 0.035090 0.604000 4212093
-0.088719 0.038350 0.601000 5067649
-0.087981 0.041436 0.596000 5002628
-0.086652 0.044165 0.587000 4805766
-0.085914 0.047114 0.582000 3423363
-0.085324 0.050093 0.578000 3949697
-0.084143 0.052657 0.570000 4605568
-0.083552 0.055522 0.566000 3291519
-0.082962 0.058341 0.562000 5659787
-0.082224 0.061005 0.557000 3623307
-0.081781 0.063842 0.554000 6982301
-0.080748 0.066161 0.547000 4670595
-0.080305 0.068907 0.544000 6714782
-0.079419 0.071221 0.538000 3620482
-0.079124 0.074019 0.536000 3029889
-0.240667 0.074480 0.532000 5331579
-0.078386 0.076363 0.531000 3029887
-0.240667 0.077520 0.532000 6186860
-0.077795 0.078799 0.527000 3095935
-0.241119 0.080711 0.533000 8350560
-0.077205 0.081190 0.523000 3617144
-0.242476 0.084229 0.536000 8878715
-0.077057 0.084017 0.522000 9928551
-0.242929 0.087454 0.537000 8417410
-0.077205 0.087167 0.523000 10388096
-0.077648 0.090672 0.526000 10454146
-0.077795 0.093856 0.527000 10848648
-0.104477 -0.027997 0.717000 8817555
-0.103603 -0.023700 0.711000 6121861
-0.102437 -0.019416 0.703000 5723782
-0.101126 -0.015202 0.694000 4935553
-0.100397 -0.011155 0.689000 4014718
-0.099523 -0.007155 0.683000 3685755
-0.098357 -0.003214 0.675000 3686527
-0.097046 0.000634 0.666000 3554427
-0.096171 0.004400 0.660000 3619971
-0.095443 0.008110 0.655000 3160443
-0.093986 0.011671 0.645000 3292028
-0.093257 0.015238 0.640000 2830708
-0.092529 0.018748 0.635000 9607780
-0.091217 0.022059 0.626000 12425080
-0.090780 0.025513 0.623000 5787249
-0.089760 0.028747 0.616000 3292283
-0.088449 0.031795 0.607000 3424636
-0.087720 0.034973 0.602000 4015486
-0.087429 0.038286 0.600000 4805250
-0.086554 0.041297 0.594000 5133186
-0.085534 0.044165 0.587000 5134978
-0.084806 0.047114 0.582000 3686784
-0.084223 0.050093 0.578000 4344966
-0.083057 0.052657 0.570000 3818112
-0.082474 0.055522 0.566000 2898816
-0.081891 0.058341 0.562000 5920399
-0.081163 0.061005 0.557000 4021132
-0.080580 0.063727 0.553000 7435932
-0.079851 0.066282 0.548000 4472963
-0.079269 0.068907 0.544000 6908825
-0.078540 0.071353 0.539000 4276355
-0.078103 0.074019 0.536000 3029889
-0.239653 0.074480 0.532000 5725816
-0.077374 0.076363 0.531000 3095168
-0.239653 0.077520 0.532000 5987691
-0.076791 0.078799 0.527000 3095680
-0.240104 0.080711 0.533000 8679009
-0.076209 0.081190 0.523000 3487610
-0.241455 0.084229 0.536000 9468281
-0.076063 0.084017 0.522000 9729897
-0.242807 0.087780 0.539000 9731199
-0.076209 0.087167 0.523000 10519680
-0.076646 0.090672 0.526000 10519939
-0.076791 0.093856 0.527000 10848393
-0.103111 -0.027997 0.717000 9410188
-0.102536 -0.023767 0.713000 6186118
-0.101098 -0.019416 0.703000 5987974
-0.099804 -0.015202 0.694000 5198465
-0.099085 -0.011155 0.689000 4080766
-0.098366 -0.007166 0.684000 3751548
-0.096640 -0.003200 0.672000 3949446
-0.095921 0.000635 0.667000 3423354
-0.094627 0.004387 0.658000 4081030
-0.093908 0.008085 0.653000 3291772
-0.092757 0.011671 0.645000 3226236
-0.091894 0.015214 0.639000 2896501
-0.091319 0.018748 0.635000 8355682
-0.089881 0.022024 0.625000 6247794
-0.089162 0.025390 0.620000 4274793
-0.088587 0.028747 0.616000 3489918
-0.087436 0.031848 0.608000 3949181
-0.086573 0.034973 0.602000 3949695
-0.086142 0.038222 0.599000 4408962
-0.085279 0.041228 0.593000 4804479
-0.084416 0.044165 0.587000 4806270
-0.083697 0.047114 0.582000 3620990
-0.083122 0.050093 0.578000 3950219
-0.081971 0.052657 0.570000 3555713
-0.081540 0.055620 0.567000 2898560
-0.080390 0.058030 0.559000 6447506
-0.080102 0.061005 0.557000 4346765
-0.079383 0.063611 0.552000 7635612
-0.078808 0.066282 0.548000 4212355
-0.078232 0.068907 0.544000 7500436
-0.077370 0.071221 0.538000 4080260
-0.077082 0.074019 0.536000 3029889
-0.238191 0.074340 0.531000 5724532
-0.076219 0.076219 0.530000 3095424
-0.238640 0.077520 0.532000 5459563
-0.075788 0.078799 0.527000 3095424
-0.238640 0.080560 0.532000 8876385
-0.075212 0.081190 0.523000 3355771
-0.240434 0.084229 0.536000 9599351
-0.075069 0.084017 0.522000 9928299
-0.241780 0.087780 0.539000 9731195
-0.075212 0.087167 0.523000 10454400
-0.075500 0.090500 0.525000 10585732
-0.075788 0.093856 0.527000 10848650
-0.102030 -0.032184 0.719000 12098197
-0.101746 -0.027997 0.717000 10003342
-0.101178 -0.023767 0.713000 6253706
-0.099475 -0.019361 0.701000 6316681
-0.098340 -0.015180 0.693000 5396608
-0.097772 -0.011155 0.689000 4146046
-0.097347 -0.007187 0.686000 3751292
-0.095218 -0.003195 0.671000 4211842
-0.094509 0.000634 0.666000 3227002
-0.093373 0.004387 0.658000 4542595
-0.092664 0.008085 0.653000 3357050
-0.091387 0.011653 0.644000 3226237
-0.090677 0.015214 0.639000 2896760
-0.089968 0.018718 0.634000 7115107
-0.088690 0.022024 0.625000 76153
-0.087981 0.025390 0.620000 2833012
-0.087413 0.028747 0.616000 3688065
-0.086136 0.031795 0.607000 4473466
-0.085427 0.034973 0.602000 3818625
-0.085001 0.038222 0.599000 4077696
-0.083866 0.041089 0.591000 4476544
-0.083298 0.044165 0.587000 4477825
-0.082730 0.047195 0.583000 3555966
-0.082021 0.050093 0.578000 3620999
-0.081028 0.052750 0.571000 3227007
-0.080602 0.055718 0.568000 2899072
-0.079609 0.058237 0.561000 6901901
-0.079041 0.061005 0.557000 4676753
-0.078331 0.063611 0.552000 7819144
-0.077764 0.066282 0.548000 4011643
-0.077196 0.068907 0.544000 8022677
-0.076345 0.071221 0.538000 3947653
-0.240753 0.072380 0.539000 6448768
-0.076061 0.074019 0.536000 3029890
-0.237180 0.074340 0.531000 5725046
-0.075210 0.076219 0.530000 3095681
-0.237180 0.077374 0.531000 4868196
-0.074784 0.078799 0.527000 3095681
-0.237627 0.080560 0.532000 9074285
-0.074216 0.081190 0.523000 3160188
-0.239413 0.084229 0.536000 9665146
-0.074074 0.084017 0.522000 10055785
-0.240307 0.087617 0.538000 9731197
-0.074216 0.087167 0.523000 10389122
-0.074500 0.090500 0.525000 10585732
-0.074784 0.093856 0.527000 10848905
-0.100660 -0.032184 0.719000 12227989
-0.100240 -0.027958 0.716000 9539984
-0.099540 -0.023700 0.711000 6909838
-0.098560 -0.019444 0.704000 6645131
-0.096740 -0.015136 0.691000 5593984
-0.096180 -0.011123 0.687000 4211582
-0.095620 -0.007155 0.683000 3751036
-0.093940 -0.003195 0.671000 3882621
-0.093240 0.000634 0.666000 3357563
-0.091980 0.004380 0.657000 4080767
-0.091420 0.008085 0.653000 3422073
-0.090160 0.011653 0.644000 3160958
-0.089460 0.015214 0.639000 3159420
-0.088760 0.018718 0.634000 6451812
-0.087640 0.022059 0.626000 1385856
-0.086660 0.025350 0.619000 3687295
-0.086240 0.028747 0.616000 4148613
-0.084980 0.031795 0.607000 3882871
-0.084280 0.034973 0.602000 3555460
-0.083860 0.038222 0.599000 3751038
-0.082880 0.041158 0.592000 4148609
-0.082180 0.044165 0.587000 4015491
-0.081760 0.047276 0.584000 3422335
-0.081200 0.050267 0.580000 3423874
-0.079940 0.052750 0.571000 3161213
-0.079520 0.055718 0.568000 3029632
-0.078540 0.058237 0.561000 5784712
-0.077980 0.061005 0.557000 4281749
-0.077280 0.063611 0.552000 4325748
-0.076860 0.066403 0.549000 3421299
-0.076160 0.068907 0.544000 8352406
-0.240171 0.069429 0.540000 6448257
-0.075460 0.071353 0.539000 3949189
-0.239282 0.072246 0.538000 6382467
-0.075040 0.074019 0.536000 3029890
-0.236169 0.074340 0.531000 5725304
-0.073920 0.075931 0.528000 3095425
-0.235724 0.077229 0.530000 4275805
-0.073780 0.078799 0.527000 3161218
-0.236613 0.080560 0.532000 9139320
-0.073360 0.081345 0.524000 3027837
-0.238392 0.084229 0.536000 9731196
-0.073220 0.084178 0.523000 9793894
-0.238837 0.087454 0.537000 9928063
-0.073220 0.087167 0.523000 10454659
-0.073500 0.090500 0.525000 10585733
-0.073780 0.093856 0.527000 10848904
-0.098600 -0.027880 0.714000 9079944
-0.098048 -0.023667 0.710000 7501196
-0.097081 -0.019416 0.703000 6973832
-0.095424 -0.015136 0.691000 5790336
-0.094871 -0.011123 0.687000 4343164
-0.094181 -0.007145 0.682000 3685755
-0.092800 -0.003200 0.672000 3553916
-0.091971 0.000634 0.666000 3489146
-0.090729 0.004380 0.657000 3686014
-0.090176 0.008085 0.653000 3422585
-0.088933 0.011653 0.644000 3161468
-0.088243 0.015214 0.639000 3356027
-0.087690 0.018748 0.635000 5865332
-0.086310 0.022024 0.625000 2698877
-0.085619 0.025390 0.620000 4538748
-0.084929 0.028700 0.615000 4542082
-0.083824 0.031795 0.607000 3292027
-0.083133 0.034973 0.602000 3292289
-0.082581 0.038158 0.598000 3423358
-0.081614 0.041089 0.591000 3818880
-0.081062 0.044165 0.587000 3618944
-0.080648 0.047276 0.584000 3226238
-0.080095 0.050267 0.580000 3226497
-0.078852 0.052750 0.571000 3029886
-0.078576 0.055816 0.569000 3160960
-0.077471 0.058237 0.561000 4672653
-0.077057 0.061114 0.558000 3956114
-0.076229 0.063611 0.552000 798338
-0.075676 0.066282 0.548000 2900355
-0.075124 0.068907 0.544000 8679576
-0.239143 0.069429 0.540000 6646911
-0.074433 0.071353 0.539000 3945604
-0.238257 0.072246 0.538000 6250878
-0.074019 0.074019 0.536000 3029889
-0.234714 0.074200 0.530000 5791351
-0.073052 0.076075 0.529000 3095426
-0.234714 0.077229 0.530000 3688028
-0.072776 0.078799 0.527000 3227009
-0.236043 0.080711 0.533000 9139830
-0.072362 0.081345 0.524000 2831997
-0.237371 0.084229 0.536000 9730938
-0.072224 0.084178 0.523000 9530471
-0.237814 0.087454 0.537000 10058879
-0.072362 0.087333 0.524000 10519939
-0.072500 0.090500 0.525000 10585734
-0.072776 0.093856 0.527000 10848905
-0.097240 -0.027880 0.714000 8816256
-0.096695 -0.023667 0.710000 7369099
-0.095742 -0.019416 0.703000 6644357
-0.094108 -0.015136 0.691000 5856129
-0.093563 -0.011123 0.687000 4410490
-0.092882 -0.007145 0.682000 3620219
-0.091384 -0.003195 0.671000 3357562
-0.090567 0.000633 0.665000 3816569
-0.089613 0.004387 0.658000 3752828
-0.088932 0.008085 0.653000 3488122
-0.087707 0.011653 0.644000 3358586
-0.086890 0.015190 0.638000 3356283
-0.086481 0.018748 0.635000 4409475
-0.085255 0.022059 0.626000 2962555
-0.084438 0.025390 0.620000 4145273
-0.083757 0.028700 0.615000 4673407
-0.082395 0.031690 0.605000 3554943
-0.082123 0.035031 0.603000 3291774
-0.081714 0.038286 0.600000 3292029
-0.080489 0.041089 0.591000 3555199
-0.079944 0.044165 0.587000 3291773
-0.079535 0.047276 0.584000 3160702
-0.078990 0.050267 0.580000 3226495
-0.077765 0.052750 0.571000 3095424
-0.077356 0.055718 0.568000 3356800
-0.076539 0.058341 0.562000 5072530
-0.075994 0.061114 0.558000 4544398
-0.075313 0.063727 0.553000 4282769
-0.074769 0.066403 0.549000 4018066
-0.074088 0.068907 0.544000 7371163
-0.238555 0.069557 0.541000 6384252
-0.073407 0.071353 0.539000 4015234
-0.237232 0.072246 0.538000 6316152
-0.072998 0.074019 0.536000 3095425
-0.233264 0.074060 0.529000 5857654
-0.072453 0.076507 0.532000 3095682
-0.233705 0.077229 0.530000 4078428
-0.071772 0.078799 0.527000 3227264
-0.235469 0.080863 0.534000 9139060
-0.071364 0.081345 0.524000 2634877
-0.236350 0.084229 0.536000 9730681
-0.071228 0.084178 0.523000 9400424
-0.237232 0.087617 0.538000 9993854
-0.071228 0.087167 0.523000 10519682
-0.071500 0.090500 0.525000 10651271
-0.071636 0.093678 0.526000 10848905
-0.096149 -0.027958 0.716000 8551552
-0.095343 -0.023667 0.710000 7238538
-0.094403 -0.019416 0.703000 6380935
-0.092791 -0.015136 0.691000 5855871
-0.092254 -0.011123 0.687000 4412796
-0.091583 -0.007145 0.682000 3488891
-0.090240 -0.003200 0.672000 3226747
-0.089434 0.000634 0.666000 4080508
-0.088360 0.004387 0.658000 3819644
-0.087957 0.008110 0.655000 3488379
-0.086480 0.011653 0.644000 3620732
-0.085674 0.015190 0.638000 3291518
-0.085271 0.018748 0.635000 2960767
-0.083929 0.022024 0.625000 3225721
-0.083526 0.025472 0.622000 3752055
-0.082854 0.028793 0.617000 4739199
-0.081243 0.031690 0.605000 3817343
-0.080974 0.035031 0.603000 3226238
-0.080571 0.038286 0.600000 3160189
-0.079497 0.041158 0.592000 3226239
-0.078826 0.044165 0.587000 3029887
-0.078423 0.047276 0.584000 3029885
-0.078020 0.050353 0.581000 3160958
-0.076677 0.052750 0.571000 3095680
-0.076274 0.055718 0.568000 3554175
-0.075469 0.058341 0.562000 5396615
-0.074931 0.061114 0.558000 5136529
-0.074260 0.063727 0.553000 7692947
-0.073723 0.066403 0.549000 5197464
-0.073051 0.068907 0.544000 5985933
-0.237525 0.069557 0.541000 6187891
-0.072246 0.071221 0.538000 4014978
-0.236208 0.072246 0.538000 6315894
-0.071977 0.074019 0.536000 3095424
-0.232256 0.074060 0.529000 5989239
-0.071574 0.076650 0.533000 3161474
-0.232695 0.077229 0.530000 4473950
-0.070769 0.078799 0.527000 3227265
-0.234451 0.080863 0.534000 9138803
-0.070231 0.081190 0.523000 2504574
-0.235330 0.084229 0.536000 9730935
-0.070097 0.084017 0.522000 9201002
-0.235769 0.087454 0.537000 9994108
-0.070231 0.087167 0.523000 10519683
-0.070500 0.090500 0.525000 10651270
-0.070769 0.093856 0.527000 10783369
-0.094785 -0.027958 0.716000 8353151
-0.093726 -0.023600 0.708000 7106441
-0.093064 -0.019416 0.703000 6644360
-0.091210 -0.015092 0.689000 5790077
-0.090813 -0.011107 0.686000 4409469
-0.090284 -0.007145 0.682000 3554684
-0.088960 -0.003200 0.672000 3423356
-0.088033 0.000633 0.665000 4541568
-0.087107 0.004387 0.658000 3818876
-0.086710 0.008110 0.655000 3619453
-0.085253 0.011653 0.644000 3817597
-0.084591 0.015214 0.639000 3422594
-0.084062 0.018748 0.635000 3028603
-0.082738 0.022024 0.625000 2374264
-0.081944 0.025350 0.619000 2831733
-0.081547 0.028747 0.616000 4478591
-0.080885 0.032005 0.611000 3884926
-0.079826 0.035031 0.603000 3226494
-0.079429 0.038286 0.600000 3160445
-0.078502 0.041228 0.593000 3160190
-0.077840 0.044240 0.588000 3160704
-0.077310 0.047276 0.584000 3030141
-0.076913 0.050353 0.581000 3160957
-0.075457 0.052657 0.570000 3095425
-0.075060 0.055620 0.567000 3422846
-0.074530 0.058445 0.563000 4802429
-0.073869 0.061114 0.558000 4740244
-0.073207 0.063727 0.553000 7170965
-0.072677 0.066403 0.549000 4870302
-0.239554 0.067326 0.548000 6842234
-0.072015 0.068907 0.544000 4340351
-0.236931 0.069686 0.542000 6381673
-0.071353 0.071353 0.539000 3685761
-0.235183 0.072246 0.538000 6578549
-0.070956 0.074019 0.536000 3160960
-0.231249 0.074060 0.529000 6055032
-0.070294 0.076363 0.531000 3161473
-0.230811 0.076937 0.528000 4667745
-0.069765 0.078799 0.527000 3227266
-0.233434 0.080863 0.534000 9139057
-0.069235 0.081190 0.523000 2372479
-0.234309 0.084229 0.536000 9665142
-0.069103 0.084017 0.522000 9070700
-0.234746 0.087454 0.537000 9928570
-0.069235 0.087167 0.523000 10585731
-0.069500 0.090500 0.525000 10651270
-0.069765 0.093856 0.527000 10717832
-0.093421 -0.027958 0.716000 8153732
-0.092377 -0.023600 0.708000 6976905
-0.091725 -0.019416 0.703000 6972549
-0.089637 -0.015049 0.687000 5724799
-0.089507 -0.011107 0.686000 4342142
-0.088724 -0.007124 0.680000 3620219
-0.087680 -0.003200 0.672000 3554942
-0.086897 0.000634 0.666000 4998526
-0.086114 0.004400 0.660000 3817597
-0.085462 0.008110 0.655000 3685756
-0.084157 0.011671 0.645000 4013949
-0.083244 0.015190 0.638000 3553917
-0.082852 0.018748 0.635000 3095417
-0.081548 0.022024 0.625000 1451642
-0.080765 0.025350 0.619000 1976701
-0.080243 0.028700 0.615000 4213628
-0.079851 0.032057 0.612000 4017794
-0.078547 0.034973 0.602000 3226238
-0.078286 0.038286 0.600000 3225725
-0.077372 0.041228 0.593000 3029886
-0.076590 0.044165 0.587000 3292035
-0.076198 0.047276 0.584000 3030142
-0.075807 0.050353 0.581000 3226751
-0.074371 0.052657 0.570000 3030144
-0.073850 0.055522 0.566000 3291773
-0.073328 0.058341 0.562000 4210813
-0.072806 0.061114 0.558000 4345991
-0.072153 0.063727 0.553000 6642573
-0.071501 0.066282 0.548000 4539287
-0.238510 0.067326 0.548000 6709879
-0.070849 0.068780 0.543000 2701437
-0.235899 0.069686 0.542000 6577520
-0.070327 0.071353 0.539000 3422081
-0.234593 0.072380 0.539000 6840953
-0.069935 0.074019 0.536000 3161472
-0.229806 0.073920 0.528000 6186105
-0.069152 0.076219 0.530000 3227011
-0.229806 0.076937 0.528000 4867936
-0.068761 0.078799 0.527000 3227265
-0.232417 0.080863 0.534000 9140079
-0.068239 0.081190 0.523000 2308222
-0.233288 0.084229 0.536000 9599606
-0.068109 0.084017 0.522000 8872297
-0.233288 0.087291 0.536000 9928315
-0.068109 0.087000 0.522000 10585729
-0.068370 0.090328 0.524000 10585734
-0.068761 0.093856 0.527000 10717577
-0.092057 -0.027958 0.716000 8287369
-0.090643 -0.023500 0.705000 7106442
-0.090386 -0.019416 0.703000 6579073
-0.088843 -0.015136 0.691000 5460353
-0.088200 -0.011107 0.686000 4277374
-0.087429 -0.007124 0.680000 3620475
-0.086657 -0.003210 0.674000 3554431
-0.085500 0.000633 0.665000 4341628
-0.084857 0.004400 0.660000 3751549
-0.084214 0.008110 0.655000 3751547
-0.082929 0.011671 0.645000 3751292
-0.082286 0.015238 0.640000 3553657
-0.081771 0.018777 0.636000 3421303
-0.080229 0.021989 0.624000 4524924
-0.079586 0.025350 0.619000 5729157
-0.079071 0.028700 0.615000 4344442
-0.078686 0.032057 0.612000 4214662
-0.077400 0.034973 0.602000 3291775
-0.077143 0.038286 0.600000 3225981
-0.076500 0.041367 0.595000 3292030
-0.075471 0.044165 0.587000 3884422
-0.075086 0.047276 0.584000 3161471
-0.074700 0.050353 0.581000 3226240
-0.072900 0.052380 0.567000 3029888
-0.072771 0.055522 0.566000 3226235
-0.072386 0.058445 0.563000 3811710
-0.071743 0.061114 0.558000 3421818
-0.071229 0.063842 0.554000 6050437
-0.238767 0.064546 0.551000 7302002
-0.070457 0.066282 0.548000 4673423
-0.237900 0.067449 0.549000 6708083
-0.069814 0.068780 0.543000 2964604
-0.234867 0.069686 0.542000 6579319
-0.069300 0.071353 0.539000 3291776
-0.233133 0.072246 0.538000 6709886
-0.068914 0.074019 0.536000 3161473
-0.230967 0.074620 0.533000 6317689
-0.068271 0.076363 0.531000 3227013
-0.228800 0.076937 0.528000 5063007
-0.067757 0.078799 0.527000 3227265
-0.231833 0.081014 0.535000 9138797
-0.067243 0.081190 0.523000 2307709
-0.232267 0.084229 0.536000 9665143
-0.067114 0.084017 0.522000 8808551
-0.232267 0.087291 0.536000 9928315
-0.067114 0.087000 0.522000 10585727
-0.067371 0.090328 0.524000 10585734
-0.067757 0.093856 0.527000 10783114
-0.090820 -0.027997 0.717000 8482439
-0.089300 -0.023500 0.705000 7173000
-0.088793 -0.019361 0.701000 6187135
-0.087780 -0.015180 0.693000 5197696
-0.086893 -0.011107 0.686000 4146047
-0.086007 -0.007113 0.679000 3620218
-0.085120 -0.003200 0.672000 3619199
-0.084360 0.000634 0.666000 3620476
-0.083727 0.004407 0.661000 3685244
-0.082967 0.008110 0.655000 3818366
-0.081573 0.011653 0.644000 3422845
-0.081067 0.015238 0.640000 3488379
-0.080560 0.018777 0.636000 3814266
-0.079040 0.021989 0.624000 7565185
-0.078407 0.025350 0.619000 9547641
-0.077900 0.028700 0.615000 4412027
-0.077393 0.032005 0.611000 4347266
-0.076253 0.034973 0.602000 3291774
-0.075873 0.038222 0.599000 3226235
-0.075367 0.041367 0.595000 3554429
-0.074480 0.044240 0.588000 4477570
-0.073847 0.047195 0.583000 3292287
-0.073340 0.050180 0.579000 3225728
-0.071820 0.052380 0.567000 3029888
-0.071693 0.055522 0.566000 3226234
-0.071440 0.058549 0.564000 3423362
-0.070680 0.061114 0.558000 2503558
-0.070173 0.063842 0.554000 5457030
-0.237717 0.064546 0.551000 6908523
-0.069413 0.066282 0.548000 4874126
-0.236854 0.067449 0.549000 6709619
-0.069033 0.069033 0.545000 3226493
-0.233834 0.069686 0.542000 6645369
-0.068147 0.071221 0.538000 3161218
-0.231677 0.072111 0.537000 6579324
-0.067767 0.073881 0.535000 3161217
-0.229951 0.074620 0.533000 6514556
-0.067260 0.076363 0.531000 3227011
-0.229520 0.077520 0.532000 5197407
-0.066753 0.078799 0.527000 3161473
-0.230383 0.080863 0.534000 9138285
-0.066247 0.081190 0.523000 2309245
-0.231246 0.084229 0.536000 9665141
-0.065993 0.083856 0.521000 8740712
-0.231246 0.087291 0.536000 9928058
-0.065993 0.086833 0.521000 10650751
-0.066373 0.090328 0.524000 10585992
-0.066753 0.093856 0.527000 10914186
-0.089704 -0.028075 0.719000 8091012
-0.087708 -0.019416 0.703000 6119805
-0.086460 -0.015180 0.693000 5001856
-0.085711 -0.011123 0.687000 4212352
-0.084589 -0.007103 0.678000 3619962
-0.083840 -0.003200 0.672000 3554430
-0.082967 0.000633 0.665000 3817084
-0.082343 0.004400 0.660000 4079995
-0.081844 0.008122 0.656000 4476546
-0.080097 0.011617 0.642000 3423102
-0.079848 0.015238 0.640000 3684990
-0.079349 0.018777 0.636000 6055036
-0.077851 0.021989 0.624000 10079111
-0.077228 0.025350 0.619000 8754028
-0.076853 0.028747 0.616000 4804989
-0.075980 0.031900 0.609000 4411262
-0.075107 0.034973 0.602000 3160957
-0.074732 0.038222 0.599000 3160697
-0.074233 0.041367 0.595000 3356540
-0.073235 0.044165 0.587000 3949949
-0.072861 0.047276 0.584000 3160959
-0.072362 0.050267 0.580000 3160704
-0.070865 0.052472 0.568000 3029888
-0.070615 0.055522 0.566000 3226233
-0.070366 0.058549 0.564000 4018311
-0.069492 0.061005 0.557000 4083602
-0.238815 0.061954 0.556000 6844029
-0.069118 0.063842 0.554000 4991623
-0.236668 0.064546 0.551000 6644580
-0.068370 0.066282 0.548000 4937613
-0.235809 0.067449 0.549000 6776434
-0.067995 0.069033 0.545000 3227518
-0.232372 0.069557 0.541000 6711163
-0.067122 0.071221 0.538000 3161475
-0.230654 0.072111 0.537000 6710651
-0.066748 0.073881 0.535000 3095426
-0.228507 0.074480 0.532000 6712190
-0.066373 0.076507 0.532000 3161216
-0.228077 0.077374 0.531000 4998495
-0.065874 0.078949 0.528000 3226497
-0.229366 0.080863 0.534000 9138541
-0.065250 0.081190 0.523000 2308221
-0.230225 0.084229 0.536000 9599860
-0.065001 0.083856 0.521000 8543593
-0.230225 0.087291 0.536000 9993849
-0.065001 0.086833 0.521000 10585470
-0.065625 0.090672 0.526000 10585993
-0.065750 0.093856 0.527000 10979722
-0.088334 -0.028075 0.719000 7698311
-0.086369 -0.019416 0.703000 5991290
-0.085263 -0.015202 0.694000 4738429
-0.084403 -0.011123 0.687000 4278141
-0.083297 -0.007103 0.678000 3619963
-0.082560 -0.003200 0.672000 3554942
-0.081700 0.000633 0.665000 4014459
-0.081086 0.004400 0.660000 4540028
-0.080594 0.008122 0.656000 5129598
-0.079120 0.011653 0.644000 3357308
-0.078629 0.015238 0.640000 3816317
-0.078014 0.018748 0.635000 8350068
-0.077031 0.022094 0.627000 12492925
-0.076171 0.025390 0.620000 7957617
-0.075680 0.028747 0.616000 5199230
-0.075311 0.032110 0.613000 4412799
-0.073960 0.034973 0.602000 2964607
-0.073591 0.038222 0.599000 3029627
-0.073223 0.041436 0.596000 3095165
-0.072117 0.044165 0.587000 3424383
-0.071749 0.047276 0.584000 3030143
-0.071134 0.050180 0.579000 3160961
-0.069906 0.052565 0.569000 3029888
-0.069537 0.055522 0.566000 3226747
-0.069414 0.058652 0.565000 4542854
-0.068309 0.060895 0.556000 5661324
-0.237756 0.061954 0.556000 6514811
-0.067694 0.063496 0.551000 4473222
-0.235190 0.064429 0.550000 6381930
-0.067326 0.066282 0.548000 5005711
-0.234335 0.067326 0.548000 6842742
-0.067080 0.069160 0.546000 3226749
-0.231770 0.069686 0.542000 6776699
-0.065974 0.071089 0.537000 3160961
-0.229204 0.071977 0.536000 6776955
-0.065729 0.073881 0.535000 3029889
-0.227493 0.074480 0.532000 6974843
-0.065360 0.076507 0.532000 3095423
-0.227066 0.077374 0.531000 4738654
-0.064869 0.078949 0.528000 3227009
-0.227921 0.080711 0.533000 9073518
-0.064254 0.081190 0.523000 2374785
-0.229204 0.084229 0.536000 9534325
-0.064009 0.083856 0.521000 8279656
-0.229204 0.087291 0.536000 10059385
-0.064009 0.086833 0.521000 10585732
-0.064500 0.090500 0.525000 10586249
-0.064746 0.093856 0.527000 11045002
-0.086723 -0.027997 0.717000 7895434
-0.085634 -0.023600 0.708000 7502217
-0.084788 -0.019361 0.701000 5857398
-0.083941 -0.015202 0.694000 4279418
-0.083336 -0.011155 0.689000 4410234
-0.082006 -0.007103 0.678000 3750525
-0.081280 -0.003200 0.672000 3884926
-0.080554 0.000634 0.666000 4079483
-0.079829 0.004400 0.660000 4146556
-0.079224 0.008110 0.655000 4407418
-0.077893 0.011653 0.644000 3423097
-0.077530 0.015262 0.641000 3750525
-0.076926 0.018777 0.636000 6248300
-0.075474 0.021989 0.624000 7101810
-0.074990 0.025390 0.620000 5261173
-0.074386 0.028700 0.615000 5068160
-0.073660 0.031900 0.609000 4477823
-0.072692 0.034915 0.601000 3357824
-0.072330 0.038158 0.598000 3095164
-0.071967 0.041367 0.595000 3160446
-0.071120 0.044240 0.588000 3292545
-0.070515 0.047195 0.583000 3029632
-0.070031 0.050180 0.579000 3095169
-0.068822 0.052565 0.569000 3029888
-0.068459 0.055522 0.566000 3226237
-0.068338 0.058652 0.565000 4015237
-0.067250 0.060895 0.556000 5658501
-0.236697 0.061954 0.556000 6577786
-0.066645 0.063496 0.551000 4609669
-0.234569 0.064546 0.551000 6711408
-0.066282 0.066282 0.548000 5134481
-0.233291 0.067326 0.548000 6908537
