# .PCD v.7 - Point Cloud Data file format
VERSION .7
FIELDS x y z rgb
SIZE 4 4 4 4
TYPE F F F I
COUNT 1 1 1 1
WIDTH 1313
HEIGHT 1
POINTS 1313
DATA ascii
0.054883 -0.332186 1.011000 10447958
0.054449 -0.323826 1.003000 9063506
0.053960 -0.315240 0.994000 10444890
0.053037 -0.304266 0.977000 10117483
0.052006 -0.292874 0.958000 9918810
0.051734 -0.285900 0.953000 6899275
0.051463 -0.278983 0.948000 5910326
0.051571 -0.274143 0.950000 6436653
0.051734 -0.269563 0.953000 4791574
0.051843 -0.264671 0.955000 4330271
0.052169 -0.260843 0.961000 7883835
0.052277 -0.255883 0.963000 8474439
0.052440 -0.251160 0.966000 7750697
0.052766 -0.247166 0.972000 7028277
0.060967 -0.393700 1.085000 10985592
0.060742 -0.386071 1.081000 8144486
0.059787 -0.373920 1.064000 8997701
0.059112 -0.363691 1.052000 11104612
0.058382 -0.353260 1.039000 10581361
0.057876 -0.344314 1.030000 10382181
0.056640 -0.331200 1.008000 10318669
0.056190 -0.322857 1.000000 8211543
0.055853 -0.315240 0.994000 10838361
0.055067 -0.305200 0.980000 10249067
0.053830 -0.292874 0.958000 10049370
0.053550 -0.285900 0.953000 7228487
0.053269 -0.278983 0.948000 6105652
0.053381 -0.274143 0.950000 7686969
0.053550 -0.269563 0.953000 4458259
0.053662 -0.264671 0.955000 4396070
0.053830 -0.260029 0.958000 8346418
0.054111 -0.255883 0.963000 8408375
0.054280 -0.251160 0.966000 7881239
0.054617 -0.247166 0.972000 7225131
0.063033 -0.393700 1.085000 10648675
0.062801 -0.386071 1.081000 8539239
0.061813 -0.373920 1.064000 8997959
0.061116 -0.363691 1.052000 10578515
0.060187 -0.352240 1.036000 10583414
0.059606 -0.342977 1.026000 10449521
0.058560 -0.331200 1.008000 9921348
0.058095 -0.322857 1.000000 8933467
0.057572 -0.314289 0.991000 10577240
0.056759 -0.304266 0.977000 10249323
0.055481 -0.291957 0.955000 9984346
0.055190 -0.285000 0.950000 7161668
0.055074 -0.278983 0.948000 6104881
0.055074 -0.273566 0.948000 8677190
0.055365 -0.269563 0.953000 4264720
0.055481 -0.264671 0.955000 4722989
0.055830 -0.260843 0.961000 8343080
0.055946 -0.255883 0.963000 8474664
0.056120 -0.251160 0.966000 7481348
0.056294 -0.246403 0.969000 7553570
0.065100 -0.393700 1.085000 10315619
0.064860 -0.386071 1.081000 8869217
0.063660 -0.372866 1.061000 8932682
0.062880 -0.362309 1.048000 10049342
0.062160 -0.352240 1.036000 10652516
0.061380 -0.341974 1.023000 10447717
0.060480 -0.331200 1.008000 9525313
0.060000 -0.322857 1.000000 9589849
0.059280 -0.313337 0.988000 10316133
0.058620 -0.304266 0.977000 10186101
0.057300 -0.291957 0.955000 9983571
0.057000 -0.285000 0.950000 7029826
0.056880 -0.278983 0.948000 6170656
0.057000 -0.274143 0.950000 9590850
0.057180 -0.269563 0.953000 4066579
0.057300 -0.264671 0.955000 5053738
0.057660 -0.260843 0.961000 8346430
0.057780 -0.255883 0.963000 8474670
0.057960 -0.251160 0.966000 7144467
0.058140 -0.246403 0.969000 7880489
0.067167 -0.393700 1.085000 10448738
0.066919 -0.386071 1.081000 9392731
0.065681 -0.372866 1.061000 8670029
0.064876 -0.362309 1.048000 8863529
0.064133 -0.352240 1.036000 9923410
0.063329 -0.341974 1.023000 9660250
0.062586 -0.332186 1.011000 9194558
0.061905 -0.322857 1.000000 9590102
0.061162 -0.313337 0.988000 10249841
0.060295 -0.303331 0.974000 10257023
0.059119 -0.291957 0.955000 9918540
0.058810 -0.285000 0.950000 6828609
0.058686 -0.278983 0.948000 6235407
0.058995 -0.275009 0.953000 9336894
0.058995 -0.269563 0.953000 4067093
0.059119 -0.264671 0.955000 5446695
0.059490 -0.260843 0.961000 8936531
0.059614 -0.255883 0.963000 8475445
0.059800 -0.251160 0.966000 7351586
0.059986 -0.246403 0.969000 7683633
0.069233 -0.393700 1.085000 10644321
0.068787 -0.385000 1.078000 9919065
0.067893 -0.373920 1.064000 8407631
0.066872 -0.362309 1.048000 7684403
0.066107 -0.352240 1.036000 9253698
0.065277 -0.341974 1.023000 8869457
0.064511 -0.332186 1.011000 8866894
0.063810 -0.322857 1.000000 9590615
0.062852 -0.312386 0.985000 10183294
0.062150 -0.303331 0.974000 10253433
0.061130 -0.292874 0.958000 9918290
0.060619 -0.285000 0.950000 6567490
0.060491 -0.278983 0.948000 6301984
0.060810 -0.275009 0.953000 8999997
0.060810 -0.269563 0.953000 4001819
0.060938 -0.264671 0.955000 5843500
0.061321 -0.260843 0.961000 9526337
0.061449 -0.255883 0.963000 8409390
0.061640 -0.251160 0.966000 7551014
0.061831 -0.246403 0.969000 7419948
0.071497 -0.394789 1.088000 10250591
0.070840 -0.385000 1.078000 9721431
0.069723 -0.372866 1.061000 8473936
0.068869 -0.362309 1.048000 7553853
0.068080 -0.352240 1.036000 8009266
0.067226 -0.341974 1.023000 8144713
0.066437 -0.332186 1.011000 8737630
0.065714 -0.322857 1.000000 9917272
0.064597 -0.311751 0.983000 10318731
0.064006 -0.303331 0.974000 10251379
0.062954 -0.292874 0.958000 9853016
0.062429 -0.285000 0.950000 6629699
0.062297 -0.278983 0.948000 6564912
0.062626 -0.275009 0.953000 8742972
0.062626 -0.269563 0.953000 4855584
0.062757 -0.264671 0.955000 5973554
0.063151 -0.260843 0.961000 9264430
0.063283 -0.255883 0.963000 8473640
0.063480 -0.251160 0.966000 7092010
0.063677 -0.246403 0.969000 7025192
0.074246 -0.404691 1.098000 11898777
0.073570 -0.394789 1.088000 9922655
0.072623 -0.383571 1.074000 9525085
0.071744 -0.372866 1.061000 8473935
0.070865 -0.362309 1.048000 7422527
0.070053 -0.352240 1.036000 6701120
0.068971 -0.340971 1.020000 7420999
0.068363 -0.332186 1.011000 8674657
0.067416 -0.321889 0.997000 10186612
0.066267 -0.310800 0.980000 10455698
0.065861 -0.303331 0.974000 10184558
0.064779 -0.292874 0.958000 9786969
0.064238 -0.285000 0.950000 6699849
0.064103 -0.278983 0.948000 6764599
0.064441 -0.275009 0.953000 8410179
0.064441 -0.269563 0.953000 5709606
0.064576 -0.264671 0.955000 6105903
0.065117 -0.261386 0.963000 9068077
0.065117 -0.255883 0.963000 8473634
0.065320 -0.251160 0.966000 6567469
0.065523 -0.246403 0.969000 6564387
0.076337 -0.404691 1.098000 11835802
0.075433 -0.393700 1.085000 9525854
0.074669 -0.383571 1.074000 9460836
0.073765 -0.372866 1.061000 8605262
0.072861 -0.362309 1.048000 7290689
0.072027 -0.352240 1.036000 6503246
0.070914 -0.340971 1.020000 7679557
0.070289 -0.332186 1.011000 9005155
0.069524 -0.322857 1.000000 10723728
0.068133 -0.310800 0.980000 10650521
0.067577 -0.302709 0.972000 10183786
0.066812 -0.293791 0.961000 9590874
0.066048 -0.285000 0.950000 6962767
0.065909 -0.278983 0.948000 6698814
0.066048 -0.274143 0.950000 8872778
0.066395 -0.270129 0.955000 6171436
0.066604 -0.265503 0.958000 6433069
0.066812 -0.260843 0.961000 7550763
0.066951 -0.255883 0.963000 8671261
0.067160 -0.251160 0.966000 7226415
0.067577 -0.247166 0.972000 6628125
0.078429 -0.404691 1.098000 11766169
0.077214 -0.392249 1.081000 9132893
0.076714 -0.383571 1.074000 9330533
0.076000 -0.373920 1.064000 8671594
0.074643 -0.361271 1.045000 7097181
0.074000 -0.352240 1.036000 6371927
0.072857 -0.340971 1.020000 7950940
0.072214 -0.332186 1.011000 9333870
0.071429 -0.322857 1.000000 11174013
0.069786 -0.309849 0.977000 10846076
0.069214 -0.301774 0.969000 10182755
0.068429 -0.292874 0.958000 9459544
0.067857 -0.285000 0.950000 7226448
0.067714 -0.278983 0.948000 6634308
0.067857 -0.274143 0.950000 9263437
0.068214 -0.270129 0.955000 6697781
0.068429 -0.265503 0.958000 6695982
0.068643 -0.260843 0.961000 6043702
0.068786 -0.255883 0.963000 8866088
0.069000 -0.251160 0.966000 7883832
0.069429 -0.247166 0.972000 6697001
0.079273 -0.392249 1.081000 8803164
0.078760 -0.383571 1.074000 9463654
0.078027 -0.373920 1.064000 9466501
0.076633 -0.361271 1.045000 8482937
0.075973 -0.352240 1.036000 7559008
0.074800 -0.340971 1.020000 8355955
0.073920 -0.331200 1.008000 9399928
0.073333 -0.322857 1.000000 9919595
0.071867 -0.310800 0.980000 10644319
0.071060 -0.301774 0.969000 10049629
0.070253 -0.292874 0.958000 9262166
0.069667 -0.285000 0.950000 7425104
0.069520 -0.278983 0.948000 6501706
0.069667 -0.274143 0.950000 9468497
0.070033 -0.270129 0.955000 7091518
0.070253 -0.265503 0.958000 6827055
0.070620 -0.261386 0.963000 7092544
0.070840 -0.256680 0.966000 8868916
0.070840 -0.251160 0.966000 8080960
0.071280 -0.247166 0.972000 7025973
0.081107 -0.391160 1.078000 8475996
0.080806 -0.383571 1.074000 9527647
0.080053 -0.373920 1.064000 10256249
0.078624 -0.361271 1.045000 9860719
0.077721 -0.351220 1.033000 8806243
0.076743 -0.340971 1.020000 8679279
0.075690 -0.330543 1.006000 9464424
0.075012 -0.321889 0.997000 8607865
0.073733 -0.310800 0.980000 10443870
0.072906 -0.301774 0.969000 9853018
0.072078 -0.292874 0.958000 9067349
0.071476 -0.285000 0.950000 7554635
0.071326 -0.278983 0.948000 6304060
0.071476 -0.274143 0.950000 9659729
0.071852 -0.270129 0.955000 7550523
0.072078 -0.265503 0.958000 6958127
0.072454 -0.261386 0.963000 8207948
0.072680 -0.256680 0.966000 8803646
0.072680 -0.251160 0.966000 8277572
0.073131 -0.247166 0.972000 7356473
0.082851 -0.389709 1.074000 8212316
0.082851 -0.383571 1.074000 9397337
0.081849 -0.372866 1.061000 9529965
0.080614 -0.361271 1.045000 9597541
0.079689 -0.351220 1.033000 8675174
0.078686 -0.340971 1.020000 8544363
0.077606 -0.330543 1.006000 9266519
0.076911 -0.321889 0.997000 8147336
0.075986 -0.312386 0.985000 9459037
0.074520 -0.300840 0.966000 9524824
0.073903 -0.292874 0.958000 8804436
0.073286 -0.285000 0.950000 7488326
0.073131 -0.278983 0.948000 6694445
0.073286 -0.274143 0.950000 9075538
0.073671 -0.270129 0.955000 7616311
0.073903 -0.265503 0.958000 7351087
0.074289 -0.261386 0.963000 8606552
0.074520 -0.256680 0.966000 8803144
0.074520 -0.251160 0.966000 8343880
0.074983 -0.247166 0.972000 7687998
0.084897 -0.389709 1.074000 8016988
0.084660 -0.382500 1.071000 9198423
0.084107 -0.373920 1.064000 8802897
0.082368 -0.360234 1.042000 9267813
0.081419 -0.350200 1.030000 8609634
0.080629 -0.340971 1.020000 8412517
0.079285 -0.329557 1.003000 9128536
0.078573 -0.320920 0.994000 7623298
0.078099 -0.313337 0.988000 8408412
0.076360 -0.300840 0.966000 9196631
0.075728 -0.292874 0.958000 8608851
0.075095 -0.285000 0.950000 7421507
0.074937 -0.278983 0.948000 7153446
0.075095 -0.274143 0.950000 8478039
0.075490 -0.270129 0.955000 7616564
0.075728 -0.265503 0.958000 7750460
0.076123 -0.261386 0.963000 9067601
0.076360 -0.256680 0.966000 8803657
0.076360 -0.251160 0.966000 8474955
0.086700 -0.382500 1.071000 8280149
0.085890 -0.372866 1.061000 8274996
0.084352 -0.360234 1.042000 9000549
0.083381 -0.350200 1.030000 8871773
0.082571 -0.340971 1.020000 8674912
0.081195 -0.329557 1.003000 8804440
0.080467 -0.320920 0.994000 7426685
0.079576 -0.311751 0.983000 8278107
0.078200 -0.300840 0.966000 8802390
0.077552 -0.292874 0.958000 8474961
0.076905 -0.285000 0.950000 7158337
0.076743 -0.278983 0.948000 7485982
0.076905 -0.274143 0.950000 8344924
0.077310 -0.270129 0.955000 7746609
0.077552 -0.265503 0.958000 8873545
0.077957 -0.261386 0.963000 9067081
0.078200 -0.256680 0.966000 8738379
0.078443 -0.251940 0.969000 8606541
0.088740 -0.382500 1.071000 7292501
0.087911 -0.372866 1.061000 7681594
0.086337 -0.360234 1.042000 8671581
0.085343 -0.350200 1.030000 9133915
0.084266 -0.339969 1.017000 8937060
0.083106 -0.329557 1.003000 8475484
0.082111 -0.319951 0.991000 7166057
0.081449 -0.311751 0.983000 8147034
0.080040 -0.300840 0.966000 8408151
0.079129 -0.291957 0.955000 8279631
0.078549 -0.284400 0.948000 6895679
0.078549 -0.278983 0.948000 7810336
0.078714 -0.274143 0.950000 8211031
0.079129 -0.270129 0.955000 7943478
0.079626 -0.266334 0.961000 9919813
0.079791 -0.261386 0.963000 9066821
0.080040 -0.256680 0.966000 8672583
0.080289 -0.251940 0.969000 8737345
0.090780 -0.382500 1.071000 7026260
0.089424 -0.370757 1.055000 7223871
0.088068 -0.359197 1.039000 8011605
0.087305 -0.350200 1.030000 9133657
0.086203 -0.339969 1.017000 9133160
0.084762 -0.328571 1.000000 8673375
0.083999 -0.319951 0.991000 7491413
0.083067 -0.310800 0.980000 8016473
0.081880 -0.300840 0.966000 8077144
0.080948 -0.291957 0.955000 7949388
0.080524 -0.285000 0.950000 6698813
0.080354 -0.278983 0.948000 7617569
0.080778 -0.275009 0.953000 8073299
0.080948 -0.270129 0.955000 8011067
0.081456 -0.266334 0.961000 9986880
0.081626 -0.261386 0.963000 9001793
0.081880 -0.256680 0.966000 8738116
0.082134 -0.251940 0.969000 8738101
0.093427 -0.391160 1.078000 8345172
0.092820 -0.382500 1.071000 6698318
0.091173 -0.369703 1.052000 6700608
0.090307 -0.360234 1.042000 7356499
0.089267 -0.350200 1.030000 9132375
0.088140 -0.339969 1.017000 9329506
0.086667 -0.328571 1.000000 8871007
0.085887 -0.319951 0.991000 7754069
0.084933 -0.310800 0.980000 7950938
0.083720 -0.300840 0.966000 7685717
0.082333 -0.290429 0.950000 7622982
0.082160 -0.284400 0.948000 6436926
0.082333 -0.279571 0.950000 7347502
0.082333 -0.274143 0.950000 7947343
0.082767 -0.270129 0.955000 8075572
0.083287 -0.266334 0.961000 10051633
0.083460 -0.261386 0.963000 8935490
0.083720 -0.256680 0.966000 8734778
0.083980 -0.251940 0.969000 8804665
0.095126 -0.389709 1.074000 8607572
0.094594 -0.381429 1.068000 6303561
0.093177 -0.369703 1.052000 6699841
0.092291 -0.360234 1.042000 6962770
0.090874 -0.348840 1.026000 9067092
0.089811 -0.338966 1.014000 9329499
0.088306 -0.327586 0.997000 9001566
0.087243 -0.318014 0.985000 8475221
0.086534 -0.309849 0.977000 7950427
0.085294 -0.299906 0.963000 7554386
0.084143 -0.290429 0.950000 7160384
0.083966 -0.284400 0.948000 6437694
0.084143 -0.279571 0.950000 7486011
0.084143 -0.274143 0.950000 7814732
0.084409 -0.269563 0.953000 7682605
0.085117 -0.266334 0.961000 10117153
0.085117 -0.260843 0.961000 8078146
0.085294 -0.255883 0.963000 6955056
0.085560 -0.251160 0.966000 7287869
0.096900 -0.388620 1.071000 8935507
0.096267 -0.380000 1.064000 5847884
0.094819 -0.368297 1.048000 6699600
0.094005 -0.359197 1.039000 6569548
0.092829 -0.348840 1.026000 8937298
0.091743 -0.338966 1.014000 9263960
0.089933 -0.326600 0.994000 9131599
0.088938 -0.317369 0.983000 9137782
0.088124 -0.308897 0.974000 7950170
0.087129 -0.299906 0.963000 7358547
0.085952 -0.290429 0.950000 6762820
0.085771 -0.284400 0.948000 6437689
0.085952 -0.279571 0.950000 7680585
0.085952 -0.274143 0.950000 7685441
0.086405 -0.270129 0.955000 7355178
0.086948 -0.266334 0.961000 10113053
0.087129 -0.261386 0.963000 7157561
0.087129 -0.255883 0.963000 5120304
0.087400 -0.251160 0.966000 5772070
0.098940 -0.388620 1.071000 9328465
0.098293 -0.380000 1.064000 6306384
0.096815 -0.368297 1.048000 6833246
0.095984 -0.359197 1.039000 6044487
0.094783 -0.348840 1.026000 8673359
0.093674 -0.338966 1.014000 8869461
0.091827 -0.326600 0.994000 9527871
0.090810 -0.317369 0.983000 10529687
0.089979 -0.308897 0.974000 8082520
0.088963 -0.299906 0.963000 7424596
0.087762 -0.290429 0.950000 6568008
0.087577 -0.284400 0.948000 6438451
0.087762 -0.279571 0.950000 7556695
0.087762 -0.274143 0.950000 7680311
0.088501 -0.270977 0.958000 7222823
0.088778 -0.266334 0.961000 9127960
0.088963 -0.261386 0.963000 6565167
0.089240 -0.256680 0.966000 4400177
0.089240 -0.251160 0.966000 5642254
0.100980 -0.388620 1.071000 9785939
0.100320 -0.380000 1.064000 6768984
0.098811 -0.368297 1.048000 7034716
0.097963 -0.359197 1.039000 5522520
0.096737 -0.348840 1.026000 8476770
0.095606 -0.338966 1.014000 8413544
0.093720 -0.326600 0.994000 9991020
0.092683 -0.317369 0.983000 11831167
0.091834 -0.308897 0.974000 8148823
0.091080 -0.300840 0.966000 7424596
0.089571 -0.290429 0.950000 6372164
0.089571 -0.285000 0.950000 6436661
0.089571 -0.279571 0.950000 7431794
0.089854 -0.275009 0.953000 7679028
0.090326 -0.270977 0.958000 7158060
0.090797 -0.266889 0.963000 8141859
0.090797 -0.261386 0.963000 5908269
0.091080 -0.256680 0.966000 3678513
0.091363 -0.251940 0.969000 5579037
0.103020 -0.388620 1.071000 9590356
0.102347 -0.380000 1.064000 8082527
0.100519 -0.367243 1.045000 8283225
0.099942 -0.359197 1.039000 6968938
0.098691 -0.348840 1.026000 8673908
0.097249 -0.337963 1.011000 9076603
0.095613 -0.326600 0.994000 10457752
0.094555 -0.317369 0.983000 9990760
0.093690 -0.308897 0.974000 8606550
0.092631 -0.299906 0.963000 7687764
0.091670 -0.291346 0.953000 6503231
0.091381 -0.285000 0.950000 6435894
0.091381 -0.279571 0.950000 7823245
0.091670 -0.275009 0.953000 7813168
0.092150 -0.270977 0.958000 7354417
0.092631 -0.266889 0.963000 7421742
0.092631 -0.261386 0.963000 5908522
0.093209 -0.257477 0.969000 4662322
0.093209 -0.251940 0.969000 5448747
0.105060 -0.388620 1.071000 9391698
0.104373 -0.380000 1.064000 9330271
0.102804 -0.368297 1.048000 9461344
0.101627 -0.358160 1.036000 8350328
0.100646 -0.348840 1.026000 8873330
0.098880 -0.336960 1.008000 9729656
0.097507 -0.326600 0.994000 10984337
0.096133 -0.316400 0.980000 8148591
0.095545 -0.308897 0.974000 8998997
0.094466 -0.299906 0.963000 7883860
0.093485 -0.291346 0.953000 6699843
0.093190 -0.285000 0.950000 6435643
0.093485 -0.280454 0.953000 8287617
0.093485 -0.275009 0.953000 7877929
0.093975 -0.270977 0.958000 7550520
0.094466 -0.266889 0.963000 6632231
0.094760 -0.262200 0.966000 5908267
0.095054 -0.257477 0.969000 5581364
0.095349 -0.252720 0.972000 5384481
0.107100 -0.388620 1.071000 9590351
0.106400 -0.380000 1.064000 9921888
0.104800 -0.368297 1.048000 9662310
0.103600 -0.358160 1.036000 9139590
0.102300 -0.347820 1.023000 8939376
0.101100 -0.337963 1.011000 9463925
0.099100 -0.325614 0.991000 10190217
0.098000 -0.316400 0.980000 8146039
0.097200 -0.308263 0.972000 8343123
0.096300 -0.299906 0.963000 8212308
0.095300 -0.291346 0.953000 6962503
0.095000 -0.285000 0.950000 6369087
0.095300 -0.280454 0.953000 8281716
0.095300 -0.275009 0.953000 7812642
0.095800 -0.270977 0.958000 7421758
0.096300 -0.266889 0.963000 4332576
0.096600 -0.262200 0.966000 6040620
0.097200 -0.258274 0.972000 5582646
0.097200 -0.252720 0.972000 5122326
0.108834 -0.387531 1.068000 9783364
0.108121 -0.378929 1.061000 10513514
0.106796 -0.368297 1.048000 9923439
0.105268 -0.357123 1.033000 9924472
0.104249 -0.347820 1.023000 9002609
0.103026 -0.337963 1.011000 9134705
0.100376 -0.323643 0.985000 9464431
0.099867 -0.316400 0.980000 8082794
0.099051 -0.308263 0.972000 7620677
0.098134 -0.299906 0.963000 8473944
0.097319 -0.291957 0.955000 7290694
0.097115 -0.285900 0.953000 6304583
0.097115 -0.280454 0.953000 8284244
0.097319 -0.275586 0.955000 7681068
0.097930 -0.271826 0.961000 7357240
0.098134 -0.266889 0.963000 2040104
0.098746 -0.263014 0.969000 6172460
0.099051 -0.258274 0.972000 5581874
0.099051 -0.252720 0.972000 4860192
0.110869 -0.387531 1.068000 9786937
0.110142 -0.378929 1.061000 10580597
0.108481 -0.367243 1.045000 9859448
0.107235 -0.357123 1.033000 9332074
0.105886 -0.346800 1.020000 8937073
0.104640 -0.336960 1.008000 9068141
0.102875 -0.325614 0.991000 9331284
0.101733 -0.316400 0.980000 8344157
0.100903 -0.308263 0.972000 7618870
0.099969 -0.299906 0.963000 8539997
0.099138 -0.291957 0.955000 7488324
0.098930 -0.285900 0.953000 6303055
0.099138 -0.281043 0.955000 8082227
0.099450 -0.276451 0.958000 7484725
0.099761 -0.271826 0.961000 6960946
0.100280 -0.267720 0.966000 3680816
0.100591 -0.263014 0.969000 5909291
0.100903 -0.258274 0.972000 5777199
0.101110 -0.253240 0.974000 5713706
0.112163 -0.378929 1.061000 10646896
0.110471 -0.367243 1.045000 9794172
0.109203 -0.357123 1.033000 8738912
0.107829 -0.346800 1.020000 8936037
0.106031 -0.335289 1.003000 9004402
0.104763 -0.325614 0.991000 9132634
0.103283 -0.315431 0.977000 8606816
0.102754 -0.308263 0.972000 7680840
0.101591 -0.299283 0.961000 8539987
0.100746 -0.291346 0.953000 7685445
0.100746 -0.285900 0.953000 6307926
0.100957 -0.281043 0.955000 7881785
0.101591 -0.277317 0.961000 7222068
0.101591 -0.271826 0.961000 6566964
0.102120 -0.267720 0.966000 5253683
0.102754 -0.263829 0.972000 5647409
0.102754 -0.258274 0.972000 5908777
0.102966 -0.253240 0.974000 6566956
0.113861 -0.377857 1.058000 10711916
0.112462 -0.367243 1.045000 9859712
0.111170 -0.357123 1.033000 8079701
0.109771 -0.346800 1.020000 8739673
0.107942 -0.335289 1.003000 9069943
0.106650 -0.325614 0.991000 9197920
0.105467 -0.316400 0.980000 8803939
0.104283 -0.307311 0.969000 7684954
0.103422 -0.299283 0.961000 8343369
0.102561 -0.291346 0.953000 7751237
0.102561 -0.285900 0.953000 7357278
0.103099 -0.281926 0.958000 7749182
0.103422 -0.277317 0.961000 6893620
0.103422 -0.271826 0.961000 6370102
0.103960 -0.267720 0.966000 5252917
0.104606 -0.263829 0.972000 5450550
0.104821 -0.258806 0.974000 5777444
0.104821 -0.253240 0.974000 6565677
0.115876 -0.377857 1.058000 10776426
0.114452 -0.367243 1.045000 9993840
0.113138 -0.357123 1.033000 7360349
0.111714 -0.346800 1.020000 8539737
0.109852 -0.335289 1.003000 9134447
0.108538 -0.325614 0.991000 9263460
0.107333 -0.316400 0.980000 9000544
0.106129 -0.307311 0.969000 7687001
0.104924 -0.298349 0.958000 8145224
0.104376 -0.291346 0.953000 7750727
0.104595 -0.286500 0.955000 8413278
0.104924 -0.281926 0.958000 7545139
0.105252 -0.277317 0.961000 6565934
0.105471 -0.272391 0.963000 6107961
0.106129 -0.268551 0.969000 5187636
0.106457 -0.263829 0.972000 5318715
0.106676 -0.258806 0.974000 5646639
0.117891 -0.377857 1.058000 10841704
0.116777 -0.368297 1.048000 9988960
0.115106 -0.357123 1.033000 7951718
0.112989 -0.344760 1.014000 8474713
0.111763 -0.335289 1.003000 9395304
0.110426 -0.325614 0.991000 9526120
0.109200 -0.316400 0.980000 9460062
0.107974 -0.307311 0.969000 7491159
0.106749 -0.298349 0.958000 7749191
0.106414 -0.291957 0.955000 7290952
0.106749 -0.287400 0.958000 8814430
0.107083 -0.282809 0.961000 7220519
0.107306 -0.277894 0.963000 6302761
0.107306 -0.272391 0.963000 6434363
0.108309 -0.269383 0.972000 7027762
0.108309 -0.263829 0.972000 6568255
0.108531 -0.258806 0.974000 5777211
0.119567 -0.376786 1.055000 10908008
0.118433 -0.367243 1.045000 9986662
0.117073 -0.357123 1.033000 8478063
0.114920 -0.344760 1.014000 8477046
0.113673 -0.335289 1.003000 9597819
0.112313 -0.325614 0.991000 9853540
0.111067 -0.316400 0.980000 9853790
0.109820 -0.307311 0.969000 7360342
0.108573 -0.298349 0.958000 7356492
0.108233 -0.291957 0.955000 6898504
0.108573 -0.287400 0.958000 9201266
0.108913 -0.282809 0.961000 6893355
0.108913 -0.277317 0.961000 6040878
0.109480 -0.273240 0.966000 6826035
0.110160 -0.269383 0.972000 8867645
0.110387 -0.264371 0.974000 7818809
0.110387 -0.258806 0.974000 5844021
0.121230 -0.375714 1.052000 10843753
0.120078 -0.366189 1.042000 10051692
0.119041 -0.357123 1.033000 9398137
0.116851 -0.344760 1.014000 9074322
0.115584 -0.335289 1.003000 9801358
0.114201 -0.325614 0.991000 10117983
0.112588 -0.315431 0.977000 10183262
0.111666 -0.307311 0.969000 7162708
0.110052 -0.297414 0.955000 7225425
0.110052 -0.291957 0.955000 6762568
0.110398 -0.287400 0.958000 8751495
0.110974 -0.283397 0.963000 6894895
0.110974 -0.277894 0.963000 5712435
0.111666 -0.274089 0.969000 8078890
0.112011 -0.269383 0.972000 8938567
0.112242 -0.264371 0.974000 8540211
0.112588 -0.259603 0.977000 7355440
0.122766 -0.374286 1.048000 10710372
0.122063 -0.366189 1.042000 10179949
0.121009 -0.357123 1.033000 10252922
0.118783 -0.344760 1.014000 9666952
0.117494 -0.335289 1.003000 9992066
0.116089 -0.325614 0.991000 10380641
0.114449 -0.315431 0.977000 10445152
0.113511 -0.307311 0.969000 7033455
0.111871 -0.297414 0.955000 7029583
0.111871 -0.291957 0.955000 6630465
0.112574 -0.288300 0.961000 8280952
0.112809 -0.283397 0.963000 6896438
0.113160 -0.278760 0.966000 5385274
0.113511 -0.274089 0.969000 9331524
0.114097 -0.269937 0.974000 9001036
0.114449 -0.265186 0.977000 9260082
0.114449 -0.259603 0.977000 8866364
0.124048 -0.372143 1.042000 10450272
0.123690 -0.365134 1.039000 10381165
0.122619 -0.356086 1.030000 10256507
0.120714 -0.344760 1.014000 9333630
0.119405 -0.335289 1.003000 9727350
0.117619 -0.324629 0.988000 10643554
0.116667 -0.316400 0.980000 10379619
0.115000 -0.306360 0.966000 8149130
0.113690 -0.297414 0.955000 7556172
0.114048 -0.292874 0.958000 7688762
0.114405 -0.288300 0.961000 7683690
0.115000 -0.284280 0.966000 6829373
0.115357 -0.279626 0.969000 7486786
0.115714 -0.274937 0.972000 9725533
0.116310 -0.270769 0.977000 8669265
0.116667 -0.266000 0.980000 9195312
0.126032 -0.372143 1.042000 10184544
0.125670 -0.365134 1.039000 10644595
0.124581 -0.356086 1.030000 10190465
0.122646 -0.344760 1.014000 9001593
0.121678 -0.336291 1.006000 9463152
0.119501 -0.324629 0.988000 10971490
0.118533 -0.316400 0.980000 10314858
0.116840 -0.306360 0.966000 9265298
0.115510 -0.297414 0.955000 8080202
0.116235 -0.293791 0.961000 8734822
0.116477 -0.288900 0.963000 7031404
0.116840 -0.284280 0.966000 6827836
0.117203 -0.279626 0.969000 9589325
0.117566 -0.274937 0.972000 10185825
0.118170 -0.270769 0.977000 8278867
0.118896 -0.266814 0.983000 9193797
0.128017 -0.372143 1.042000 10119777
0.127280 -0.364080 1.036000 10908793
0.126051 -0.354703 1.026000 10256007
0.124577 -0.344760 1.014000 9395827
0.123226 -0.335289 1.003000 9528681
0.121383 -0.324629 0.988000 11168098
0.120400 -0.316400 0.980000 10511217
0.118680 -0.306360 0.966000 9332633
0.118066 -0.299283 0.961000 8278089
0.118311 -0.294403 0.963000 9202066
0.118680 -0.289800 0.966000 6894446
0.119049 -0.285163 0.969000 7880250
0.119049 -0.279626 0.969000 9726039
0.119663 -0.275503 0.974000 10316389
0.120400 -0.271600 0.980000 8871765
0.120769 -0.266814 0.983000 9790042
0.130002 -0.372143 1.042000 10052192
0.129253 -0.364080 1.036000 11171196
0.128505 -0.356086 1.030000 10321536
0.126509 -0.344760 1.014000 9855857
0.124762 -0.334286 1.000000 9526880
0.123265 -0.324629 0.988000 11364704
0.122267 -0.316400 0.980000 10644083
0.120146 -0.305409 0.963000 9467511
0.119896 -0.299283 0.961000 8473935
0.120146 -0.294403 0.963000 9676181
0.120894 -0.290700 0.969000 6697045
0.121269 -0.286046 0.972000 8992326
0.121269 -0.280491 0.972000 9855046
0.121518 -0.275503 0.974000 10446169
0.122641 -0.272431 0.983000 9393991
0.122641 -0.266814 0.983000 10381902
0.130847 -0.363026 1.033000 10975615
0.130467 -0.356086 1.030000 10583928
0.128440 -0.344760 1.014000 10052718
0.126667 -0.334286 1.000000 9787479
0.124767 -0.323643 0.985000 11102557
0.123753 -0.315431 0.977000 10776438
0.121980 -0.305409 0.963000 9199188
0.121727 -0.299283 0.961000 8210262
0.122360 -0.295320 0.966000 9146520
0.122740 -0.290700 0.969000 7221309
0.123120 -0.286046 0.972000 9326930
0.123373 -0.281069 0.974000 9061685
0.123753 -0.276351 0.977000 10313805
0.124513 -0.272431 0.983000 9062713
0.124767 -0.267357 0.985000 10182978
0.132814 -0.363026 1.033000 10779253
0.132429 -0.356086 1.030000 10779762
0.130371 -0.344760 1.014000 10314088
0.128957 -0.335289 1.003000 10049629
0.127029 -0.324629 0.988000 10906719
0.125229 -0.314463 0.974000 10907504
0.124200 -0.306360 0.966000 8933982
0.123814 -0.299906 0.963000 7881069
0.124200 -0.295320 0.966000 8690593
0.124586 -0.290700 0.969000 7681087
0.125229 -0.286634 0.974000 9658706
0.125614 -0.281934 0.977000 8214595
0.125614 -0.276351 0.977000 10181711
0.126386 -0.272431 0.983000 8670532
0.126643 -0.267357 0.985000 9988427
0.134782 -0.363026 1.033000 10776938
0.134390 -0.356086 1.030000 10778219
0.131911 -0.343740 1.011000 10248289
0.130476 -0.334286 1.000000 10114402
0.128519 -0.323643 0.985000 10906465
0.127084 -0.314463 0.974000 10776682
0.126040 -0.306360 0.966000 9001320
0.125649 -0.299906 0.963000 8987268
0.126431 -0.296237 0.969000 8609961
0.126823 -0.291600 0.972000 7814209
0.127084 -0.286634 0.974000 9260114
0.127475 -0.281934 0.977000 9395282
0.127867 -0.277200 0.980000 9984849
0.128519 -0.272986 0.985000 8405839
0.128910 -0.268171 0.988000 9195860
0.136352 -0.361971 1.030000 10839915
0.135823 -0.354703 1.026000 10711658
0.133837 -0.343740 1.011000 10247775
0.132381 -0.334286 1.000000 10115682
0.130395 -0.323643 0.985000 10972266
0.128939 -0.314463 0.974000 10644082
0.128277 -0.307311 0.969000 9133416
0.127483 -0.299906 0.963000 10057612
0.128674 -0.297154 0.972000 8520040
0.128939 -0.292200 0.974000 7880779
0.129336 -0.287517 0.977000 8928857
0.130130 -0.283666 0.983000 10510680
0.130130 -0.278049 0.983000 9788247
0.130395 -0.272986 0.985000 8146000
0.130792 -0.268171 0.988000 8406866
0.138314 -0.361971 1.030000 10314859
0.137374 -0.353666 1.023000 10581352
0.135360 -0.342720 1.008000 10182236
0.134286 -0.334286 1.000000 10182499
0.132003 -0.322986 0.983000 11235443
0.130794 -0.314463 0.974000 10248571
0.130526 -0.308263 0.972000 9132903
0.130526 -0.302709 0.972000 11121044
0.130794 -0.297766 0.974000 8074278
0.131197 -0.293100 0.977000 8078166
0.131600 -0.288400 0.980000 9919328
0.132003 -0.283666 0.983000 10712671
0.132271 -0.278614 0.985000 9854044
0.132674 -0.273817 0.988000 9131346
0.140276 -0.361971 1.030000 9855079
0.138914 -0.352629 1.020000 10380385
0.137280 -0.342720 1.008000 10116442
0.135782 -0.333283 0.997000 10248546
0.133467 -0.322000 0.980000 11497582
0.132650 -0.314463 0.974000 9856110
0.132377 -0.308263 0.972000 9198693
0.132650 -0.303331 0.974000 12158600
0.133467 -0.299600 0.980000 7620414
0.133467 -0.294000 0.980000 8276823
0.133875 -0.289283 0.983000 10842990
0.134148 -0.284243 0.985000 10840409
0.134556 -0.279463 0.988000 9984350
0.134965 -0.274649 0.991000 10116957
0.140443 -0.351591 1.017000 9458010
0.139200 -0.342720 1.008000 9656920
0.137681 -0.333283 0.997000 10313826
0.135333 -0.322000 0.980000 10905960
0.134505 -0.314463 0.974000 9526625
0.134505 -0.308897 0.974000 9726306
0.134505 -0.303331 0.974000 10123133
0.135748 -0.300517 0.983000 8015190
0.136024 -0.295500 0.985000 8802903
0.136438 -0.290754 0.988000 10645116
0.136438 -0.285109 0.988000 9786452
0.137267 -0.281160 0.994000 10248799
0.137681 -0.276311 0.997000 10449768
0.141540 -0.349517 1.011000 8475232
0.141120 -0.342720 1.008000 9198174
0.139580 -0.333283 0.997000 10313313
0.137620 -0.322986 0.983000 10315121
0.136360 -0.314463 0.974000 9199716
0.136360 -0.308897 0.974000 10311802
0.137200 -0.305200 0.980000 8020341
0.137620 -0.300517 0.983000 8344402
0.138320 -0.296400 0.988000 9263196
0.138740 -0.291637 0.991000 10449010
0.138740 -0.285974 0.991000 8673887
0.140000 -0.282857 1.000000 10512997
0.143040 -0.348480 1.008000 8213094
0.142756 -0.342040 1.006000 9131876
0.141479 -0.333283 0.997000 10114913
0.139776 -0.323643 0.985000 9856633
0.139067 -0.316400 0.980000 8609638
0.139067 -0.310800 0.980000 9662865
0.139067 -0.305200 0.980000 8016493
0.139776 -0.301129 0.985000 8474446
0.140628 -0.297300 0.991000 9526625
0.141479 -0.293403 0.997000 10380647
0.141479 -0.287706 0.997000 9464938
0.142756 -0.284554 1.006000 10316394
0.144960 -0.348480 1.008000 7948393
0.144241 -0.341020 1.003000 9064539
0.142947 -0.332280 0.994000 9853553
0.141652 -0.323643 0.985000 9398656
0.140933 -0.316400 0.980000 8019058
0.140933 -0.310800 0.980000 9078151
0.140933 -0.305200 0.980000 8016747
0.141652 -0.301129 0.985000 8604768
0.142515 -0.297300 0.991000 9787744
0.143378 -0.293403 0.997000 10314081
0.143378 -0.287706 0.997000 10183783
0.146880 -0.348480 1.008000 7943789
0.145714 -0.340000 1.000000 8934994
0.144403 -0.331277 0.991000 9790594
0.143529 -0.323643 0.985000 9202823
0.143237 -0.317369 0.983000 8543357
0.143237 -0.311751 0.983000 9269116
0.142800 -0.305200 0.980000 9133417
0.143966 -0.302046 0.988000 9528177
0.144840 -0.298200 0.994000 9983328
0.144840 -0.292520 0.994000 10249819
0.145277 -0.287706 0.997000 10248036
0.146151 -0.283706 1.003000 9724774
0.147619 -0.340000 1.000000 8811137
0.146290 -0.331277 0.991000 9731982
0.145110 -0.322986 0.983000 9006728
0.145110 -0.317369 0.983000 9009038
0.145110 -0.311751 0.983000 9532564
0.144667 -0.305200 0.980000 10256524
0.145848 -0.302046 0.988000 10517905
0.146290 -0.297300 0.991000 10124678
0.146733 -0.292520 0.994000 10252676
0.147176 -0.287706 0.997000 10255752
0.148062 -0.283706 1.003000 9396364
0.149524 -0.340000 1.000000 10984111
0.148627 -0.332280 0.994000 10655130
0.146982 -0.322986 0.983000 10453385
0.146982 -0.317369 0.983000 11049887
0.147281 -0.312386 0.985000 11376812
0.146533 -0.305200 0.980000 11774127
0.147281 -0.301129 0.985000 11835824
0.148178 -0.297300 0.991000 11707565
0.149524 -0.288571 1.000000 12102316
0.149157 -0.312386 0.985000 13214632
0.148400 -0.305200 0.980000 13279919
0.149157 -0.301129 0.985000 13214381
0.151429 -0.288571 1.000000 13936047
0.150267 -0.305200 0.980000 13147567
-0.038703 -0.346341 1.042000 12031137
-0.037663 -0.319651 1.014000 9916217
-0.036718 -0.352295 1.042000 12163231
-0.036824 -0.347338 1.045000 11635866
-0.036718 -0.340387 1.042000 9261918
-0.035837 -0.326409 1.017000 8471880
-0.035731 -0.319651 1.014000 8210760
-0.035520 -0.312000 1.008000 8017749
-0.036154 -0.294120 1.026000 11701367
-0.036154 -0.288257 1.026000 11109236
-0.036154 -0.282394 1.026000 10122605
-0.034833 -0.353310 1.045000 12097435
-0.034833 -0.347338 1.045000 11633298
-0.034633 -0.339407 1.039000 9590370
-0.034000 -0.327371 1.020000 8932433
-0.033700 -0.318706 1.011000 8473176
-0.033533 -0.311381 1.006000 8146776
-0.033333 -0.303810 1.000000 7551049
-0.033333 -0.298095 1.000000 9527377
-0.034200 -0.294120 1.026000 9594704
-0.034200 -0.288257 1.026000 9530973
-0.034200 -0.282394 1.026000 9070181
-0.032937 -0.354324 1.048000 11964312
-0.032937 -0.348335 1.048000 11569315
-0.032560 -0.338427 1.036000 9922951
-0.032151 -0.328334 1.023000 9393523
-0.031869 -0.319651 1.014000 8670039
-0.031617 -0.311381 1.006000 8341845
-0.031429 -0.303810 1.000000 7947337
-0.031523 -0.298990 1.003000 7689802
-0.032151 -0.293260 1.023000 7491669
-0.032246 -0.288257 1.026000 7951182
-0.032246 -0.282394 1.026000 8018255
-0.030941 -0.354324 1.048000 12093589
-0.030941 -0.348335 1.048000 12166068
-0.030675 -0.339407 1.039000 10056876
-0.030203 -0.328334 1.023000 9661588
-0.029849 -0.318706 1.011000 9064278
-0.029612 -0.310452 1.003000 8341074
-0.029524 -0.303810 1.000000 7949384
-0.029612 -0.298990 1.003000 7621442
-0.029701 -0.294135 1.006000 8213331
-0.030026 -0.291540 1.017000 7621722
-0.030114 -0.286571 1.020000 7288639
-0.030203 -0.281569 1.023000 7226424
-0.030291 -0.276531 1.026000 7221806
-0.029138 -0.356690 1.055000 12228256
-0.029055 -0.349665 1.052000 12760246
-0.028696 -0.339407 1.039000 10124450
-0.028254 -0.328334 1.023000 9926797
-0.028006 -0.319651 1.014000 9459292
-0.027702 -0.310452 1.003000 8405839
-0.027453 -0.301987 0.994000 7883327
-0.027619 -0.298095 1.000000 7553086
-0.027785 -0.294135 1.006000 8671822
-0.028006 -0.290680 1.014000 7818572
-0.028089 -0.285729 1.017000 6569024
-0.028171 -0.280743 1.020000 6437690
-0.028254 -0.275723 1.023000 5976626
-0.027129 -0.356690 1.055000 12826284
-0.027051 -0.349665 1.052000 12164792
-0.026717 -0.339407 1.039000 10258329
-0.026383 -0.329297 1.026000 9925510
-0.026074 -0.319651 1.014000 9590883
-0.025714 -0.309524 1.000000 8801356
-0.025560 -0.301987 0.994000 8013623
-0.025560 -0.296307 0.994000 7752506
-0.025791 -0.293258 1.003000 8343369
-0.025997 -0.289820 1.011000 7621693
-0.026151 -0.285729 1.017000 6503234
-0.026229 -0.280743 1.020000 6174779
-0.026306 -0.275723 1.023000 5911350
-0.025119 -0.356690 1.055000 13412536
-0.025048 -0.349665 1.052000 11636900
-0.024738 -0.339407 1.039000 10381168
-0.024429 -0.329297 1.026000 9992820
-0.024143 -0.319651 1.014000 9721949
-0.023738 -0.308595 0.997000 9196111
-0.023595 -0.301075 0.991000 8079680
-0.023524 -0.294518 0.988000 7884351
-0.023667 -0.290627 0.994000 8015176
-0.024000 -0.288960 1.008000 7489846
-0.024000 -0.283200 1.008000 6438462
-0.024214 -0.279917 1.017000 5977654
-0.024286 -0.274914 1.020000 5845810
-0.023175 -0.357705 1.058000 13281732
-0.022890 -0.347338 1.045000 10120080
-0.022693 -0.338427 1.036000 8861512
-0.022409 -0.328334 1.023000 9133154
-0.022080 -0.317760 1.008000 9328214
-0.021773 -0.307667 0.994000 9459538
-0.021642 -0.300164 0.988000 8079690
-0.021642 -0.294518 0.988000 7884099
-0.021708 -0.289750 0.991000 7753287
-0.021839 -0.285807 0.997000 7094319
-0.021905 -0.280952 1.000000 6307898
-0.022211 -0.279091 1.014000 5780785
-0.022277 -0.274106 1.017000 5780526
-0.022277 -0.268294 1.017000 5910060
-0.021280 -0.365813 1.064000 12092818
-0.021160 -0.357705 1.058000 13083317
-0.020840 -0.346341 1.042000 8662884
-0.020720 -0.338427 1.036000 7288130
-0.020520 -0.329297 1.026000 8211025
-0.020160 -0.317760 1.008000 8933460
-0.019880 -0.307667 0.994000 9723731
-0.019700 -0.299252 0.985000 8078920
-0.019660 -0.293028 0.983000 7949633
-0.019760 -0.288872 0.988000 7424836
-0.019880 -0.284947 0.994000 6763057
-0.020000 -0.280952 1.000000 6175540
-0.020120 -0.276890 1.006000 5583142
-0.020220 -0.272489 1.011000 5715504
-0.020220 -0.266711 1.011000 5712417
-0.019253 -0.365813 1.064000 12490143
-0.019199 -0.358719 1.061000 11573669
-0.018910 -0.347338 1.045000 7943736
-0.018747 -0.338427 1.036000 6760765
-0.018403 -0.326409 1.017000 7813696
-0.018240 -0.317760 1.008000 8536403
-0.017987 -0.307667 0.994000 10183252
-0.017824 -0.299252 0.985000 7945799
-0.017788 -0.293028 0.983000 7884095
-0.017824 -0.287995 0.985000 7556930
-0.017932 -0.284087 0.991000 6236466
-0.018041 -0.280110 0.997000 6109741
-0.018150 -0.276064 1.003000 5188634
-0.018204 -0.271141 1.006000 5718066
-0.018294 -0.266711 1.011000 5450262
-0.017291 -0.367189 1.068000 12820394
-0.017130 -0.357705 1.058000 10054531
-0.016870 -0.346341 1.042000 7160128
-0.016773 -0.338427 1.036000 6239841
-0.016466 -0.326409 1.017000 7484221
-0.016320 -0.317760 1.008000 8077138
-0.016093 -0.307667 0.994000 10577250
-0.015915 -0.298645 0.983000 7751241
-0.015867 -0.292133 0.980000 7883836
-0.015915 -0.287410 0.983000 7622474
-0.016045 -0.284087 0.991000 5709099
-0.016093 -0.279267 0.994000 5976110
-0.016190 -0.275238 1.000000 4859938
-0.016239 -0.270332 1.003000 5650742
-0.016320 -0.265920 1.008000 5187875
-0.015343 -0.375389 1.074000 11633809
-0.015300 -0.368220 1.071000 12295861
-0.015114 -0.357705 1.058000 8732257
-0.014886 -0.346341 1.042000 8410184
-0.014757 -0.337447 1.033000 8747653
-0.014529 -0.326409 1.017000 7947066
-0.014371 -0.317130 1.006000 8077137
-0.014200 -0.307667 0.994000 10577264
-0.014043 -0.298645 0.983000 7682635
-0.014000 -0.292133 0.980000 7882552
-0.014043 -0.287410 0.983000 7951186
-0.014114 -0.283227 0.988000 5447203
-0.014157 -0.278424 0.991000 5778734
-0.014243 -0.274412 0.997000 5056553
-0.014286 -0.269524 1.000000 5718331
-0.014329 -0.264601 1.003000 5516591
-0.014371 -0.259644 1.006000 6237475
-0.013297 -0.375389 1.074000 11240097
-0.013297 -0.369251 1.074000 11839688
-0.013136 -0.358719 1.061000 7424350
-0.012864 -0.345344 1.039000 9599616
-0.012790 -0.337447 1.033000 11243670
-0.012591 -0.326409 1.017000 8416639
-0.012455 -0.317130 1.006000 8077398
-0.012307 -0.307667 0.994000 10577506
-0.012133 -0.297733 0.980000 7553865
-0.012096 -0.291239 0.977000 7881527
-0.012133 -0.286533 0.980000 8211531
-0.012195 -0.282367 0.985000 5118515
-0.012232 -0.277581 0.988000 5581099
-0.012307 -0.273587 0.994000 5252137
-0.012344 -0.268715 0.997000 5781809
-0.012418 -0.264601 1.003000 5844267
-0.012418 -0.258870 1.003000 6303015
-0.011251 -0.375389 1.074000 11761074
-0.011251 -0.369251 1.074000 10978779
-0.011084 -0.357705 1.058000 9262683
-0.010885 -0.345344 1.039000 10259895
-0.010822 -0.337447 1.033000 10653863
-0.010654 -0.326409 1.017000 9337796
-0.010539 -0.317130 1.006000 8337756
-0.010413 -0.307667 0.994000 10248275
-0.010267 -0.297733 0.980000 7551047
-0.010204 -0.290345 0.974000 7618357
-0.010235 -0.285656 0.977000 7487557
-0.010298 -0.281793 0.983000 5384515
-0.010350 -0.277581 0.988000 5515561
-0.010382 -0.272761 0.991000 4792873
-0.010413 -0.267907 0.994000 5647655
-0.010476 -0.263810 1.000000 6107687
-0.010508 -0.258870 1.003000 6302764
-0.009206 -0.375389 1.074000 12229292
-0.009206 -0.369251 1.074000 10117546
-0.009043 -0.356690 1.055000 11040890
-0.008880 -0.344347 1.036000 10844294
-0.008829 -0.336467 1.030000 10056068
-0.008717 -0.326409 1.017000 10184049
-0.008597 -0.316184 1.003000 8540267
-0.008520 -0.307667 0.994000 9919570
-0.008374 -0.296822 0.977000 7488327
-0.008349 -0.290345 0.974000 7354675
-0.008349 -0.284779 0.974000 6765119
-0.008400 -0.280933 0.980000 5710910
-0.008426 -0.276176 0.983000 5383719
-0.008494 -0.272761 0.991000 4398625
-0.008520 -0.267907 0.994000 5450019
-0.008546 -0.263018 0.997000 6369068
-0.008571 -0.258095 1.000000 6302762
-0.007160 -0.375389 1.074000 12888486
-0.007140 -0.368220 1.071000 9982585
-0.007013 -0.355676 1.052000 10921624
-0.006907 -0.344347 1.036000 9260885
-0.006840 -0.335160 1.026000 10511713
-0.006780 -0.326409 1.017000 10314782
-0.006687 -0.316184 1.003000 8675451
-0.006627 -0.307667 0.994000 9458512
-0.006513 -0.296822 0.977000 8012358
-0.006480 -0.289749 0.972000 6960945
-0.006493 -0.284779 0.974000 6565434
-0.006513 -0.280073 0.977000 5781304
-0.006533 -0.275333 0.980000 5383718
-0.006567 -0.271110 0.985000 4660761
-0.006607 -0.267098 0.991000 5448736
-0.006647 -0.263018 0.997000 6237744
-0.006667 -0.258095 1.000000 6302504
-0.005114 -0.375389 1.074000 13543851
-0.005114 -0.369251 1.074000 9769589
-0.004976 -0.353310 1.045000 10782862
-0.004933 -0.344347 1.036000 7670091
-0.004886 -0.335160 1.026000 10970456
-0.004843 -0.326409 1.017000 10377018
-0.004776 -0.316184 1.003000 8745098
-0.004719 -0.306738 0.991000 8998735
-0.004652 -0.296822 0.977000 8473163
-0.004614 -0.288854 0.969000 6632758
-0.004629 -0.284194 0.972000 6369078
-0.004652 -0.280073 0.977000 5852483
-0.004667 -0.275333 0.980000 5316906
-0.004690 -0.271110 0.985000 4989213
-0.004705 -0.266290 0.988000 5448992
-0.004719 -0.261435 0.991000 6106155
-0.004748 -0.257321 0.997000 6236706
-0.003069 -0.375389 1.074000 13352112
-0.003069 -0.369251 1.074000 9787505
-0.003006 -0.355676 1.052000 10775685
-0.002951 -0.343350 1.033000 7811392
-0.002931 -0.335160 1.026000 10841422
-0.002897 -0.325446 1.014000 10249301
-0.002857 -0.315238 1.000000 9408665
-0.002831 -0.306738 0.991000 8669261
-0.002791 -0.296822 0.977000 8539984
-0.002769 -0.288854 0.969000 6435642
-0.002769 -0.283317 0.969000 6237490
-0.002783 -0.279213 0.974000 5915213
-0.002791 -0.274490 0.977000 5579823
-0.002809 -0.270559 0.983000 5252128
-0.002814 -0.265481 0.985000 5644832
-0.002831 -0.261435 0.991000 6171173
-0.002840 -0.256547 0.994000 6302236
-0.001023 -0.375389 1.074000 13082019
-0.001020 -0.368220 1.071000 9729160
-0.001002 -0.355676 1.052000 10712442
-0.000984 -0.343350 1.033000 7948363
-0.000977 -0.335160 1.026000 10707280
-0.000969 -0.326409 1.017000 10051416
-0.000955 -0.316184 1.003000 10058904
-0.000947 -0.307667 0.994000 8274245
-0.000928 -0.295910 0.974000 8539733
-0.000923 -0.288854 0.969000 6303291
-0.000923 -0.283317 0.969000 6106418
-0.000928 -0.279213 0.974000 5983556
-0.000930 -0.274490 0.977000 5776684
-0.000933 -0.269733 0.980000 5515046
-0.000938 -0.265481 0.985000 5776669
-0.000944 -0.261435 0.991000 6236448
-0.000947 -0.256547 0.994000 6301979
0.001023 -0.375389 1.074000 11771285
0.001020 -0.368220 1.071000 10059166
0.000998 -0.354324 1.048000 11170928
0.000984 -0.343350 1.033000 8870229
0.000977 -0.335160 1.026000 10183250
0.000966 -0.325446 1.014000 9856859
0.000955 -0.316184 1.003000 10652568
0.000944 -0.306738 0.991000 8143933
0.000930 -0.296822 0.977000 8409691
0.000923 -0.288854 0.969000 6106171
0.000923 -0.283317 0.969000 6171187
0.000926 -0.278640 0.972000 6111290
0.000928 -0.273648 0.974000 6040617
0.000933 -0.269733 0.980000 5646124
0.000936 -0.264942 0.983000 5841947
0.000941 -0.260644 0.988000 6105115
0.000944 -0.255772 0.991000 6236698
0.003080 -0.382947 1.078000 11964058
0.003069 -0.375389 1.074000 10386582
0.003051 -0.367189 1.068000 10456218
0.002994 -0.354324 1.048000 11630189
0.002951 -0.343350 1.033000 9791826
0.002914 -0.333200 1.020000 9590859
0.002897 -0.325446 1.014000 9593186
0.002874 -0.317130 1.006000 11239821
0.002831 -0.306738 0.991000 8012620
0.002783 -0.295910 0.974000 8278615
0.002769 -0.288854 0.969000 5909052
0.002760 -0.282440 0.966000 6171186
0.002769 -0.277780 0.969000 6243915
0.002783 -0.273648 0.974000 6301737
0.002791 -0.268908 0.977000 5842982
0.002800 -0.264133 0.980000 5907230
0.002814 -0.259852 0.985000 5907999
0.002823 -0.254998 0.988000 6105373
0.005133 -0.382947 1.078000 11964313
0.005114 -0.375389 1.074000 10186134
0.005086 -0.367189 1.068000 10255765
0.005024 -0.356690 1.055000 11629931
0.004919 -0.343350 1.033000 9528399
0.004871 -0.334180 1.023000 9590339
0.004829 -0.325446 1.014000 9922408
0.004790 -0.317130 1.006000 10911106
0.004690 -0.304881 0.985000 8212827
0.004638 -0.295910 0.974000 8280404
0.004614 -0.288854 0.969000 5777468
0.004586 -0.281563 0.963000 6039090
0.004600 -0.276920 0.966000 6177628
0.004629 -0.273086 0.972000 6105386
0.004652 -0.268908 0.977000 5711647
0.004667 -0.264133 0.980000 5710626
0.004681 -0.259325 0.983000 5448482
0.004705 -0.254998 0.988000 6040097
0.007187 -0.382947 1.078000 11897750
0.007160 -0.375389 1.074000 9993874
0.007120 -0.367189 1.068000 10055545
0.007013 -0.355676 1.052000 11562849
0.006907 -0.344347 1.036000 9332816
0.006800 -0.333200 1.020000 9590095
0.006760 -0.325446 1.014000 10186337
0.006720 -0.317760 1.008000 10517119
0.006553 -0.304262 0.983000 8472675
0.006493 -0.295910 0.974000 8213593
0.006440 -0.287960 0.966000 5711152
0.006420 -0.281563 0.963000 5843247
0.006460 -0.277780 0.969000 6115654
0.006480 -0.273086 0.972000 5842726
0.006513 -0.268908 0.977000 5646112
0.006533 -0.264133 0.980000 5513759
0.006553 -0.259325 0.983000 4989203
0.006587 -0.254998 0.988000 5973789
0.009240 -0.382947 1.078000 11767186
0.009206 -0.375389 1.074000 9993359
0.009154 -0.367189 1.068000 9395292
0.008983 -0.354324 1.048000 10250840
0.008880 -0.344347 1.036000 9724752
0.008769 -0.334180 1.023000 9921372
0.008691 -0.325446 1.014000 9856858
0.008640 -0.317760 1.008000 10451580
0.008426 -0.304262 0.983000 8672363
0.008349 -0.295910 0.974000 8410463
0.008280 -0.287960 0.966000 5712675
0.008254 -0.281563 0.963000 5778477
0.008280 -0.276920 0.966000 5980464
0.008306 -0.272243 0.969000 5842722
0.008349 -0.268082 0.974000 5580065
0.008374 -0.263325 0.977000 5513756
0.008426 -0.259325 0.983000 5316356
0.008443 -0.254224 0.985000 6170394
0.011293 -0.382947 1.078000 11700883
0.011251 -0.375389 1.074000 9993876
0.011147 -0.365813 1.064000 8800085
0.010979 -0.354324 1.048000 8936527
0.010853 -0.344347 1.036000 10183763
0.010717 -0.334180 1.023000 10185051
0.010591 -0.324483 1.011000 9465176
0.010539 -0.317130 1.006000 10319486
0.010298 -0.304262 0.983000 8864887
0.010151 -0.294391 0.969000 8541277
0.010089 -0.287066 0.963000 5713189
0.010068 -0.280978 0.961000 5647151
0.010120 -0.276920 0.966000 5920317
0.010151 -0.272243 0.969000 5776935
0.010183 -0.267531 0.972000 5579808
0.010235 -0.263325 0.977000 5448732
0.010267 -0.258533 0.980000 5644558
0.010319 -0.254224 0.985000 6367003
0.010350 -0.249352 0.988000 5053731
0.013384 -0.384012 1.081000 11504276
0.013297 -0.375389 1.074000 10256281
0.013173 -0.365813 1.064000 8604238
0.012975 -0.354324 1.048000 8537414
0.012827 -0.344347 1.036000 10053206
0.012666 -0.334180 1.023000 10121307
0.012517 -0.324483 1.011000 9067605
0.012455 -0.317130 1.006000 10652288
0.012170 -0.304262 0.983000 8736899
0.011997 -0.294391 0.969000 8804187
0.011923 -0.287066 0.963000 5910310
0.011898 -0.280978 0.961000 5713457
0.011960 -0.276920 0.966000 5785161
0.011997 -0.272243 0.969000 5710380
0.012034 -0.267531 0.972000 5579551
0.012096 -0.263325 0.977000 5579804
0.012133 -0.258533 0.980000 5776663
0.012195 -0.254224 0.985000 6105627
0.015543 -0.386499 1.088000 11307670
0.015343 -0.375389 1.074000 10518165
0.015200 -0.365813 1.064000 8403789
0.014971 -0.354324 1.048000 8147278
0.014800 -0.344347 1.036000 9987932
0.014657 -0.335160 1.026000 10054227
0.014400 -0.323520 1.008000 8737885
0.014329 -0.316184 1.003000 10976650
0.014043 -0.304262 0.983000 8599678
0.013843 -0.294391 0.969000 9066591
0.013729 -0.286470 0.961000 6172458
0.013729 -0.280978 0.961000 5779507
0.013757 -0.276060 0.963000 5657146
0.013843 -0.272243 0.969000 5579311
0.013886 -0.267531 0.972000 5579295
0.013914 -0.262516 0.974000 5645599
0.013957 -0.257742 0.977000 5908765
0.014043 -0.253708 0.983000 5842973
0.014071 -0.248595 0.985000 4594465
0.017615 -0.386499 1.088000 11242136
0.017453 -0.376787 1.078000 10388625
0.017227 -0.365813 1.064000 8143948
0.016968 -0.354324 1.048000 9590869
0.016773 -0.344347 1.036000 9459553
0.016611 -0.335160 1.026000 10449740
0.016320 -0.323520 1.008000 8737380
0.016239 -0.316184 1.003000 11439251
0.015948 -0.304881 0.985000 8734073
0.015689 -0.294391 0.969000 9527651
