# .PCD v.7 - Point Cloud Data file format
VERSION .7
FIELDS x y z rgb
SIZE 4 4 4 4
TYPE F F F I
COUNT 1 1 1 1
WIDTH 1322
HEIGHT 1
POINTS 1322
DATA ascii
0.160414 -0.233586 0.985000 9130062
0.156831 -0.222866 0.963000 5847884
0.156506 -0.216911 0.961000 5648691
0.156506 -0.211420 0.961000 3678248
0.156831 -0.206357 0.963000 5777719
0.157320 -0.201480 0.966000 4789535
0.158297 -0.197177 0.972000 7018298
0.158297 -0.191623 0.972000 8277558
0.159111 -0.187026 0.977000 7813428
0.159600 -0.182000 0.980000 7157547
0.181568 -0.305411 1.102000 11039881
0.176460 -0.290700 1.071000 11039878
0.174812 -0.281923 1.061000 8142953
0.172670 -0.272480 1.048000 9791072
0.167563 -0.258609 1.017000 7484516
0.165750 -0.250063 1.006000 8932431
0.163773 -0.241400 0.994000 9195077
0.161961 -0.233111 0.983000 9327179
0.158666 -0.222866 0.963000 6371149
0.158336 -0.216911 0.961000 5780020
0.158336 -0.211420 0.961000 3939635
0.158666 -0.206357 0.963000 5648182
0.159160 -0.201480 0.966000 4395296
0.159654 -0.196569 0.969000 7352641
0.160149 -0.191623 0.972000 8343369
0.160972 -0.187026 0.977000 7618100
0.161467 -0.182000 0.980000 7420725
0.183000 -0.304303 1.098000 11104385
0.180167 -0.293414 1.081000 10973577
0.176333 -0.281126 1.058000 5916763
0.174667 -0.272480 1.048000 9793902
0.170000 -0.259371 1.020000 7684190
0.167667 -0.250063 1.006000 7614016
0.165667 -0.241400 0.994000 8998469
0.163333 -0.232400 0.980000 9523789
0.160500 -0.222866 0.963000 6832979
0.159667 -0.216234 0.958000 5911347
0.160167 -0.211420 0.961000 4137003
0.160500 -0.206357 0.963000 5451567
0.161000 -0.201480 0.966000 3936022
0.161500 -0.196569 0.969000 7750208
0.162000 -0.191623 0.972000 8408114
0.162333 -0.186451 0.974000 7486496
0.163333 -0.182000 0.980000 7682352
0.185091 -0.304303 1.098000 10248825
0.182900 -0.294500 1.085000 10976651
0.178349 -0.281126 1.058000 6370893
0.176663 -0.272480 1.048000 10186876
0.173629 -0.261914 1.030000 7620441
0.169583 -0.250063 1.006000 7748401
0.168066 -0.242129 0.997000 8801606
0.164694 -0.231689 0.977000 9654862
0.162334 -0.222866 0.963000 7554905
0.161997 -0.216911 0.961000 6109233
0.161997 -0.211420 0.961000 4594212
0.162334 -0.206357 0.963000 5387048
0.162840 -0.201480 0.966000 4001036
0.163346 -0.196569 0.969000 7683902
0.163851 -0.191623 0.972000 8145947
0.164189 -0.186451 0.974000 6959628
0.165200 -0.182000 0.980000 7814186
0.189058 -0.313689 1.109000 9986416
0.187183 -0.304303 1.098000 9329771
0.184285 -0.293414 1.081000 11045015
0.179852 -0.280329 1.055000 6832455
0.178659 -0.272480 1.048000 10516598
0.174909 -0.260897 1.026000 7492443
0.171499 -0.250063 1.006000 7879757
0.169453 -0.241400 0.994000 8540491
0.166044 -0.230977 0.974000 9851217
0.164680 -0.223560 0.966000 8211802
0.163828 -0.216911 0.961000 6374190
0.163828 -0.211420 0.961000 4988713
0.164169 -0.206357 0.963000 5390638
0.164680 -0.201480 0.966000 4001045
0.165191 -0.196569 0.969000 7624257
0.165703 -0.191623 0.972000 7881767
0.166044 -0.186451 0.974000 6499867
0.167067 -0.182000 0.980000 7943464
0.190481 -0.312557 1.105000 9067623
0.188757 -0.303471 1.095000 7550556
0.186344 -0.293414 1.081000 9992354
0.182896 -0.281923 1.061000 7226690
0.180138 -0.271700 1.045000 10251632
0.178070 -0.262677 1.033000 8806493
0.173415 -0.250063 1.006000 8672104
0.171347 -0.241400 0.994000 9394256
0.168933 -0.232400 0.980000 9851988
0.166520 -0.223560 0.966000 8410460
0.165141 -0.216234 0.958000 6371114
0.165658 -0.211420 0.961000 5512239
0.165658 -0.205929 0.961000 5323316
0.166520 -0.201480 0.966000 4263710
0.167037 -0.196569 0.969000 8082755
0.167554 -0.191623 0.972000 8147507
0.167899 -0.186451 0.974000 6896681
0.168933 -0.182000 0.980000 7418919
0.192586 -0.312557 1.105000 8215922
0.190146 -0.302363 1.091000 5716821
0.188403 -0.293414 1.081000 9006235
0.184917 -0.281923 1.061000 7552063
0.182129 -0.271700 1.045000 9988198
0.180560 -0.263440 1.036000 10051416
0.174809 -0.249317 1.003000 9463134
0.173240 -0.241400 0.994000 10180175
0.170277 -0.231689 0.977000 9851989
0.167837 -0.222866 0.963000 8607061
0.166443 -0.215557 0.955000 6435116
0.166966 -0.210760 0.958000 5972522
0.166966 -0.205286 0.958000 5325621
0.167837 -0.200854 0.963000 4527391
0.168360 -0.195960 0.966000 8607285
0.168360 -0.190440 0.966000 8409658
0.168883 -0.185494 0.969000 7290666
0.170277 -0.181443 0.977000 6892574
0.194690 -0.312557 1.105000 8546428
0.192224 -0.302363 1.091000 5450574
0.191167 -0.294500 1.085000 8216212
0.186410 -0.281126 1.058000 7424060
0.184119 -0.271700 1.045000 9919579
0.180771 -0.260897 1.026000 10248276
0.176719 -0.249317 1.003000 8867155
0.174605 -0.240671 0.991000 10508878
0.171610 -0.230977 0.974000 9656149
0.169319 -0.222403 0.961000 8870990
0.168262 -0.215557 0.955000 6433838
0.168790 -0.210760 0.958000 6102565
0.168790 -0.205286 0.958000 5716790
0.169671 -0.200854 0.963000 5053729
0.170200 -0.195960 0.966000 8539430
0.170200 -0.190440 0.966000 8540738
0.170729 -0.185494 0.969000 7486762
0.171610 -0.180886 0.974000 6824470
0.193768 -0.301531 1.088000 5189469
0.192521 -0.293414 1.081000 7501191
0.187356 -0.279531 1.052000 7225414
0.184507 -0.269360 1.036000 9853018
0.182726 -0.260897 1.026000 10381141
0.178630 -0.249317 1.003000 8272965
0.176492 -0.240671 0.991000 10835023
0.172574 -0.229791 0.969000 9459298
0.171150 -0.222403 0.961000 9131089
0.170081 -0.215557 0.955000 6432566
0.170615 -0.210760 0.958000 6169647
0.170615 -0.205286 0.958000 6045236
0.171506 -0.200854 0.963000 5580070
0.172040 -0.195960 0.966000 8471583
0.172040 -0.190440 0.966000 8667945
0.172574 -0.185494 0.969000 7683626
0.173465 -0.180886 0.974000 6695713
0.196380 -0.308597 1.091000 9862769
0.195840 -0.301531 1.088000 5907819
0.194040 -0.292600 1.078000 8280953
0.190440 -0.281126 1.058000 8474704
0.186480 -0.269360 1.036000 10314840
0.184680 -0.260897 1.026000 10581079
0.180540 -0.249317 1.003000 8535606
0.178380 -0.240671 0.991000 10309968
0.175320 -0.230977 0.974000 9723246
0.172980 -0.222403 0.961000 9263700
0.171900 -0.215557 0.955000 6433853
0.172440 -0.210760 0.958000 5972282
0.172440 -0.205286 0.958000 6636338
0.172980 -0.200437 0.961000 5975083
0.173880 -0.195960 0.966000 7812632
0.173880 -0.190440 0.966000 7346448
0.174420 -0.185494 0.969000 8013097
0.175320 -0.180886 0.974000 7027244
0.198458 -0.308597 1.091000 10780538
0.197912 -0.301531 1.088000 6565998
0.196093 -0.292600 1.078000 9065321
0.193547 -0.282720 1.064000 9659497
0.187908 -0.268580 1.033000 10839899
0.186089 -0.260134 1.023000 10706771
0.183360 -0.250560 1.008000 8798268
0.180268 -0.240671 0.991000 9721937
0.177175 -0.230977 0.974000 9987432
0.174810 -0.222403 0.961000 9392725
0.173719 -0.215557 0.955000 6502465
0.174265 -0.210760 0.958000 5711424
0.174265 -0.205286 0.958000 7229755
0.174810 -0.200437 0.961000 6369069
0.175174 -0.195351 0.963000 7152161
0.175720 -0.190440 0.966000 6042404
0.176266 -0.185494 0.969000 8277553
0.177175 -0.180886 0.974000 7290160
0.200536 -0.308597 1.091000 10977667
0.199985 -0.301531 1.088000 7288177
0.198698 -0.293414 1.081000 9263192
0.196860 -0.284580 1.071000 10452099
0.189324 -0.267800 1.030000 10841182
0.188037 -0.260134 1.023000 9060432
0.185280 -0.250560 1.008000 8733249
0.182155 -0.240671 0.991000 9724754
0.179030 -0.230977 0.974000 9853794
0.176641 -0.222403 0.961000 9329495
0.175538 -0.215557 0.955000 6766405
0.175538 -0.210100 0.955000 5840710
0.176090 -0.205286 0.958000 7555396
0.176641 -0.200437 0.961000 6697775
0.177009 -0.195351 0.963000 6627625
0.177560 -0.190440 0.966000 7754808
0.178111 -0.185494 0.969000 8408632
0.179030 -0.180886 0.974000 7685173
0.202614 -0.308597 1.091000 11237759
0.202057 -0.301531 1.088000 8013167
0.200757 -0.293414 1.081000 9456979
0.197600 -0.282720 1.064000 11235429
0.191286 -0.267800 1.030000 10775386
0.189986 -0.260134 1.023000 7423310
0.187200 -0.250560 1.008000 8733251
0.184043 -0.240671 0.991000 9659744
0.180514 -0.230503 0.972000 9720414
0.178471 -0.222403 0.961000 9260885
0.177357 -0.215557 0.955000 6965063
0.177357 -0.210100 0.955000 5908548
0.177914 -0.205286 0.958000 7945047
0.178471 -0.200437 0.961000 6959410
0.178843 -0.195351 0.963000 6038066
0.179400 -0.190440 0.966000 9391673
0.179957 -0.185494 0.969000 8539711
0.180886 -0.180886 0.974000 8013880
0.204692 -0.308597 1.091000 11236730
0.204130 -0.301531 1.088000 8604014
0.202816 -0.293414 1.081000 9260110
0.199627 -0.282720 1.064000 10051399
0.193248 -0.267800 1.030000 9723222
0.191934 -0.260134 1.023000 7816267
0.189120 -0.250560 1.008000 8866885
0.185930 -0.240671 0.991000 10122863
0.182366 -0.230503 0.972000 9720666
0.179739 -0.221709 0.958000 9261139
0.179176 -0.215557 0.955000 7030088
0.179176 -0.210100 0.955000 5643842
0.179739 -0.205286 0.958000 8210026
0.180302 -0.200437 0.961000 7156022
0.180677 -0.195351 0.963000 6957370
0.181240 -0.190440 0.966000 9394746
0.181803 -0.185494 0.969000 8605766
0.182741 -0.180886 0.974000 8211515
0.206770 -0.308597 1.091000 11236219
0.206202 -0.301531 1.088000 9132392
0.203549 -0.291514 1.074000 9064273
0.202411 -0.283783 1.068000 8801862
0.195210 -0.267800 1.030000 8603976
0.193314 -0.259371 1.020000 8145233
0.191609 -0.251306 1.011000 9067092
0.187818 -0.240671 0.991000 10515051
0.184217 -0.230503 0.972000 9719893
0.182132 -0.222403 0.961000 9260627
0.180995 -0.215557 0.955000 7030085
0.180995 -0.210100 0.955000 5384260
0.181564 -0.205286 0.958000 8402270
0.182132 -0.200437 0.961000 7287092
0.182511 -0.195351 0.963000 7808063
0.183080 -0.190440 0.966000 9328445
0.183649 -0.185494 0.969000 8671307
0.185165 -0.181443 0.977000 8342331
0.208849 -0.308597 1.091000 11172731
0.208274 -0.301531 1.088000 9593699
0.205594 -0.291514 1.074000 8932948
0.203680 -0.282720 1.064000 7945028
0.197171 -0.267800 1.030000 7682873
0.195257 -0.259371 1.020000 8277848
0.193534 -0.251306 1.011000 9135459
0.189706 -0.240671 0.991000 10250856
0.186451 -0.230977 0.974000 9589328
0.183963 -0.222403 0.961000 8933972
0.182814 -0.215557 0.955000 7094593
0.182814 -0.210100 0.955000 5513286
0.183389 -0.205286 0.958000 8536657
0.183963 -0.200437 0.961000 7483187
0.184346 -0.195351 0.963000 8340291
0.184920 -0.190440 0.966000 9065536
0.185494 -0.185494 0.969000 8737359
0.186451 -0.180886 0.974000 8408380
0.210927 -0.308597 1.091000 11172736
0.209767 -0.300700 1.085000 10052964
0.207640 -0.291514 1.074000 8801622
0.205707 -0.282720 1.064000 7027788
0.199133 -0.267800 1.030000 6763830
0.197200 -0.259371 1.020000 8344160
0.195460 -0.251306 1.011000 9198435
0.192173 -0.241400 0.994000 9985116
0.187920 -0.230503 0.972000 9523280
0.185793 -0.222403 0.961000 8605785
0.184633 -0.215557 0.955000 7224643
0.184633 -0.210100 0.955000 5581631
0.184633 -0.204643 0.955000 8595797
0.185793 -0.200437 0.961000 7679538
0.186180 -0.195351 0.963000 8872019
0.186760 -0.190440 0.966000 8803395
0.187340 -0.185494 0.969000 8802628
0.188307 -0.180886 0.974000 8473909
0.214371 -0.310577 1.098000 11107461
0.211833 -0.300700 1.085000 10117478
0.209686 -0.291514 1.074000 8867927
0.207148 -0.281923 1.061000 7159380
0.201095 -0.267800 1.030000 6764082
0.199143 -0.259371 1.020000 9006697
0.197386 -0.251306 1.011000 8607074
0.194067 -0.241400 0.994000 8929360
0.189771 -0.230503 0.972000 9261391
0.187624 -0.222403 0.961000 8409949
0.186452 -0.215557 0.955000 7027524
0.186452 -0.210100 0.955000 5510457
0.187038 -0.205286 0.958000 8602456
0.187624 -0.200437 0.961000 7547185
0.188600 -0.195960 0.966000 9264995
0.189186 -0.191031 0.969000 8738374
0.189186 -0.185494 0.969000 8803128
0.190162 -0.180886 0.974000 8474414
0.216463 -0.310577 1.098000 11106192
0.213111 -0.299591 1.081000 10183267
0.211140 -0.290700 1.071000 8934496
0.209169 -0.281923 1.061000 7226201
0.203057 -0.267800 1.030000 6829893
0.201086 -0.259371 1.020000 9593951
0.199311 -0.251306 1.011000 8020576
0.195960 -0.241400 0.994000 7815248
0.191623 -0.230503 0.972000 9064270
0.188863 -0.221709 0.958000 8212309
0.188271 -0.215557 0.955000 6829887
0.188271 -0.210100 0.955000 5384252
0.188863 -0.205286 0.958000 8601165
0.189454 -0.200437 0.961000 7352115
0.190440 -0.195960 0.966000 9723982
0.191031 -0.191031 0.969000 8606273
0.191031 -0.185494 0.969000 8737848
0.192017 -0.180886 0.974000 8471345
0.218554 -0.310577 1.098000 11040410
0.215170 -0.299591 1.081000 9985631
0.213180 -0.290700 1.071000 9197672
0.211190 -0.281923 1.061000 8214622
0.205019 -0.267800 1.030000 7426391
0.202431 -0.258609 1.017000 8083028
0.201237 -0.251306 1.011000 7955038
0.197853 -0.241400 0.994000 7159632
0.192280 -0.229080 0.966000 8604748
0.190688 -0.221709 0.958000 7882829
0.190090 -0.215557 0.955000 6699066
0.190090 -0.210100 0.955000 5308735
0.190688 -0.205286 0.958000 8471873
0.191285 -0.200437 0.961000 7351094
0.192280 -0.195960 0.966000 9526329
0.192877 -0.191031 0.969000 8406076
0.193474 -0.186069 0.972000 6959416
0.193872 -0.180886 0.974000 6889269
0.217230 -0.299591 1.081000 9788255
0.215220 -0.290700 1.071000 9529713
0.212608 -0.281126 1.058000 9137520
0.208187 -0.269360 1.036000 8018779
0.204369 -0.258609 1.017000 6508372
0.203163 -0.251306 1.011000 7823452
0.199747 -0.241400 0.994000 6504521
0.194723 -0.229791 0.969000 8144969
0.192512 -0.221709 0.958000 7554635
0.191910 -0.215557 0.955000 6568757
0.191910 -0.210100 0.955000 5187640
0.192512 -0.205286 0.958000 8402240
0.193115 -0.200437 0.961000 7352113
0.194120 -0.195960 0.966000 9329460
0.194723 -0.191031 0.969000 8207665
0.195326 -0.186069 0.972000 5250611
0.195728 -0.180886 0.974000 5250088
0.220709 -0.301531 1.088000 9656159
0.217260 -0.290700 1.071000 9861242
0.214014 -0.280329 1.055000 9272705
0.209551 -0.268580 1.033000 8215390
0.206306 -0.258609 1.017000 7295572
0.204480 -0.250560 1.008000 7820890
0.202249 -0.242129 0.997000 6765634
0.196569 -0.229791 0.969000 7882821
0.194337 -0.221709 0.958000 7292488
0.193729 -0.215557 0.955000 6502192
0.193729 -0.210100 0.955000 5701937
0.194337 -0.205286 0.958000 8339519
0.195351 -0.200854 0.963000 7352364
0.195960 -0.195960 0.966000 8602415
0.196569 -0.191031 0.969000 7220774
0.197177 -0.186069 0.972000 5052973
0.197583 -0.180886 0.974000 5249564
0.222781 -0.301531 1.088000 9525855
0.219300 -0.290700 1.071000 10188902
0.216024 -0.280329 1.055000 9334376
0.210905 -0.267800 1.030000 8477020
0.208243 -0.258609 1.017000 8081488
0.205990 -0.250063 1.006000 7820116
0.203533 -0.241400 0.994000 7027785
0.198414 -0.229791 0.969000 7620681
0.196162 -0.221709 0.958000 6963786
0.195548 -0.215557 0.955000 6435375
0.195548 -0.210100 0.955000 6172462
0.196162 -0.205286 0.958000 8268337
0.197186 -0.200854 0.963000 7352358
0.197800 -0.195960 0.966000 7878192
0.198414 -0.191031 0.969000 6171426
0.199029 -0.186069 0.972000 4854815
0.224233 -0.300700 1.085000 9133151
0.221340 -0.290700 1.071000 9264465
0.218033 -0.280329 1.055000 9067854
0.212867 -0.267800 1.030000 8607321
0.209560 -0.257846 1.014000 8343116
0.207287 -0.249317 1.003000 7949389
0.204807 -0.240671 0.991000 7026768
0.201293 -0.230977 0.974000 7489356
0.197987 -0.221709 0.958000 6764365
0.197367 -0.215557 0.955000 6239022
0.197367 -0.210100 0.955000 7147819
0.197987 -0.205286 0.958000 8075042
0.199020 -0.200854 0.963000 7286305
0.199640 -0.195960 0.966000 7682097
0.200260 -0.191031 0.969000 6104094
0.201293 -0.186451 0.974000 5249553
0.226300 -0.300700 1.085000 8673882
0.224006 -0.291514 1.074000 8278865
0.220043 -0.280329 1.055000 8735822
0.215454 -0.268580 1.033000 8802901
0.211491 -0.257846 1.014000 8605004
0.209197 -0.249317 1.003000 8079951
0.206694 -0.240671 0.991000 7029330
0.203149 -0.230977 0.974000 7423054
0.199811 -0.221709 0.958000 6568776
0.199186 -0.215557 0.955000 6108466
0.199811 -0.210760 0.958000 8078906
0.200437 -0.205929 0.961000 7873051
0.200854 -0.200854 0.963000 7221288
0.201480 -0.195960 0.966000 7420971
0.202106 -0.191031 0.969000 6038307
0.203149 -0.186451 0.974000 5643804
0.228367 -0.300700 1.085000 8544085
0.226051 -0.291514 1.074000 7882321
0.222684 -0.281126 1.058000 8209741
0.218053 -0.269360 1.036000 8605264
0.212791 -0.257083 1.011000 8670285
0.211739 -0.250063 1.006000 8275537
0.208582 -0.240671 0.991000 7887444
0.205004 -0.230977 0.974000 7686223
0.201636 -0.221709 0.958000 6632004
0.201005 -0.215557 0.955000 6108213
0.201636 -0.210760 0.958000 8740682
0.201636 -0.205286 0.958000 7613972
0.202689 -0.200854 0.963000 7089968
0.203320 -0.195960 0.966000 6960676
0.203951 -0.191031 0.969000 5841449
0.205004 -0.186451 0.974000 5908007
0.229584 -0.299591 1.081000 8345939
0.228097 -0.291514 1.074000 7486028
0.224062 -0.280329 1.055000 7683656
0.220027 -0.269360 1.036000 8408397
0.215354 -0.257846 1.014000 8670025
0.213655 -0.250063 1.006000 8471885
0.211107 -0.241400 0.994000 8675170
0.206859 -0.230977 0.974000 7949131
0.203461 -0.221709 0.958000 6700101
0.202824 -0.215557 0.955000 6174264
0.203461 -0.210760 0.958000 9396041
0.204098 -0.205929 0.961000 7285269
0.204523 -0.200854 0.963000 6894134
0.205797 -0.196569 0.969000 6504223
0.205797 -0.191031 0.969000 5643807
0.207496 -0.187026 0.977000 6236709
0.231643 -0.299591 1.081000 8411729
0.230143 -0.291514 1.074000 7026758
0.226071 -0.280329 1.055000 7222852
0.221357 -0.268580 1.033000 8145226
0.217286 -0.257846 1.014000 8473157
0.215571 -0.250063 1.006000 9066825
0.212357 -0.240671 0.991000 8610416
0.208714 -0.230977 0.974000 8080967
0.205286 -0.221709 0.958000 6831174
0.204643 -0.215557 0.955000 6304571
0.205286 -0.210760 0.958000 9601608
0.205929 -0.205929 0.961000 7155221
0.207000 -0.201480 0.966000 7025469
0.207643 -0.196569 0.969000 5646618
0.207643 -0.191031 0.969000 5446933
0.208714 -0.186451 0.974000 5974563
0.233702 -0.299591 1.081000 8409174
0.231540 -0.290700 1.071000 6501688
0.229378 -0.281923 1.061000 6764609
0.223973 -0.269360 1.036000 7947341
0.218569 -0.257083 1.011000 8276809
0.217488 -0.250063 1.006000 9589356
0.214245 -0.240671 0.991000 8541534
0.210570 -0.230977 0.974000 8213061
0.207110 -0.221709 0.958000 6897993
0.206462 -0.215557 0.955000 6502459
0.207110 -0.210760 0.958000 9721675
0.207759 -0.205929 0.961000 7089947
0.208191 -0.200854 0.963000 7091255
0.209489 -0.196569 0.969000 4793381
0.210137 -0.191623 0.972000 5251103
0.210570 -0.186451 0.974000 5777956
0.235761 -0.299591 1.081000 9001564
0.232926 -0.289886 1.068000 6435881
0.230745 -0.281126 1.058000 6304831
0.226601 -0.270140 1.039000 7553103
0.221149 -0.257846 1.014000 8277069
0.219840 -0.250560 1.008000 9793679
0.216132 -0.240671 0.991000 7549259
0.212425 -0.230977 0.974000 8408131
0.209590 -0.222403 0.961000 7029325
0.208281 -0.215557 0.955000 6764602
0.208935 -0.210760 0.958000 8873037
0.209590 -0.205929 0.961000 7155232
0.210680 -0.201480 0.966000 6828593
0.211334 -0.196569 0.969000 5383727
0.211989 -0.191623 0.972000 5514793
0.212425 -0.186451 0.974000 5646373
0.237160 -0.298760 1.078000 9591391
0.234960 -0.289886 1.068000 6369078
0.232100 -0.280329 1.055000 5783880
0.228580 -0.270140 1.039000 7157335
0.223740 -0.258609 1.017000 8214609
0.221760 -0.250560 1.008000 9932155
0.218020 -0.240671 0.991000 6503247
0.213840 -0.230503 0.972000 8539206
0.211420 -0.222403 0.961000 7160395
0.210760 -0.216234 0.958000 7093310
0.210760 -0.210760 0.958000 8016972
0.211860 -0.206357 0.963000 7285789
0.212520 -0.201480 0.966000 6500398
0.213180 -0.196569 0.969000 5972785
0.213840 -0.191623 0.972000 5711394
0.214940 -0.187026 0.977000 5449515
0.239213 -0.298760 1.078000 9854563
0.236994 -0.289886 1.068000 7092803
0.234775 -0.281126 1.058000 7232082
0.229228 -0.268580 1.033000 7357534
0.225677 -0.258609 1.017000 8279382
0.223236 -0.250063 1.006000 9466214
0.219908 -0.240671 0.991000 6763603
0.215026 -0.229791 0.969000 8472649
0.213250 -0.222403 0.961000 7356232
0.212585 -0.216234 0.958000 7159362
0.213250 -0.211420 0.961000 8018762
0.213694 -0.206357 0.963000 7155738
0.214360 -0.201480 0.966000 6434092
0.215026 -0.196569 0.969000 5777203
0.216135 -0.192017 0.974000 5644315
0.216801 -0.187026 0.977000 5513521
0.241267 -0.298760 1.078000 10051172
0.239029 -0.289886 1.068000 7878730
0.237462 -0.281923 1.061000 8675683
0.231195 -0.268580 1.033000 7491421
0.228286 -0.259371 1.020000 8279126
0.225152 -0.250063 1.006000 8999511
0.221124 -0.239943 0.988000 6962768
0.216871 -0.229791 0.969000 8340812
0.215529 -0.222866 0.963000 7553353
0.214410 -0.216234 0.958000 7227459
0.215081 -0.211420 0.961000 8017481
0.216200 -0.207000 0.966000 7024422
0.216871 -0.202106 0.969000 6368297
0.217543 -0.197177 0.972000 5646133
0.217990 -0.192017 0.974000 5515566
0.218662 -0.187026 0.977000 5511726
0.243997 -0.299591 1.081000 9985893
0.241063 -0.289886 1.068000 8867408
0.239483 -0.281923 1.061000 8942197
0.233163 -0.268580 1.033000 8019804
0.229551 -0.258609 1.017000 8344406
0.227069 -0.250063 1.006000 8539464
0.223683 -0.240671 0.991000 7488589
0.218040 -0.229080 0.966000 8210254
0.216234 -0.221709 0.958000 7684169
0.215557 -0.215557 0.955000 7094339
0.216911 -0.211420 0.961000 8481096
0.217363 -0.206357 0.963000 6959666
0.218040 -0.201480 0.966000 5843238
0.218717 -0.196569 0.969000 6763318
0.219846 -0.192017 0.974000 7494466
0.219846 -0.186451 0.974000 7093802
0.245373 -0.298760 1.078000 9920105
0.243097 -0.289886 1.068000 9917528
0.241504 -0.281923 1.061000 9202285
0.235130 -0.268580 1.033000 8545882
0.230806 -0.257846 1.014000 8411226
0.228985 -0.250063 1.006000 8145996
0.224205 -0.239214 0.985000 7948366
0.219880 -0.229080 0.966000 8145487
0.218742 -0.222403 0.961000 7814984
0.217376 -0.215557 0.955000 6962493
0.218742 -0.211420 0.961000 8936277
0.219197 -0.206357 0.963000 6960177
0.219880 -0.201480 0.966000 5317924
0.221246 -0.197177 0.972000 7878723
0.221701 -0.192017 0.974000 9393981
0.222384 -0.187026 0.977000 8605755
0.246509 -0.297651 1.074000 9655916
0.244213 -0.288800 1.064000 10183263
0.242148 -0.280329 1.055000 9200997
0.237098 -0.268580 1.033000 8410455
0.232737 -0.257846 1.014000 8479582
0.230212 -0.249317 1.003000 8342607
0.226770 -0.239943 0.988000 8145743
0.221720 -0.229080 0.966000 7620687
0.220572 -0.222403 0.961000 7486534
0.219884 -0.216234 0.958000 6827574
0.221031 -0.211860 0.963000 8419682
0.221031 -0.206357 0.963000 6763311
0.222409 -0.202106 0.969000 5251362
0.223097 -0.197177 0.972000 8737103
0.223556 -0.192017 0.974000 8998201
0.224245 -0.187026 0.977000 8670027
0.247860 -0.296820 1.071000 9394288
0.246240 -0.288800 1.064000 10447203
0.244157 -0.280329 1.055000 9200226
0.238371 -0.267800 1.030000 8342337
0.234669 -0.257846 1.014000 8541527
0.232123 -0.249317 1.003000 8605011
0.227957 -0.239214 0.985000 8278093
0.223560 -0.229080 0.966000 7162193
0.222403 -0.222403 0.961000 7159871
0.221709 -0.216234 0.958000 6761510
0.222866 -0.211860 0.963000 7820384
0.223560 -0.207000 0.966000 6632499
0.224949 -0.202731 0.972000 5121336
0.225411 -0.197583 0.974000 9596236
0.226106 -0.192609 0.977000 8538431
0.226106 -0.187026 0.977000 8732235
0.249200 -0.295989 1.068000 9128821
0.248267 -0.288800 1.064000 10448742
0.246867 -0.281126 1.058000 9197662
0.239400 -0.266760 1.026000 7355434
0.236600 -0.257846 1.014000 8409681
0.234033 -0.249317 1.003000 8867414
0.229833 -0.239214 0.985000 9395020
0.225400 -0.229080 0.966000 6964306
0.224233 -0.222403 0.961000 7029817
0.224233 -0.216911 0.961000 7289365
0.224700 -0.211860 0.963000 7290718
0.225400 -0.207000 0.966000 6565942
0.226800 -0.202731 0.972000 6632015
0.227267 -0.197583 0.974000 9856841
0.227967 -0.192609 0.977000 8802886
0.227967 -0.187026 0.977000 9393482
0.251234 -0.295989 1.068000 8868971
0.250293 -0.288800 1.064000 10514802
0.248882 -0.281126 1.058000 9133659
0.242295 -0.267800 1.030000 6370358
0.237826 -0.257083 1.011000 8277598
0.235944 -0.249317 1.003000 9131353
0.232415 -0.239943 0.988000 10443348
0.226534 -0.228369 0.963000 6769003
0.226064 -0.222403 0.961000 6833727
0.226064 -0.216911 0.961000 7807018
0.226534 -0.211860 0.963000 6701151
0.227240 -0.207000 0.966000 6434621
0.228651 -0.202731 0.972000 8145480
0.229122 -0.197583 0.974000 10182741
0.229828 -0.192609 0.977000 9065548
0.230533 -0.187600 0.980000 10117961
0.252320 -0.288800 1.064000 10580094
0.250897 -0.281126 1.058000 9132377
0.244969 -0.268580 1.033000 7027266
0.239751 -0.257083 1.011000 8411756
0.237854 -0.249317 1.003000 9395803
0.235009 -0.240671 0.991000 10379357
0.228369 -0.228369 0.963000 7886467
0.227894 -0.222403 0.961000 7425094
0.228369 -0.217363 0.963000 8278078
0.229080 -0.212520 0.966000 6627681
0.229791 -0.207643 0.969000 7025732
0.230503 -0.202731 0.972000 9400386
0.230977 -0.197583 0.974000 10184545
0.232400 -0.193200 0.980000 9196883
0.233111 -0.188174 0.983000 9787975
0.255303 -0.295989 1.068000 9526635
0.254347 -0.288800 1.064000 10711150
0.248370 -0.276077 1.039000 9132123
0.246936 -0.268580 1.033000 7749715
0.241677 -0.257083 1.011000 8479078
0.239048 -0.248571 1.000000 9592413
0.236896 -0.240671 0.991000 10313307
0.230203 -0.228369 0.963000 9005695
0.230203 -0.222866 0.963000 7948617
0.230203 -0.217363 0.963000 8670530
0.230920 -0.212520 0.966000 6502757
0.231637 -0.207643 0.969000 7547710
0.232832 -0.203149 0.974000 10577483
0.233550 -0.198191 0.977000 10184798
0.234267 -0.193200 0.980000 9262416
0.234984 -0.188174 0.983000 9456202
0.256373 -0.294880 1.064000 9659253
0.256373 -0.288800 1.064000 10512222
0.249627 -0.275280 1.036000 8931933
0.248181 -0.267800 1.030000 8608611
0.243603 -0.257083 1.011000 8477536
0.241675 -0.249317 1.003000 9722462
0.238061 -0.239943 0.988000 10642521
0.232037 -0.228369 0.963000 9594747
0.232037 -0.222866 0.963000 8211020
0.232037 -0.217363 0.963000 8934981
0.232760 -0.212520 0.966000 6565482
0.234206 -0.208286 0.972000 8141623
0.234688 -0.203149 0.974000 10246485
0.235410 -0.198191 0.977000 10047322
0.236856 -0.193791 0.983000 9131598
0.257671 -0.294049 1.061000 9793401
0.257671 -0.287986 1.061000 10381157
0.252329 -0.276077 1.039000 8671074
0.250143 -0.267800 1.030000 9398370
0.245529 -0.257083 1.011000 8476768
0.242857 -0.248571 1.000000 9787227
0.239943 -0.239943 0.988000 10969947
0.234600 -0.229080 0.966000 10189687
0.233871 -0.222866 0.963000 8407627
0.234600 -0.218040 0.966000 9259909
0.235329 -0.213180 0.969000 6634842
0.236057 -0.208286 0.972000 8663354
0.237271 -0.203774 0.977000 9851989
0.238000 -0.198800 0.980000 9975625
0.238729 -0.193791 0.983000 8999759
0.259692 -0.294049 1.061000 10190206
0.259692 -0.287986 1.061000 10116204
0.254308 -0.276077 1.039000 8799591
0.251126 -0.266760 1.026000 9464673
0.248189 -0.257846 1.014000 8146272
0.245496 -0.249317 1.003000 9919064
0.241090 -0.239214 0.985000 10839389
0.236440 -0.229080 0.966000 9723763
0.236440 -0.223560 0.966000 8541001
0.236440 -0.218040 0.966000 8874437
0.237909 -0.213840 0.972000 6434123
0.238398 -0.208714 0.974000 8600637
0.239132 -0.203774 0.977000 9851989
0.239867 -0.198800 0.980000 9914424
0.241090 -0.194186 0.985000 8735057
0.261713 -0.294049 1.061000 10517381
0.261713 -0.287986 1.061000 9850970
0.260233 -0.280329 1.055000 8871018
0.254067 -0.267800 1.030000 9530728
0.249380 -0.257083 1.011000 7818582
0.246667 -0.248571 1.000000 10114388
0.243707 -0.239943 0.988000 10708319
0.239020 -0.229791 0.969000 9331050
0.238280 -0.223560 0.966000 8605000
0.239760 -0.219394 0.972000 8564410
0.240253 -0.214280 0.974000 6236485
0.240253 -0.208714 0.974000 8466755
0.241733 -0.204400 0.980000 9853013
0.242473 -0.199409 0.983000 9850168
0.242967 -0.194186 0.985000 8472399
0.263734 -0.294049 1.061000 10980749
0.262989 -0.287171 1.058000 9785671
0.259757 -0.277671 1.045000 9724268
0.255034 -0.266760 1.026000 9792623
0.251306 -0.257083 1.011000 8603469
0.249317 -0.249317 1.003000 10114896
0.245589 -0.239943 0.988000 10773601
0.240866 -0.229791 0.969000 9395040
0.240866 -0.224254 0.969000 8276551
0.242109 -0.219846 0.974000 8749230
0.242854 -0.214940 0.977000 6895167
0.243600 -0.210000 0.980000 8073801
0.244346 -0.205026 0.983000 10313812
0.244843 -0.199814 0.985000 9919544
0.245589 -0.194777 0.988000 8998222
0.265004 -0.287171 1.058000 9782350
0.261748 -0.277671 1.045000 10578537
0.256989 -0.266760 1.026000 10053996
0.253231 -0.257083 1.011000 9327443
0.251979 -0.250063 1.006000 10113879
0.244715 -0.237271 0.977000 10840174
0.243463 -0.230503 0.972000 9458265
0.243463 -0.224949 0.972000 7883344
0.243964 -0.219846 0.974000 8881839
0.244715 -0.214940 0.977000 7551040
0.246218 -0.210643 0.983000 7681864
0.246719 -0.205443 0.985000 10773081
0.246719 -0.199814 0.985000 9986632
0.248222 -0.195369 0.991000 9524818
0.266262 -0.286357 1.055000 9852757
0.263738 -0.277671 1.045000 10514023
0.258943 -0.266760 1.026000 10185832
0.255157 -0.257083 1.011000 9656666
0.253895 -0.250063 1.006000 10245726
0.246576 -0.237271 0.977000 11431292
0.245819 -0.230977 0.974000 9327697
0.245314 -0.224949 0.972000 8210265
0.246576 -0.220523 0.977000 9007536
0.247333 -0.215600 0.980000 7749441
0.248090 -0.210643 0.983000 8603207
0.249352 -0.206069 0.988000 10383198
0.249352 -0.200423 0.988000 9459288
0.250867 -0.195960 0.994000 9987159
0.268271 -0.286357 1.055000 9983581
0.265729 -0.277671 1.045000 10447715
0.260897 -0.266760 1.026000 10384497
0.257083 -0.257083 1.011000 9984606
0.255811 -0.250063 1.006000 10376286
0.249200 -0.238000 0.980000 11956590
0.247674 -0.230977 0.974000 9195353
0.247674 -0.225411 0.974000 8474994
0.248437 -0.220523 0.977000 9075820
0.249963 -0.216260 0.983000 7881286
0.251234 -0.211714 0.988000 9455182
0.251234 -0.206069 0.988000 9988438
0.252760 -0.201640 0.994000 8867147
0.265413 -0.275280 1.036000 10381920
0.263876 -0.267800 1.030000 10645625
0.259009 -0.257083 1.011000 10050658
0.256190 -0.248571 1.000000 10378078
0.251067 -0.238000 0.980000 11629663
0.250298 -0.231689 0.977000 9131361
0.250298 -0.226106 0.977000 9065099
0.251067 -0.221200 0.980000 8474407
0.251835 -0.216260 0.983000 8079692
0.253885 -0.212357 0.991000 9721428
0.254653 -0.207320 0.994000 9722958
0.255422 -0.202249 0.997000 9393982
0.267387 -0.275280 1.036000 10314073
0.265838 -0.267800 1.030000 10975344
0.261709 -0.257846 1.014000 10115936
0.258095 -0.248571 1.000000 10377570
0.252933 -0.238000 0.980000 11297631
0.252159 -0.231689 0.977000 9132640
0.252159 -0.226106 0.977000 9664895
0.252933 -0.221200 0.980000 7930165
0.254998 -0.217360 0.988000 8211024
0.256547 -0.213000 0.994000 10049363
0.257321 -0.207946 0.997000 9395540
0.258095 -0.202857 1.000000 9853259
0.269360 -0.275280 1.036000 10180435
0.266760 -0.266760 1.026000 10579559
0.262860 -0.257083 1.011000 9919838
0.260000 -0.248571 1.000000 10378342
0.254800 -0.238000 0.980000 10508383
0.254020 -0.231689 0.977000 8738654
0.254800 -0.226800 0.980000 9934196
0.256100 -0.222329 0.985000 7549251
0.258440 -0.218680 0.994000 8144725
0.259220 -0.213643 0.997000 9525074
0.260000 -0.208571 1.000000 9526106
0.260780 -0.203466 1.003000 9722200
0.267929 -0.265980 1.023000 10185308
0.264786 -0.257083 1.011000 9722716
0.261905 -0.248571 1.000000 10442080
0.257452 -0.238729 0.983000 9658213
0.256667 -0.232400 0.980000 8345447
0.257976 -0.227957 0.985000 10186350
0.259548 -0.223683 0.991000 7227468
0.260333 -0.218680 0.994000 8014928
0.261119 -0.213643 0.997000 9066576
0.261905 -0.208571 1.000000 9590869
0.263476 -0.204074 1.006000 9591640
0.268294 -0.264420 1.017000 9525585
0.266711 -0.257083 1.011000 9393243
0.263018 -0.247826 0.997000 9984345
0.259852 -0.239214 0.985000 9592684
0.259325 -0.233111 0.983000 8279663
0.259852 -0.227957 0.985000 9070952
0.261435 -0.223683 0.991000 7488596
0.263018 -0.219340 0.997000 8606796
0.263810 -0.214286 1.000000 9000270
0.264601 -0.209197 1.003000 9524561
0.270231 -0.264420 1.017000 8867155
0.268637 -0.257083 1.011000 9064783
0.264917 -0.247826 0.997000 9526103
0.262526 -0.239943 0.988000 9526893
0.261729 -0.233586 0.985000 8279150
0.262526 -0.228651 0.988000 7953254
0.263323 -0.223683 0.991000 7748966
0.264917 -0.219340 0.997000 9133414
0.265714 -0.214286 1.000000 8934508
0.267309 -0.209823 1.006000 9398386
0.272169 -0.264420 1.017000 8275285
0.270563 -0.257083 1.011000 8407620
0.266816 -0.247826 0.997000 9196628
0.264408 -0.239943 0.988000 9396846
0.264408 -0.234297 0.988000 8280685
0.264408 -0.228651 0.988000 8673635
0.266013 -0.224360 0.994000 9265015
0.266816 -0.219340 0.997000 10318465
0.267619 -0.214286 1.000000 10516361
0.269760 -0.210240 1.008000 11046036
0.271680 -0.256320 1.008000 7747930
0.268715 -0.247826 0.997000 8868738
0.267098 -0.240671 0.991000 9270152
0.266290 -0.234297 0.988000 8346245
0.266290 -0.228651 0.988000 9400703
0.267907 -0.224360 0.994000 10849680
0.268715 -0.219340 0.997000 11505301
0.271680 -0.210240 1.008000 12621210
0.271429 -0.254286 1.000000 8270705
0.270614 -0.247826 0.997000 9862575
0.269800 -0.241400 0.994000 9273507
0.268171 -0.234297 0.988000 10256028
0.268171 -0.228651 0.988000 11047579
0.269800 -0.224360 0.994000 11770536
0.273333 -0.254286 1.000000 8747151
0.272513 -0.247826 0.997000 10917798
0.270873 -0.240671 0.991000 9208992
0.270053 -0.234297 0.988000 12228762
0.270873 -0.229346 0.991000 12620952
0.271693 -0.224360 0.994000 12754083
0.274412 -0.247826 0.997000 11770525
0.272761 -0.240671 0.991000 11180702
0.276311 -0.247826 0.997000 12621981
0.085591 -0.243001 1.033000 13279648
0.085591 -0.237098 1.033000 13150106
0.086089 -0.232538 1.039000 12556178
0.087305 -0.242295 1.030000 12096911
0.087559 -0.237098 1.033000 11766659
0.088068 -0.232538 1.039000 11176315
0.087813 -0.225947 1.036000 10450791
0.090827 -0.276472 1.048000 11835027
0.090567 -0.269710 1.045000 9132398
0.088400 -0.251600 1.020000 7752794
0.088400 -0.245771 1.020000 8397902
0.089267 -0.242295 1.030000 10905963
0.089527 -0.237098 1.033000 10378080
0.089787 -0.231867 1.036000 9723227
0.089527 -0.225292 1.033000 9128780
0.089787 -0.220027 1.036000 8213321
0.090307 -0.215347 1.042000 7556929
0.092823 -0.276472 1.048000 11237761
0.092557 -0.269710 1.045000 9258060
0.090874 -0.258943 1.026000 8996161
0.090343 -0.251600 1.020000 8146505
0.090343 -0.245771 1.020000 8074563
0.090609 -0.240649 1.023000 9391174
0.091229 -0.236410 1.030000 9195068
0.091229 -0.230524 1.030000 8666171
0.091229 -0.224638 1.030000 7814705
0.091760 -0.220027 1.036000 7093043
0.092291 -0.215347 1.042000 6830378
0.094819 -0.276472 1.048000 10646657
0.094548 -0.269710 1.045000 9326938
0.093190 -0.259952 1.030000 8933711
0.092286 -0.251600 1.020000 8473675
0.091743 -0.244326 1.014000 7753284
0.092286 -0.239943 1.020000 7816779
0.092286 -0.234114 1.020000 8081732
0.092829 -0.229629 1.026000 7555388
0.092829 -0.223766 1.026000 6505018
0.093190 -0.218752 1.030000 5913654
0.093733 -0.214107 1.036000 6042162
0.096815 -0.276472 1.048000 10643841
0.096538 -0.269710 1.045000 9920872
0.094783 -0.258943 1.026000 9327708
0.093951 -0.250860 1.017000 8209742
0.093397 -0.243603 1.011000 7883845
0.093674 -0.238531 1.014000 7881040
0.093674 -0.232737 1.014000 8081996
0.094229 -0.228286 1.020000 7426365
0.094229 -0.222457 1.020000 6570307
0.094783 -0.217903 1.026000 5848120
0.095430 -0.213487 1.033000 5780793
0.099189 -0.277528 1.052000 10708373
0.098811 -0.270484 1.048000 10515064
0.096737 -0.258943 1.026000 9787237
0.095889 -0.250860 1.017000 7949391
0.095323 -0.243603 1.011000 8079689
0.095323 -0.237826 1.011000 7883335
0.095323 -0.232049 1.011000 8146759
0.095606 -0.226943 1.014000 7293243
0.095889 -0.221803 1.017000 6634556
0.096454 -0.217266 1.023000 5780528
0.096737 -0.212040 1.026000 5518657
0.101192 -0.277528 1.052000 11308201
0.100808 -0.270484 1.048000 10318729
0.099076 -0.259952 1.030000 9855597
0.097537 -0.250120 1.014000 9064529
0.096960 -0.242880 1.008000 7948108
0.096960 -0.237120 1.008000 7883838
0.096960 -0.231360 1.008000 7555138
0.097249 -0.226271 1.011000 6896442
0.097537 -0.221149 1.014000 6372405
0.098114 -0.216629 1.020000 5579561
0.098403 -0.211420 1.023000 5584456
0.098403 -0.205574 1.023000 5973792
0.103785 -0.279110 1.058000 11971244
0.102804 -0.270484 1.048000 10056076
0.101038 -0.259952 1.030000 9921387
0.099174 -0.249380 1.011000 10114128
0.098684 -0.242398 1.006000 7882058
0.098684 -0.236650 1.006000 7883585
0.098880 -0.231360 1.008000 6967375
0.098880 -0.225600 1.008000 6435893
0.099174 -0.220494 1.011000 6174771
0.099763 -0.215991 1.017000 5383978
0.100057 -0.210800 1.020000 5651260
0.100057 -0.204971 1.020000 5908517
0.105800 -0.279110 1.058000 11770286
0.104800 -0.270484 1.048000 9991568
0.103000 -0.259952 1.030000 9724009
0.101100 -0.249380 1.011000 10444112
0.100600 -0.242398 1.006000 8078664
0.100300 -0.235944 1.003000 8014917
0.100600 -0.230901 1.006000 6965596
0.100800 -0.225600 1.008000 5975599
0.100800 -0.219840 1.008000 5976368
0.101400 -0.215354 1.014000 5317931
0.101700 -0.210180 1.017000 5716015
0.102000 -0.204971 1.020000 5645611
0.107815 -0.279110 1.058000 11566765
0.106796 -0.270484 1.048000 9854570
0.104962 -0.259952 1.030000 9524320
0.102720 -0.248640 1.008000 10771792
0.102516 -0.242398 1.006000 8275016
0.101599 -0.234532 0.997000 8079425
0.102210 -0.230212 1.003000 6966859
0.102210 -0.224481 1.003000 5514288
0.102516 -0.219404 1.006000 5842733
0.103026 -0.214717 1.011000 5187110
0.103637 -0.210180 1.017000 5782060
0.103637 -0.204369 1.017000 5319219
0.111491 -0.289469 1.074000 13285541
0.110142 -0.279902 1.061000 10382507
0.108792 -0.270484 1.048000 8796228
0.106509 -0.258943 1.026000 8931159
0.104640 -0.248640 1.008000 10510416
0.103810 -0.240952 1.000000 8407111
0.103187 -0.233827 0.994000 7947581
0.103810 -0.229524 1.000000 7096122
0.103810 -0.223810 1.000000 5118257
0.104121 -0.218750 1.003000 5514537
0.104432 -0.213655 1.006000 4923681
0.104951 -0.208940 1.011000 5582633
0.104951 -0.203163 1.011000 5712955
0.114277 -0.297532 1.081000 12226968
0.113960 -0.290547 1.078000 13281199
0.112163 -0.279902 1.061000 9192828
0.110471 -0.269710 1.045000 7747906
0.108463 -0.258943 1.026000 8340304
0.107194 -0.250120 1.014000 10245711
0.105397 -0.240230 0.997000 8538692
0.104763 -0.233121 0.991000 7749178
0.105397 -0.228835 0.997000 7225654
0.105397 -0.223138 0.997000 4662839
0.105714 -0.218095 1.000000 5252389
0.106031 -0.213018 1.003000 4661020
0.106560 -0.208320 1.008000 5382435
0.106560 -0.202560 1.008000 6041392
0.106877 -0.197386 1.011000 6235931
0.116336 -0.297532 1.081000 12226194
0.116013 -0.290547 1.078000 12955321
0.114184 -0.279902 1.061000 8340300
0.112462 -0.269710 1.045000 7220031
0.110417 -0.258943 1.026000 8076360
0.109126 -0.250120 1.014000 10182734
0.106973 -0.239507 0.994000 8472896
0.106650 -0.233121 0.991000 7486520
0.106973 -0.228147 0.994000 7159601
0.107296 -0.223138 0.997000 4921662
0.107296 -0.217441 0.997000 5251617
0.107619 -0.212381 1.000000 4856856
0.108265 -0.207907 1.006000 5448476
0.108480 -0.202560 1.008000 6104357
0.108480 -0.196800 1.008000 6235164
0.118067 -0.296707 1.078000 12289429
0.118067 -0.290547 1.078000 12557226
0.116533 -0.280693 1.064000 7485508
0.114452 -0.269710 1.045000 6638448
0.111714 -0.257429 1.020000 7879269
0.111057 -0.250120 1.014000 10048842
0.108210 -0.238061 0.988000 8409409
0.108210 -0.232415 0.988000 7222071
0.108867 -0.228147 0.994000 7157044
0.108867 -0.222467 0.994000 5189691
0.109195 -0.217441 0.997000 5185571
0.109524 -0.212381 1.000000 4988701
0.109852 -0.207287 1.003000 5515039
0.110181 -0.202158 1.006000 6104353
0.110400 -0.196800 1.008000 6234651
0.120900 -0.298633 1.085000 12356504
0.120454 -0.291355 1.081000 11375260
0.119006 -0.281749 1.068000 8473660
0.116777 -0.270484 1.048000 9413025
0.113657 -0.257429 1.020000 8740481
0.112989 -0.250120 1.014000 9589318
0.109757 -0.237338 0.985000 8342594
0.109757 -0.231710 0.985000 6959413
0.110091 -0.226770 0.988000 6828598
0.110760 -0.222467 0.994000 5586488
0.110760 -0.216787 0.994000 5382693
0.111094 -0.211744 0.997000 5251619
0.111429 -0.206667 1.000000 5580065
0.111763 -0.201555 1.003000 6039325
0.112320 -0.196800 1.008000 6104090
0.123647 -0.300285 1.091000 12486039
0.122967 -0.292433 1.085000 10185861
0.121040 -0.281749 1.068000 9459321
0.119227 -0.271516 1.052000 12096914
0.115600 -0.257429 1.020000 9600379
0.114920 -0.250120 1.014000 9062740
0.111633 -0.237338 0.985000 8344643
0.111633 -0.231710 0.985000 6697268
0.111633 -0.226081 0.985000 6499123
0.112313 -0.221795 0.991000 5978934
0.112653 -0.216787 0.994000 5644839
0.112653 -0.211107 0.994000 5514275
0.112993 -0.206047 0.997000 5711648
0.113673 -0.201555 1.003000 5973786
0.114013 -0.196410 1.006000 6038044
0.126186 -0.307643 1.095000 12358812
0.125725 -0.300285 1.091000 12291734
0.124572 -0.291355 1.081000 9325933
0.123074 -0.281749 1.068000 10127030
0.120424 -0.269710 1.045000 10972292
0.117889 -0.258186 1.023000 9925749
0.116851 -0.250120 1.014000 8470370
0.113510 -0.237338 0.985000 8277571
0.113510 -0.231710 0.985000 6565684
0.113510 -0.226081 0.985000 6303279
0.113855 -0.221124 0.988000 6178867
0.114201 -0.216132 0.991000 5841705
0.114547 -0.211107 0.994000 5646116
0.114892 -0.206047 0.997000 5645854
0.115238 -0.200952 1.000000 5777175
0.115930 -0.196410 1.006000 5973278
0.128271 -0.307643 1.095000 12161177
0.127803 -0.300285 1.091000 12165312
0.126631 -0.291355 1.081000 8412028
0.125109 -0.281749 1.068000 10854049
0.122766 -0.270484 1.048000 9856628
0.119837 -0.258186 1.023000 10254193
0.118783 -0.250120 1.014000 7819880
0.116089 -0.238784 0.991000 8212042
0.115151 -0.231239 0.983000 6434872
0.115151 -0.225622 0.983000 6172719
0.115386 -0.220452 0.985000 6373420
0.116089 -0.216132 0.991000 6037800
0.116440 -0.211107 0.994000 5711394
0.116440 -0.205427 0.994000 5580570
0.116791 -0.200350 0.997000 5514259
0.117494 -0.195824 1.003000 5908251
0.130357 -0.307643 1.095000 12029847
0.129881 -0.300285 1.091000 12099562
0.129167 -0.292433 1.085000 9330570
0.127857 -0.283331 1.074000 9793676
0.124048 -0.268935 1.042000 10709859
0.121429 -0.257429 1.020000 10318700
0.120714 -0.250120 1.014000 8147566
0.117976 -0.238784 0.991000 8211281
0.117024 -0.231239 0.983000 6041148
0.117024 -0.225622 0.983000 6041135
0.117262 -0.220452 0.985000 6769956
0.117262 -0.214824 0.985000 5775654
0.117619 -0.209832 0.988000 5710625
0.117976 -0.204807 0.991000 5382933
0.118333 -0.199747 0.994000 4528654
0.119048 -0.195238 1.000000 5842711
0.131959 -0.306519 1.091000 11898264
0.131959 -0.300285 1.091000 12039403
0.131233 -0.292433 1.085000 10251660
0.128693 -0.280693 1.064000 8730233
0.126395 -0.269710 1.045000 11495011
0.123371 -0.257429 1.020000 10380905
0.122646 -0.250120 1.014000 8479606
0.120227 -0.239507 0.994000 8211539
0.118896 -0.231239 0.983000 5582391
0.118896 -0.225622 0.983000 5909807
0.118896 -0.220005 0.983000 7094326
0.119138 -0.214824 0.985000 5579306
0.119501 -0.209832 0.988000 5644832
0.119864 -0.204807 0.991000 5120538
0.120227 -0.199747 0.994000 3481111
0.120590 -0.194652 0.997000 5776674
0.134037 -0.306519 1.091000 11831962
0.133669 -0.299459 1.088000 11772139
0.133300 -0.292433 1.085000 10454925
0.130351 -0.279902 1.061000 8538214
0.128386 -0.269710 1.045000 11103076
0.125683 -0.258186 1.023000 10448230
0.124577 -0.250120 1.014000 8546943
0.122120 -0.239507 0.994000 8210772
0.120769 -0.231239 0.983000 5581106
0.120400 -0.224933 0.980000 5843759
0.120769 -0.220005 0.983000 6571848
0.120769 -0.214388 0.983000 5711405
0.121014 -0.209195 0.985000 5579039
0.121383 -0.204187 0.988000 5317150
0.121751 -0.199144 0.991000 4597023
0.122120 -0.194067 0.994000 5842221
0.135741 -0.299459 1.088000 11511259
0.135367 -0.292433 1.085000 10648206
0.133246 -0.281749 1.068000 8280926
0.130376 -0.269710 1.045000 10641243
0.127631 -0.258186 1.023000 10578790
0.126509 -0.250120 1.014000 8548220
0.124013 -0.239507 0.994000 8144719
0.122641 -0.231239 0.983000 5583161
0.122267 -0.224933 0.980000 5712944
0.122267 -0.219333 0.980000 5977141
0.122641 -0.214388 0.983000 5908011
0.122890 -0.209195 0.985000 5447968
0.123265 -0.204187 0.988000 5579039
0.123639 -0.199144 0.991000 5645854
0.124013 -0.194067 0.994000 5842470
0.137813 -0.299459 1.088000 11439819
0.136927 -0.291355 1.081000 10847631
0.134773 -0.280693 1.064000 9463382
0.131987 -0.268935 1.042000 10248274
0.129580 -0.258186 1.023000 10119269
0.127680 -0.248640 1.008000 9600120
0.125527 -0.238784 0.991000 8144458
0.124513 -0.231239 0.983000 5910337
0.123753 -0.224245 0.977000 5712688
0.123753 -0.218662 0.977000 5380387
0.123753 -0.213079 0.977000 5843497
0.124133 -0.208133 0.980000 5448225
0.124513 -0.203153 0.983000 5578783
0.124767 -0.197938 0.985000 5777438
0.125527 -0.193481 0.991000 5907743
0.125907 -0.188387 0.994000 5053721
0.139500 -0.298633 1.085000 11439028
0.138600 -0.290547 1.078000 10976909
0.136414 -0.279902 1.061000 10582114
0.133971 -0.268935 1.042000 9853781
0.131143 -0.257429 1.020000 9726828
0.129343 -0.248147 1.006000 10581114
0.127414 -0.238784 0.991000 8077890
0.126000 -0.230533 0.980000 6240838
0.125229 -0.223556 0.974000 5777970
0.125229 -0.217990 0.974000 4793897
0.125614 -0.213079 0.977000 5842217
0.126000 -0.208133 0.980000 5382178
0.126386 -0.203153 0.983000 5643807
0.126386 -0.197536 0.983000 5842205
0.127029 -0.192895 0.988000 6038302
0.127414 -0.187818 0.991000 4987930
0.141567 -0.298633 1.085000 11307165
0.140653 -0.290547 1.078000 10780043
0.138044 -0.279110 1.058000 10645870
0.135956 -0.268935 1.042000 9394009
0.133086 -0.257429 1.020000 9792115
0.131520 -0.248640 1.008000 10848379
0.129302 -0.238784 0.991000 8142906
0.128258 -0.231239 0.983000 6832203
0.127084 -0.223556 0.974000 5975091
0.126823 -0.217543 0.972000 5317424
0.127084 -0.212425 0.974000 6108968
0.127867 -0.208133 0.980000 5381923
0.127867 -0.202533 0.980000 5644063
0.128258 -0.197536 0.983000 5841949
0.128910 -0.192895 0.988000 5907485
0.129302 -0.187818 0.991000 4921884
0.144030 -0.299459 1.088000 11241363
0.142707 -0.290547 1.078000 10516361
0.139662 -0.278319 1.055000 10646886
0.137941 -0.268935 1.042000 8936281
0.135029 -0.257429 1.020000 9859941
0.133440 -0.248640 1.008000 11041656
0.131587 -0.239507 0.994000 8205105
0.130130 -0.231239 0.983000 7423313
0.128674 -0.223097 0.972000 6237493
0.128674 -0.217543 0.972000 5777448
0.128939 -0.212425 0.974000 6439721
0.129336 -0.207496 0.977000 5316124
0.129733 -0.202533 0.980000 5578780
0.130130 -0.197536 0.983000 5841951
0.130395 -0.192310 0.985000 5841950
0.130792 -0.187250 0.988000 4856604
0.146103 -0.299459 1.088000 11042952
0.144760 -0.290547 1.078000 10447239
0.142074 -0.279110 1.058000 10514013
0.139523 -0.268161 1.039000 9723737
0.136971 -0.257429 1.020000 9529175
0.135360 -0.248640 1.008000 11042932
0.133077 -0.238784 0.991000 8404775
0.132003 -0.231239 0.983000 8015959
0.130526 -0.223097 0.972000 6237495
0.130123 -0.216871 0.969000 5908513
0.130526 -0.211989 0.972000 6307370
0.130794 -0.206859 0.974000 5381653
0.131600 -0.202533 0.980000 5578777
0.132003 -0.197536 0.983000 5841953
0.132271 -0.192310 0.985000 5841950
0.132674 -0.187250 0.988000 4790812
0.147767 -0.298633 1.085000 10909582
0.146813 -0.290547 1.078000 10315389
0.144090 -0.279110 1.058000 10447715
0.141502 -0.268161 1.039000 10512220
0.138914 -0.257429 1.020000 9267799
0.137008 -0.248147 1.006000 11042428
0.134965 -0.238784 0.991000 8530997
0.133875 -0.231239 0.983000 8605009
0.131969 -0.222409 0.969000 6236984
0.131969 -0.216871 0.969000 5974313
0.132377 -0.211989 0.972000 6180910
0.132650 -0.206859 0.974000 5381916
0.133467 -0.202533 0.980000 5579545
0.133467 -0.196933 0.980000 5841695
0.133875 -0.191919 0.983000 5906975
0.134148 -0.186681 0.985000 4725277
0.152595 -0.310452 1.105000 11831954
0.150662 -0.300285 1.091000 10386580
0.148867 -0.290547 1.078000 9393011
0.146105 -0.279110 1.058000 9985641
0.143481 -0.268161 1.039000 10118239
0.140857 -0.257429 1.020000 9198422
0.138924 -0.248147 1.006000 11113604
0.136438 -0.238061 0.988000 8602179
0.135333 -0.230533 0.980000 8605260
0.133814 -0.222409 0.969000 6106168
0.133814 -0.216871 0.969000 6105650
0.134229 -0.211989 0.972000 6177585
0.134229 -0.206434 0.972000 5382692
0.134919 -0.201913 0.977000 5579288
0.135333 -0.196933 0.980000 5776413
0.135748 -0.191919 0.983000 5643807
0.135748 -0.186302 0.983000 4725278
0.154280 -0.309610 1.102000 11897489
0.152740 -0.300285 1.091000 9864343
0.150920 -0.290547 1.078000 8475503
0.147700 -0.278319 1.055000 9524836
0.145460 -0.268161 1.039000 9656927
0.143220 -0.258186 1.023000 9196109
0.140840 -0.248147 1.006000 11173500
0.137900 -0.237338 0.985000 8597067
0.137200 -0.230533 0.980000 8605004
0.135660 -0.222409 0.969000 6040120
0.135660 -0.216871 0.969000 6236977
0.136080 -0.211989 0.972000 6179910
0.136080 -0.206434 0.972000 5382439
0.136780 -0.201913 0.977000 5644835
0.137200 -0.196933 0.980000 5710878
0.137200 -0.191333 0.980000 5380640
