# .PCD v.7 - Point Cloud Data file format
VERSION .7
FIELDS x y z rgb
SIZE 4 4 4 4
TYPE F F F I
COUNT 1 1 1 1
WIDTH 1331
HEIGHT 1
POINTS 1331
DATA ascii
0.185538 0.051319 0.829000 7098942
0.185986 0.056191 0.831000 8871262
0.186881 0.061233 0.835000 8341575
0.187776 0.066321 0.839000 6305848
0.196597 -0.055578 0.871000 11033431
0.195694 -0.050369 0.867000 11757152
0.195243 -0.045310 0.865000 11761266
0.195243 -0.040367 0.865000 9590335
0.194566 -0.035301 0.862000 8471375
0.193663 -0.030234 0.858000 8605002
0.193211 -0.025272 0.856000 8736855
0.192309 -0.020286 0.852000 7749454
0.191857 -0.015381 0.850000 8539982
0.191406 -0.010499 0.848000 7684940
0.190729 -0.005633 0.845000 8078152
0.189826 -0.000801 0.841000 9261392
0.188923 0.003986 0.837000 10115152
0.188471 0.008748 0.835000 10311505
0.187569 0.013454 0.831000 10245710
0.187117 0.018159 0.829000 9983320
0.185763 0.022730 0.823000 9982530
0.185763 0.027433 0.823000 10051926
0.184860 0.031980 0.819000 9460587
0.184409 0.036570 0.817000 7816792
0.183957 0.041138 0.815000 6635584
0.184409 0.045908 0.817000 6897728
0.186214 0.051071 0.825000 7226677
0.187117 0.056056 0.829000 8478312
0.188471 0.061233 0.835000 8211012
0.188923 0.066163 0.837000 6241345
0.190729 0.071624 0.845000 6437945
0.198256 -0.055578 0.871000 11165012
0.197801 -0.050485 0.869000 11954012
0.196890 -0.045310 0.865000 11888992
0.196890 -0.040367 0.865000 8928069
0.196208 -0.035301 0.862000 8340292
0.195752 -0.030305 0.860000 8604991
0.194842 -0.025272 0.856000 8605009
0.193931 -0.020286 0.852000 9063754
0.193476 -0.015381 0.850000 8737102
0.193021 -0.010499 0.848000 7816526
0.191883 -0.005620 0.843000 8341324
0.190972 -0.000799 0.839000 9589841
0.190517 0.003986 0.837000 10114895
0.190062 0.008748 0.835000 10376784
0.189151 0.013454 0.831000 10312794
0.188696 0.018159 0.829000 10049115
0.187786 0.022786 0.825000 9786952
0.187330 0.027433 0.823000 9851218
0.186420 0.031980 0.819000 9725793
0.185510 0.036481 0.815000 7683674
0.185510 0.041138 0.815000 7094077
0.185965 0.045908 0.817000 6896706
0.187786 0.051071 0.825000 7293758
0.188696 0.056056 0.829000 8151371
0.189151 0.060940 0.831000 8081233
0.190062 0.066005 0.835000 6175809
0.191428 0.071285 0.841000 6372665
0.199915 -0.055578 0.871000 11230290
0.199456 -0.050485 0.869000 11890520
0.198997 -0.045414 0.867000 10703438
0.198538 -0.040367 0.865000 8864842
0.197850 -0.035301 0.862000 7879738
0.197390 -0.030305 0.860000 8339251
0.196472 -0.025272 0.856000 9129547
0.195095 -0.020238 0.850000 9392965
0.194636 -0.015345 0.848000 8737358
0.194636 -0.010499 0.848000 8013391
0.193948 -0.005633 0.845000 8472657
0.192570 -0.000799 0.839000 9721169
0.192111 0.003986 0.837000 9851982
0.191652 0.008748 0.835000 10311502
0.190734 0.013454 0.831000 10183527
0.190275 0.018159 0.829000 10184030
0.188898 0.022730 0.823000 9918799
0.188898 0.027433 0.823000 9720398
0.187980 0.031980 0.819000 9463894
0.187062 0.036481 0.815000 7687771
0.187062 0.041138 0.815000 7093818
0.187062 0.045795 0.815000 7094851
0.187521 0.050576 0.817000 7491399
0.189816 0.055921 0.827000 8148526
0.190734 0.060940 0.831000 8278878
0.191193 0.065847 0.833000 6700609
0.192570 0.071115 0.839000 6503992
0.202037 -0.060694 0.873000 10376515
0.201574 -0.055578 0.871000 11296339
0.201111 -0.050485 0.869000 11827813
0.200186 -0.045310 0.865000 9458754
0.200186 -0.040367 0.865000 8866112
0.199491 -0.035301 0.862000 7417921
0.199029 -0.030305 0.860000 8145011
0.198103 -0.025272 0.856000 9599629
0.196714 -0.020238 0.850000 9728645
0.196251 -0.015345 0.848000 8671332
0.196251 -0.010499 0.848000 8210254
0.195557 -0.005633 0.845000 8605262
0.194169 -0.000799 0.839000 9852492
0.193706 0.003986 0.837000 9588809
0.193243 0.008748 0.835000 10180685
0.192317 0.013454 0.831000 9987685
0.191854 0.018159 0.829000 10317663
0.190929 0.022786 0.825000 9984338
0.190466 0.027433 0.823000 9589071
0.189540 0.031980 0.819000 9197393
0.188614 0.036481 0.815000 7691095
0.188614 0.041138 0.815000 7093575
0.188383 0.045739 0.814000 7292995
0.188383 0.050390 0.814000 7687496
0.190466 0.055650 0.823000 8144701
0.191854 0.060793 0.829000 8480086
0.192317 0.065689 0.831000 7159607
0.193706 0.070946 0.837000 6634809
0.203700 -0.060694 0.873000 10507592
0.203233 -0.055578 0.871000 11295829
0.202767 -0.050485 0.869000 10905201
0.201833 -0.045310 0.865000 9457462
0.201833 -0.040367 0.865000 8140085
0.201133 -0.035301 0.862000 8924999
0.200667 -0.030305 0.860000 10455219
0.199733 -0.025272 0.856000 10791375
0.198333 -0.020238 0.850000 11442885
0.197867 -0.015345 0.848000 9657978
0.197167 -0.010462 0.845000 8275021
0.197167 -0.005633 0.845000 9131083
0.195767 -0.000799 0.839000 9720391
0.195300 0.003986 0.837000 8602949
0.194367 0.008727 0.833000 10245964
0.193900 0.013454 0.831000 9528676
0.192967 0.018115 0.827000 10448479
0.192033 0.022730 0.823000 10115670
0.192033 0.027433 0.823000 9589840
0.191100 0.031980 0.819000 8866380
0.190167 0.036481 0.815000 7755346
0.189933 0.041088 0.814000 7420756
0.189933 0.045739 0.814000 7948867
0.189933 0.050390 0.814000 8014922
0.190633 0.055245 0.817000 8146508
0.192967 0.060647 0.827000 8682831
0.193900 0.065689 0.831000 7356973
0.195300 0.070946 0.837000 6831161
0.196233 0.076090 0.841000 7159886
0.205363 -0.060694 0.873000 10703696
0.204892 -0.055578 0.871000 11231832
0.204422 -0.050485 0.869000 9982788
0.203951 -0.045414 0.867000 9456960
0.203481 -0.040367 0.865000 7412520
0.202775 -0.035301 0.862000 10383487
0.202305 -0.030305 0.860000 12820397
0.201364 -0.025272 0.856000 11904451
0.199952 -0.020238 0.850000 13151678
0.199482 -0.015345 0.848000 10584229
0.199482 -0.010499 0.848000 8275024
0.198776 -0.005633 0.845000 9655634
0.197835 -0.000801 0.841000 9590613
0.196894 0.003986 0.837000 7619661
0.196424 0.008748 0.835000 10246993
0.195483 0.013454 0.831000 9071460
0.194542 0.018115 0.827000 10646138
0.193601 0.022730 0.823000 10246742
0.193601 0.027433 0.823000 9589840
0.193130 0.032058 0.821000 8538701
0.191719 0.036481 0.815000 7884622
0.191484 0.041088 0.814000 7687508
0.191484 0.045739 0.814000 8604493
0.191013 0.050267 0.812000 8343878
0.191719 0.055110 0.815000 8147017
0.193601 0.060353 0.823000 8873815
0.194542 0.065372 0.827000 7553108
0.196424 0.070776 0.835000 7027770
0.197835 0.076090 0.841000 7884620
0.207500 -0.065833 0.875000 9980763
0.207026 -0.060694 0.873000 10901848
0.206551 -0.055578 0.871000 10643546
0.206077 -0.050485 0.869000 9386263
0.205603 -0.045414 0.867000 9064522
0.205129 -0.040367 0.865000 8602650
0.204417 -0.035301 0.862000 10591414
0.203943 -0.030305 0.860000 12098982
0.202520 -0.025213 0.854000 11506359
0.201571 -0.020238 0.850000 12625334
0.201097 -0.015345 0.848000 10984145
0.200386 -0.010462 0.845000 9329747
0.200386 -0.005633 0.845000 9852249
0.199437 -0.000801 0.841000 9984098
0.198489 0.003986 0.837000 8999765
0.198014 0.008748 0.835000 10509654
0.197066 0.013454 0.831000 9463396
0.196117 0.018115 0.827000 10582932
0.195169 0.022730 0.823000 10312791
0.195169 0.027433 0.823000 9590352
0.194694 0.032058 0.821000 8342095
0.193746 0.036570 0.817000 7489353
0.193034 0.041088 0.814000 7887444
0.192560 0.045627 0.812000 8802134
0.192086 0.050143 0.810000 9393731
0.193271 0.055110 0.815000 8277829
0.194694 0.060207 0.821000 8148064
0.195169 0.065056 0.823000 8019067
0.196591 0.070268 0.829000 6568507
0.198963 0.075910 0.839000 8674378
0.209167 -0.065833 0.875000 10047054
0.208689 -0.060694 0.873000 11164759
0.208210 -0.055578 0.871000 9984854
0.207732 -0.050485 0.869000 8789806
0.207254 -0.045414 0.867000 8666692
0.206776 -0.040367 0.865000 9856366
0.206059 -0.035301 0.862000 10787496
0.205581 -0.030305 0.860000 11309473
0.204147 -0.025213 0.854000 11048885
0.203190 -0.020238 0.850000 12031410
0.202712 -0.015345 0.848000 11377343
0.201995 -0.010462 0.845000 10318740
0.201517 -0.005620 0.843000 10048082
0.201039 -0.000801 0.841000 10377819
0.200083 0.003986 0.837000 10377813
0.199605 0.008748 0.835000 10707541
0.198649 0.013454 0.831000 9854824
0.197692 0.018115 0.827000 10587784
0.196736 0.022730 0.823000 10378587
0.196736 0.027433 0.823000 9590607
0.196258 0.032058 0.821000 8079439
0.194824 0.036481 0.815000 7158338
0.194585 0.041088 0.814000 8084051
0.194107 0.045627 0.812000 8999769
0.193629 0.050143 0.810000 10377028
0.194585 0.055042 0.814000 8408392
0.195780 0.060060 0.819000 7361102
0.196736 0.065056 0.823000 8550273
0.197692 0.070098 0.827000 6043197
0.199605 0.075548 0.835000 9462343
0.210833 -0.065833 0.875000 10112833
0.210351 -0.060694 0.873000 11099733
0.209870 -0.055578 0.871000 9588306
0.209388 -0.050485 0.869000 8732485
0.208906 -0.045414 0.867000 8006206
0.208424 -0.040367 0.865000 10850241
0.207701 -0.035301 0.862000 10847386
0.206737 -0.030234 0.858000 11111067
0.205773 -0.025213 0.854000 11178419
0.204810 -0.020238 0.850000 11834541
0.204328 -0.015345 0.848000 11305389
0.203605 -0.010462 0.845000 11044820
0.203123 -0.005620 0.843000 9916491
0.202159 -0.000799 0.839000 10377300
0.201677 0.003986 0.837000 10510933
0.201195 0.008748 0.835000 10904915
0.200231 0.013454 0.831000 9459820
0.199268 0.018115 0.827000 10518140
0.198304 0.022730 0.823000 10511199
0.198304 0.027433 0.823000 9655886
0.197822 0.032058 0.821000 8013904
0.196376 0.036481 0.815000 7158843
0.196135 0.041088 0.814000 8215634
0.195653 0.045627 0.812000 9131867
0.194690 0.050019 0.808000 10114885
0.195653 0.054907 0.812000 8408394
0.196376 0.059767 0.815000 7622460
0.197822 0.064898 0.821000 8614023
0.199268 0.070098 0.827000 6435647
0.200231 0.075186 0.831000 9329219
0.212500 -0.065833 0.875000 10113091
0.212014 -0.060694 0.873000 11034967
0.212014 -0.055706 0.873000 9194830
0.211529 -0.050601 0.871000 8670789
0.210557 -0.045414 0.867000 7360599
0.210071 -0.040367 0.865000 11777214
0.209343 -0.035301 0.862000 10847896
0.208371 -0.030234 0.858000 10980248
0.207400 -0.025213 0.854000 11245742
0.206429 -0.020238 0.850000 11633557
0.205943 -0.015345 0.848000 11243941
0.205214 -0.010462 0.845000 11832001
0.204729 -0.005620 0.843000 9788001
0.203757 -0.000799 0.839000 10311507
0.203271 0.003986 0.837000 10637636
0.202786 0.008748 0.835000 11167065
0.201814 0.013454 0.831000 9068910
0.200843 0.018115 0.827000 10451332
0.199871 0.022730 0.823000 10576216
0.199386 0.027367 0.821000 9656653
0.199386 0.032058 0.821000 7881806
0.197929 0.036481 0.815000 7225407
0.197686 0.041088 0.814000 8343886
0.196714 0.045514 0.810000 9329773
0.196229 0.050019 0.808000 9786441
0.196714 0.054771 0.810000 8408136
0.197686 0.059693 0.814000 7818550
0.198900 0.064740 0.819000 8681048
0.199871 0.069759 0.823000 6833488
0.201329 0.075005 0.829000 9196612
0.203271 0.080511 0.837000 8344914
0.214901 -0.071076 0.878000 10447189
0.214167 -0.065833 0.875000 9982278
0.213677 -0.060694 0.873000 10508888
0.213188 -0.055578 0.871000 9259594
0.212698 -0.050485 0.869000 8275013
0.211719 -0.045310 0.865000 9403504
0.211719 -0.040367 0.865000 11249338
0.210985 -0.035301 0.862000 11048343
0.210006 -0.030234 0.858000 10846612
0.209027 -0.025213 0.854000 11244969
0.208048 -0.020238 0.850000 11501436
0.207558 -0.015345 0.848000 11242909
0.206824 -0.010462 0.845000 11899821
0.206334 -0.005620 0.843000 9721463
0.205355 -0.000799 0.839000 9522001
0.204866 0.003986 0.837000 8134451
0.204866 0.008769 0.837000 11299167
0.203397 0.013454 0.831000 9526896
0.202418 0.018115 0.827000 10712971
0.201439 0.022730 0.823000 10706258
0.201439 0.027433 0.823000 9393740
0.200950 0.032058 0.821000 7684940
0.199970 0.036570 0.817000 7225667
0.199236 0.041088 0.814000 8276553
0.198257 0.045514 0.810000 9462655
0.197768 0.050019 0.808000 8670798
0.197768 0.054636 0.808000 7553605
0.198747 0.059547 0.812000 7490864
0.199970 0.064582 0.817000 8479529
0.201439 0.069759 0.823000 7360353
0.202418 0.074824 0.827000 8669764
0.204376 0.080319 0.835000 9066587
0.216573 -0.071076 0.878000 10045776
0.215833 -0.065833 0.875000 9786211
0.215833 -0.060833 0.875000 10049636
0.214847 -0.055578 0.871000 9259592
0.214353 -0.050485 0.869000 7946294
0.213367 -0.045310 0.865000 11437703
0.213367 -0.040367 0.865000 10659776
0.212627 -0.035301 0.862000 11173770
0.211640 -0.030234 0.858000 10716022
0.210653 -0.025213 0.854000 11242629
0.210160 -0.020286 0.852000 11366265
0.209173 -0.015345 0.848000 11241861
0.208433 -0.010462 0.845000 12028329
0.207447 -0.005607 0.841000 9596036
0.206953 -0.000799 0.839000 8669009
0.206460 0.003986 0.837000 5582400
0.205967 0.008748 0.835000 11496027
0.204980 0.013454 0.831000 9921132
0.203993 0.018115 0.827000 10975358
0.203007 0.022730 0.823000 10841965
0.202513 0.027367 0.821000 9131594
0.202513 0.032058 0.821000 7488329
0.201527 0.036570 0.817000 7226180
0.200787 0.041088 0.814000 8145996
0.200293 0.045627 0.812000 9597031
0.199307 0.050019 0.808000 7554640
0.198813 0.054501 0.806000 6766402
0.199307 0.059253 0.808000 7095354
0.200787 0.064345 0.814000 8273723
0.202513 0.069590 0.821000 7824491
0.203500 0.074643 0.825000 8140094
0.205473 0.080127 0.833000 9726048
0.218246 -0.071076 0.878000 9719114
0.218246 -0.066059 0.878000 10704768
0.217500 -0.060833 0.875000 10048624
0.217003 -0.055706 0.873000 9194565
0.216009 -0.050485 0.869000 8400935
0.215014 -0.045310 0.865000 11643294
0.215014 -0.040367 0.865000 10918085
0.214269 -0.035301 0.862000 11440766
0.213274 -0.030234 0.858000 10052440
0.212280 -0.025213 0.854000 10122082
0.211783 -0.020286 0.852000 11633526
0.210789 -0.015345 0.848000 11436652
0.210043 -0.010462 0.845000 11570085
0.209049 -0.005607 0.841000 10714770
0.208551 -0.000799 0.839000 8997968
0.208054 0.003986 0.837000 7027534
0.207557 0.008748 0.835000 11496278
0.206563 0.013454 0.831000 9984872
0.205569 0.018115 0.827000 10976113
0.204574 0.022730 0.823000 11050121
0.204077 0.027367 0.821000 8735815
0.204077 0.032058 0.821000 7488327
0.202586 0.036481 0.815000 7423045
0.202586 0.041138 0.815000 8408654
0.201840 0.045627 0.812000 9331278
0.200349 0.049895 0.806000 7223890
0.199851 0.054366 0.804000 6635071
0.200349 0.059107 0.806000 6635587
0.201343 0.064029 0.810000 7819084
0.203580 0.069420 0.819000 9534582
0.205071 0.074643 0.825000 8208440
0.206563 0.079934 0.831000 10318438
0.220419 -0.071238 0.880000 9387588
0.219918 -0.066059 0.878000 11634044
0.219167 -0.060833 0.875000 10041722
0.218666 -0.055706 0.873000 9061957
0.217664 -0.050485 0.869000 8924716
0.216662 -0.045310 0.865000 11836833
0.215910 -0.040227 0.862000 11119795
0.215910 -0.035301 0.862000 11629429
0.214408 -0.030164 0.856000 9457497
0.213907 -0.025213 0.854000 8931143
0.213406 -0.020286 0.852000 11898233
0.212404 -0.015345 0.848000 11565164
0.211652 -0.010462 0.845000 11180172
0.210650 -0.005607 0.841000 11763864
0.210150 -0.000799 0.839000 9392719
0.209649 0.003986 0.837000 8475217
0.208146 0.008706 0.831000 11560786
0.208146 0.013454 0.831000 10052191
0.207144 0.018115 0.827000 10912139
0.206142 0.022730 0.823000 11240315
0.205641 0.027367 0.821000 8339781
0.205140 0.031980 0.819000 7488328
0.204138 0.036481 0.815000 7685959
0.203888 0.041088 0.814000 8671309
0.203387 0.045627 0.812000 9065810
0.201884 0.049895 0.806000 6901078
0.201383 0.054366 0.804000 6504006
0.201383 0.058960 0.804000 6112330
0.202385 0.063870 0.808000 7295823
0.205140 0.069420 0.819000 11172979
0.206142 0.074462 0.823000 8203826
0.207645 0.079742 0.829000 10842463
0.222095 -0.071238 0.880000 9323581
0.221590 -0.066059 0.878000 11972983
0.220833 -0.060833 0.875000 9853315
0.220329 -0.055706 0.873000 8931653
0.219319 -0.050485 0.869000 9460529
0.218310 -0.045310 0.865000 11969443
0.217552 -0.040227 0.862000 10782881
0.217552 -0.035301 0.862000 10970477
0.216038 -0.030164 0.856000 8931929
0.215533 -0.025213 0.854000 8454700
0.215029 -0.020286 0.852000 11565692
0.214019 -0.015345 0.848000 11299179
0.213262 -0.010462 0.845000 11238259
0.212252 -0.005607 0.841000 11964574
0.211748 -0.000799 0.839000 10181454
0.211243 0.003986 0.837000 9791061
0.209729 0.008706 0.831000 11232334
0.209224 0.013422 0.829000 10313047
0.208719 0.018115 0.827000 11112613
0.207710 0.022730 0.823000 10840942
0.207205 0.027367 0.821000 8076355
0.206700 0.031980 0.819000 7947337
0.205690 0.036481 0.815000 7620425
0.205438 0.041088 0.814000 8672076
0.204933 0.045627 0.812000 8342869
0.203419 0.049895 0.806000 7034458
0.203419 0.054501 0.806000 6503756
0.202914 0.058960 0.804000 7161425
0.203419 0.063712 0.806000 7820369
0.205438 0.068996 0.814000 11049839
0.207710 0.074462 0.823000 8471851
0.208719 0.079550 0.827000 10841945
0.210233 0.084887 0.833000 10184016
0.223263 -0.071076 0.878000 9260092
0.223263 -0.066059 0.878000 12294286
0.222500 -0.060833 0.875000 9663627
0.221991 -0.055706 0.873000 8799036
0.220974 -0.050485 0.869000 9986422
0.219957 -0.045310 0.865000 12097419
0.219194 -0.040227 0.862000 10454913
0.219194 -0.035301 0.862000 10249578
0.218177 -0.030234 0.858000 8407880
0.217160 -0.025213 0.854000 7948096
0.216651 -0.020286 0.852000 11170671
0.215634 -0.015345 0.848000 10971239
0.214871 -0.010462 0.845000 11365992
0.213854 -0.005607 0.841000 12157580
0.213346 -0.000799 0.839000 10967899
0.212837 0.003986 0.837000 11034963
0.211311 0.008706 0.831000 10902864
0.210803 0.013422 0.829000 10575448
0.210294 0.018115 0.827000 11312799
0.209277 0.022730 0.823000 10379616
0.208769 0.027367 0.821000 7812427
0.208260 0.031980 0.819000 8340551
0.207243 0.036481 0.815000 7621193
0.206989 0.041088 0.814000 8671820
0.206480 0.045627 0.812000 7620176
0.204954 0.049895 0.806000 7099213
0.204954 0.054501 0.806000 6503759
0.204446 0.058960 0.804000 8146254
0.204954 0.063712 0.806000 8279381
0.206480 0.068827 0.812000 10909549
0.208260 0.074100 0.819000 8730197
0.209786 0.079357 0.825000 10841428
0.211311 0.084683 0.831000 10118997
0.224935 -0.071076 0.878000 9981242
0.224935 -0.066059 0.878000 12167334
0.224167 -0.060833 0.875000 9532051
0.223142 -0.055578 0.871000 8337972
0.222630 -0.050485 0.869000 10059962
0.221605 -0.045310 0.865000 11241331
0.220836 -0.040227 0.862000 10845025
0.220324 -0.035219 0.860000 10444390
0.219299 -0.030164 0.856000 8077366
0.218787 -0.025213 0.854000 9660501
0.218274 -0.020286 0.852000 11301473
0.217250 -0.015345 0.848000 10578018
0.216481 -0.010462 0.845000 11763037
0.215456 -0.005607 0.841000 10575994
0.214944 -0.000799 0.839000 10972264
0.214431 0.003986 0.837000 10639953
0.212894 0.008706 0.831000 10639442
0.212382 0.013422 0.829000 10376794
0.211870 0.018115 0.827000 11110809
0.210845 0.022730 0.823000 10179411
0.210332 0.027367 0.821000 7749203
0.209820 0.031980 0.819000 8078405
0.208795 0.036481 0.815000 7949129
0.208539 0.041088 0.814000 8934220
0.208027 0.045627 0.812000 7095627
0.206490 0.049895 0.806000 7099200
0.206490 0.054501 0.806000 6965074
0.205465 0.058813 0.802000 9133387
0.205977 0.063554 0.804000 8738137
0.207514 0.068657 0.810000 9722731
0.208795 0.073738 0.815000 9133438
0.210332 0.078972 0.821000 11038542
0.212382 0.084479 0.829000 9855577
0.226608 -0.071076 0.878000 10636884
0.226608 -0.066059 0.878000 11961498
0.225833 -0.060833 0.875000 9403771
0.225317 -0.055706 0.873000 7811129
0.224285 -0.050485 0.869000 10140606
0.223252 -0.045310 0.865000 10313081
0.222478 -0.040227 0.862000 11236707
0.221962 -0.035219 0.860000 10580850
0.221446 -0.030234 0.858000 7679301
0.220930 -0.025272 0.856000 11298646
0.219897 -0.020286 0.852000 11498336
0.218865 -0.015345 0.848000 10119266
0.218090 -0.010462 0.845000 12158045
0.217058 -0.005607 0.841000 9005922
0.216542 -0.000799 0.839000 10906726
0.216026 0.003986 0.837000 10180434
0.214993 0.008727 0.833000 10376273
0.213961 0.013422 0.829000 10179930
0.213445 0.018115 0.827000 10982301
0.212412 0.022730 0.823000 9917525
0.211896 0.027367 0.821000 7684690
0.211380 0.031980 0.819000 7750981
0.210348 0.036481 0.815000 8277581
0.210090 0.041088 0.814000 9130575
0.209573 0.045627 0.812000 6635852
0.208025 0.049895 0.806000 7096904
0.208025 0.054501 0.806000 7424340
0.206992 0.058813 0.802000 10050127
0.207509 0.063554 0.804000 9132120
0.208541 0.068488 0.808000 8478045
0.210348 0.073738 0.815000 9535903
0.211896 0.078972 0.821000 11165756
0.213445 0.084275 0.827000 9657671
0.228280 -0.071076 0.878000 11300717
0.228280 -0.066059 0.878000 10443662
0.226980 -0.060694 0.873000 9329507
0.226980 -0.055706 0.873000 7023422
0.226460 -0.050601 0.871000 10520001
0.224900 -0.045310 0.865000 10972287
0.224120 -0.040227 0.862000 11235173
0.223600 -0.035219 0.860000 11108734
0.223080 -0.030234 0.858000 9001044
0.222560 -0.025272 0.856000 10904150
0.221520 -0.020286 0.852000 11235934
0.220480 -0.015345 0.848000 9460834
0.219180 -0.010437 0.843000 12026205
0.218660 -0.005607 0.841000 9134411
0.218140 -0.000799 0.839000 10314595
0.217620 0.003986 0.837000 9851986
0.216580 0.008727 0.833000 10114127
0.215540 0.013422 0.829000 9523802
0.215020 0.018115 0.827000 11047328
0.213980 0.022730 0.823000 9588311
0.213460 0.027367 0.821000 7620176
0.212940 0.031980 0.819000 7684678
0.211900 0.036481 0.815000 8408912
0.211640 0.041088 0.814000 8672593
0.211120 0.045627 0.812000 6898508
0.209560 0.049895 0.806000 7030609
0.209040 0.054366 0.804000 8345942
0.208520 0.058813 0.802000 9985364
0.208520 0.063396 0.802000 9395031
0.209560 0.068318 0.806000 8737104
0.211640 0.073648 0.814000 9925823
0.212940 0.078780 0.819000 10248491
0.215020 0.084275 0.827000 9788981
0.231000 -0.076440 0.882000 9197659
0.229952 -0.071076 0.878000 12025223
0.229952 -0.066059 0.878000 8940958
0.228643 -0.060694 0.873000 9256015
0.228643 -0.055706 0.873000 6171470
0.227595 -0.050485 0.869000 10986679
0.227071 -0.045414 0.867000 11561594
0.225762 -0.040227 0.862000 11233897
0.225238 -0.035219 0.860000 11632246
0.224714 -0.030234 0.858000 10254191
0.224190 -0.025272 0.856000 10511187
0.223143 -0.020286 0.852000 11039591
0.222095 -0.015345 0.848000 8733771
0.220786 -0.010437 0.843000 11828572
0.220262 -0.005607 0.841000 9201759
0.219738 -0.000799 0.839000 9659742
0.219214 0.003986 0.837000 9523793
0.218167 0.008727 0.833000 9917519
0.217643 0.013454 0.831000 8868951
0.216595 0.018115 0.827000 11180960
0.215548 0.022730 0.823000 9259096
0.215024 0.027367 0.821000 7555153
0.214500 0.031980 0.819000 7619404
0.213452 0.036481 0.815000 8605777
0.213190 0.041088 0.814000 8213074
0.212143 0.045514 0.810000 7095631
0.211095 0.049895 0.806000 6965328
0.210571 0.054366 0.804000 9201246
0.209524 0.058667 0.800000 9920086
0.209524 0.063238 0.800000 9657690
0.210571 0.068149 0.804000 8934735
0.212667 0.073467 0.812000 10249893
0.214500 0.078780 0.819000 9325382
0.216071 0.084071 0.825000 9920318
0.217643 0.089431 0.831000 9790037
0.232680 -0.076440 0.882000 9193302
0.232152 -0.071238 0.880000 12749984
0.231625 -0.066059 0.878000 9460653
0.230306 -0.060694 0.873000 8732986
0.230306 -0.055706 0.873000 7012703
0.229778 -0.050601 0.871000 11437997
0.228723 -0.045414 0.867000 11435380
0.227404 -0.040227 0.862000 11169900
0.226876 -0.035219 0.860000 11698031
0.226349 -0.030234 0.858000 10188426
0.225821 -0.025272 0.856000 10380368
0.224766 -0.020286 0.852000 10316911
0.223710 -0.015345 0.848000 7995701
0.222391 -0.010437 0.843000 11828827
0.221864 -0.005607 0.841000 9730931
0.221336 -0.000799 0.839000 9065305
0.220809 0.003986 0.837000 9392464
0.219753 0.008727 0.833000 9786702
0.219226 0.013454 0.831000 9130068
0.218170 0.018115 0.827000 10850464
0.217115 0.022730 0.823000 8734553
0.216588 0.027367 0.821000 7489873
0.216060 0.031980 0.819000 7422802
0.215005 0.036481 0.815000 8673361
0.214741 0.041088 0.814000 8147539
0.213686 0.045514 0.810000 7359058
0.212630 0.049895 0.806000 7555152
0.212103 0.054366 0.804000 9331557
0.211048 0.058667 0.800000 10116953
0.211048 0.063238 0.800000 9855069
0.211575 0.067979 0.802000 9197903
0.214213 0.073467 0.812000 10451594
0.215005 0.078395 0.815000 8008545
0.217115 0.083868 0.823000 10052679
0.219226 0.089431 0.831000 10051404
0.234360 -0.076440 0.882000 9193559
0.233829 -0.071238 0.880000 13482447
0.233297 -0.066059 0.878000 9926815
0.231969 -0.060694 0.873000 8205887
0.231969 -0.055706 0.873000 7821164
0.231437 -0.050601 0.871000 11892094
0.230374 -0.045414 0.867000 11303278
0.229046 -0.040227 0.862000 11103301
0.228514 -0.035219 0.860000 11698801
0.227983 -0.030234 0.858000 10192260
0.227451 -0.025272 0.856000 10245194
0.226389 -0.020286 0.852000 9532006
0.225326 -0.015345 0.848000 7220020
0.224529 -0.010462 0.845000 11829349
0.223466 -0.005607 0.841000 10250861
0.222934 -0.000799 0.839000 8541532
0.221871 0.003976 0.835000 9196367
0.221340 0.008727 0.833000 9721166
0.220809 0.013454 0.831000 9392732
0.219746 0.018115 0.827000 10529950
0.219214 0.022786 0.825000 8210267
0.218151 0.027367 0.821000 7358547
0.217620 0.031980 0.819000 7160659
0.216557 0.036481 0.815000 8746121
0.215760 0.040987 0.812000 8015966
0.215229 0.045514 0.810000 7622743
0.214166 0.049895 0.806000 8080470
0.213634 0.054366 0.804000 9398627
0.212571 0.058667 0.800000 10248284
0.212571 0.063238 0.800000 10052959
0.213103 0.067979 0.802000 9460307
0.215229 0.073286 0.810000 10654569
0.216557 0.078395 0.815000 6638192
0.218151 0.083664 0.821000 10249552
0.220277 0.089216 0.829000 10314062
0.236040 -0.076440 0.882000 9324889
0.235505 -0.071238 0.880000 13284350
0.234970 -0.066059 0.878000 9862546
0.233631 -0.060694 0.873000 7681859
0.233631 -0.055706 0.873000 9865081
0.233096 -0.050601 0.871000 11301966
0.232026 -0.045414 0.867000 11368552
0.230688 -0.040227 0.862000 10509597
0.230152 -0.035219 0.860000 11568243
0.229617 -0.030234 0.858000 10189182
0.229082 -0.025272 0.856000 9650244
0.228011 -0.020286 0.852000 9331037
0.226941 -0.015345 0.848000 7353650
0.225603 -0.010437 0.843000 11961198
0.224532 -0.005593 0.839000 9594983
0.223997 -0.000797 0.837000 8340830
0.223462 0.003976 0.835000 8934221
0.222927 0.008727 0.833000 9721166
0.222391 0.013454 0.831000 9065060
0.221321 0.018115 0.827000 10854044
0.220250 0.022730 0.823000 7948637
0.219715 0.027367 0.821000 7424596
0.219180 0.031980 0.819000 7224148
0.218110 0.036481 0.815000 10195392
0.217842 0.041088 0.814000 8015209
0.216771 0.045514 0.810000 7885147
0.215701 0.049895 0.806000 8343388
0.215701 0.054501 0.806000 9659488
0.214095 0.058667 0.800000 10313311
0.213560 0.063080 0.798000 10511969
0.214095 0.067810 0.800000 9461079
0.216236 0.073105 0.808000 10515015
0.217842 0.078299 0.814000 7160703
0.219180 0.083460 0.819000 9656152
0.221856 0.089216 0.829000 10447441
0.237720 -0.076440 0.882000 9456734
0.237181 -0.071238 0.880000 13097982
0.236642 -0.066059 0.878000 9788552
0.235294 -0.060694 0.873000 7224392
0.235294 -0.055706 0.873000 11895423
0.234755 -0.050601 0.871000 10769476
0.233677 -0.045414 0.867000 11434088
0.232330 -0.040227 0.862000 9981990
0.232330 -0.035301 0.862000 11436400
0.230712 -0.030164 0.856000 10190716
0.230173 -0.025213 0.854000 8997199
0.229634 -0.020286 0.852000 9135450
0.228556 -0.015345 0.848000 7491398
0.227748 -0.010462 0.845000 12026720
0.226670 -0.005607 0.841000 8868956
0.225591 -0.000797 0.837000 8143189
0.225052 0.003976 0.835000 8606040
0.224513 0.008727 0.833000 9655633
0.223974 0.013454 0.831000 8739935
0.222896 0.018115 0.827000 11119531
0.221818 0.022730 0.823000 7686240
0.221279 0.027367 0.821000 7556178
0.220740 0.031980 0.819000 7294294
0.219392 0.036436 0.814000 11710896
0.218853 0.040987 0.812000 8018023
0.218314 0.045514 0.810000 8147806
0.217236 0.049895 0.806000 8542558
0.216697 0.054366 0.804000 9986399
0.215619 0.058667 0.800000 10379363
0.215080 0.063080 0.798000 11037030
0.215619 0.067810 0.800000 9396579
0.215619 0.072381 0.800000 10309452
0.218853 0.078107 0.812000 7629948
0.220740 0.083460 0.819000 9062219
0.222896 0.089001 0.827000 10514002
0.239400 -0.076440 0.882000 9916003
0.238857 -0.071238 0.880000 12696062
0.238314 -0.066059 0.878000 9725567
0.236957 -0.060694 0.873000 7156556
0.236957 -0.055706 0.873000 12694404
0.235871 -0.050485 0.869000 10442810
0.235329 -0.045414 0.867000 11499623
0.233971 -0.040227 0.862000 9918767
0.233429 -0.035219 0.860000 11373421
0.232886 -0.030234 0.858000 10121593
0.232343 -0.025272 0.856000 8998490
0.231257 -0.020286 0.852000 9066071
0.230171 -0.015345 0.848000 8807258
0.229357 -0.010462 0.845000 11696978
0.228271 -0.005607 0.841000 7948881
0.227186 -0.000797 0.837000 8340556
0.226643 0.003976 0.835000 8669284
0.226100 0.008727 0.833000 9721684
0.225557 0.013454 0.831000 8801369
0.224471 0.018115 0.827000 10919866
0.223386 0.022730 0.823000 7358308
0.222843 0.027367 0.821000 7490383
0.222300 0.031980 0.819000 7686233
0.221214 0.036481 0.815000 11509664
0.220400 0.040987 0.812000 8476006
0.219857 0.045514 0.810000 9003105
0.218771 0.049895 0.806000 9528416
0.218229 0.054366 0.804000 10117982
0.217143 0.058667 0.800000 10312296
0.216600 0.063080 0.798000 11564395
0.216600 0.067640 0.798000 9593967
0.217143 0.072381 0.800000 10315088
0.219314 0.077722 0.808000 9602169
0.221757 0.083256 0.817000 8602685
0.224471 0.089001 0.827000 10845779
0.241080 -0.076440 0.882000 10378354
0.240533 -0.071238 0.880000 12305113
0.240533 -0.066210 0.880000 9594231
0.238620 -0.060694 0.873000 7092033
0.238620 -0.055706 0.873000 13408404
0.238073 -0.050601 0.871000 10180435
0.236980 -0.045414 0.867000 11499116
0.235613 -0.040227 0.862000 9852752
0.235067 -0.035219 0.860000 11305840
0.233973 -0.030164 0.856000 10125438
0.233427 -0.025213 0.854000 8937819
0.232880 -0.020286 0.852000 8929393
0.231787 -0.015345 0.848000 10051658
0.230967 -0.010462 0.845000 11432540
0.229873 -0.005607 0.841000 7027261
0.228780 -0.000797 0.837000 8605012
0.228233 0.003976 0.835000 8739694
0.227140 0.008706 0.831000 9721687
0.227140 0.013454 0.831000 8801128
0.226047 0.018115 0.827000 10790810
0.224953 0.022730 0.823000 7030131
0.224407 0.027367 0.821000 7490383
0.223860 0.031980 0.819000 8016480
0.222493 0.036436 0.814000 11317430
0.221947 0.040987 0.812000 8937842
0.220853 0.045402 0.808000 9922403
0.220307 0.049895 0.806000 10446948
0.219760 0.054366 0.804000 10248036
0.218667 0.058667 0.800000 10251648
0.218120 0.063080 0.798000 12088173
0.218120 0.067640 0.798000 9795446
0.218120 0.072200 0.798000 10313039
0.220853 0.077722 0.808000 11571331
0.222767 0.083052 0.815000 8207936
0.225500 0.088786 0.825000 11171922
0.242760 -0.076440 0.882000 10573696
0.242210 -0.071238 0.880000 12163251
0.242210 -0.066210 0.880000 9268079
0.240283 -0.060694 0.873000 7219766
0.240283 -0.055706 0.873000 13742755
0.239182 -0.050485 0.869000 10840683
0.238631 -0.045414 0.867000 11367536
0.237255 -0.040227 0.862000 10645361
0.236705 -0.035219 0.860000 11504499
0.235604 -0.030164 0.856000 10386051
0.235053 -0.025213 0.854000 10119260
0.233952 -0.020238 0.850000 9396619
0.233402 -0.015345 0.848000 9524282
0.232576 -0.010462 0.845000 10448485
0.232026 -0.005620 0.843000 5839656
0.230374 -0.000797 0.837000 9201500
0.229824 0.003976 0.835000 8604025
0.228723 0.008706 0.831000 9985370
0.228723 0.013454 0.831000 9120887
0.227622 0.018115 0.827000 10384505
0.226521 0.022730 0.823000 8738434
0.225970 0.027367 0.821000 8478030
0.225420 0.031980 0.819000 8476262
0.224044 0.036436 0.814000 11842764
0.223493 0.040987 0.812000 9263743
0.222943 0.045514 0.810000 10054245
0.221842 0.049895 0.806000 10646121
0.221291 0.054366 0.804000 11759721
0.220190 0.058667 0.800000 11504792
0.219640 0.063080 0.798000 12024430
0.219640 0.067640 0.798000 10848381
0.219640 0.072200 0.798000 9590862
0.221842 0.077530 0.806000 12564109
0.224044 0.082950 0.814000 8208707
0.226521 0.088570 0.823000 11435088
0.244440 -0.076440 0.882000 10775696
0.243886 -0.071238 0.880000 12031420
0.243886 -0.066210 0.880000 8870507
0.241946 -0.060694 0.873000 7416867
0.241391 -0.055578 0.871000 14004136
0.240837 -0.050485 0.869000 11563622
0.240283 -0.045414 0.867000 11170665
0.238897 -0.040227 0.862000 11433842
0.238343 -0.035219 0.860000 11632501
0.237234 -0.030164 0.856000 10652028
0.236680 -0.025213 0.854000 11237729
0.235571 -0.020238 0.850000 9930656
0.235017 -0.015345 0.848000 8930872
0.234186 -0.010462 0.845000 9530200
0.233077 -0.005607 0.841000 4596541
0.231969 -0.000797 0.837000 9796955
0.230860 0.003967 0.833000 8477818
0.230306 0.008706 0.831000 10182492
0.229751 0.013422 0.829000 9464181
0.229197 0.018115 0.827000 9979770
0.228089 0.022730 0.823000 10453152
0.227534 0.027367 0.821000 9463670
0.226426 0.031902 0.817000 8870499
0.225594 0.036436 0.814000 12374208
0.225040 0.040987 0.812000 9597309
0.224486 0.045514 0.810000 10186350
0.223377 0.049895 0.806000 10843244
0.222823 0.054366 0.804000 13203047
0.221714 0.058667 0.800000 12692377
0.221160 0.063080 0.798000 11958904
0.220883 0.067555 0.797000 11828857
0.221160 0.072200 0.798000 8871768
0.222823 0.077337 0.804000 13476742
0.224486 0.082543 0.810000 8272181
0.226980 0.088140 0.819000 11629657
0.229197 0.093727 0.827000 9985349
0.246120 -0.076440 0.882000 11953313
0.245562 -0.071238 0.880000 12228036
0.245562 -0.066210 0.880000 8604008
0.244167 -0.060833 0.875000 8074767
0.243050 -0.055578 0.871000 12825517
0.242492 -0.050485 0.869000 11499105
0.241376 -0.045310 0.865000 10972515
0.240539 -0.040227 0.862000 11104627
0.239981 -0.035219 0.860000 12029815
0.238865 -0.030164 0.856000 11173237
0.238307 -0.025213 0.854000 12092518
0.237190 -0.020238 0.850000 10655925
0.236632 -0.015345 0.848000 7088439
0.235795 -0.010462 0.845000 7682123
0.234679 -0.005607 0.841000 5323346
0.233563 -0.000797 0.837000 10254938
0.232447 0.003967 0.833000 8867451
0.231889 0.008706 0.831000 10183006
0.231330 0.013422 0.829000 9726579
0.230772 0.018115 0.827000 10578554
0.229656 0.022730 0.823000 10785982
0.229098 0.027367 0.821000 9730973
0.228540 0.031980 0.819000 9264479
0.227145 0.036436 0.814000 12035763
0.226587 0.040987 0.812000 10656123
0.225470 0.045402 0.808000 10447991
0.224912 0.049895 0.806000 11106416
0.224354 0.054366 0.804000 13272421
0.223238 0.058667 0.800000 13751963
0.222680 0.063080 0.798000 11827329
0.222401 0.067555 0.797000 11762550
0.222680 0.072200 0.798000 9133665
0.223796 0.077145 0.802000 13418111
0.225470 0.082339 0.808000 8208167
0.228540 0.088140 0.819000 11500897
0.229656 0.093273 0.823000 9722168
0.247800 -0.076440 0.882000 13077932
0.247238 -0.071238 0.880000 12351428
0.247238 -0.066210 0.880000 8278619
0.245271 -0.060694 0.873000 8723999
0.244710 -0.055578 0.871000 11639719
0.244148 -0.050485 0.869000 11432288
0.243024 -0.045310 0.865000 10711389
0.242181 -0.040227 0.862000 10710624
0.241057 -0.035137 0.858000 12354170
0.240495 -0.030164 0.856000 11696499
0.239371 -0.025154 0.852000 12883322
0.238810 -0.020238 0.850000 11451566
0.238248 -0.015345 0.848000 5190502
0.237405 -0.010462 0.845000 5849198
0.236281 -0.005607 0.841000 5978448
0.235157 -0.000797 0.837000 10644058
0.234033 0.003967 0.833000 9263984
0.233471 0.008706 0.831000 10249060
0.232910 0.013422 0.829000 9992301
0.232348 0.018115 0.827000 11155067
0.231224 0.022730 0.823000 11047583
0.230662 0.027367 0.821000 9994635
0.229538 0.031902 0.817000 9658467
0.228976 0.036481 0.815000 11775420
0.228133 0.040987 0.812000 11633536
0.227010 0.045402 0.808000 10709625
0.226448 0.049895 0.806000 11368044
0.225886 0.054366 0.804000 13334118
0.224762 0.058667 0.800000 14787729
0.223919 0.063001 0.797000 11761778
0.223919 0.067555 0.797000 11696243
0.223919 0.072110 0.797000 9462114
0.225324 0.077145 0.802000 13340545
0.227010 0.082339 0.808000 8208185
0.229538 0.087925 0.817000 11300187
0.230662 0.093047 0.821000 9457226
0.249480 -0.076440 0.882000 13602743
0.248914 -0.071238 0.880000 11894468
0.248914 -0.066210 0.880000 8276045
0.246934 -0.060694 0.873000 9060142
0.246369 -0.055578 0.871000 10848418
0.245803 -0.050485 0.869000 10972510
0.244671 -0.045310 0.865000 11039319
0.243823 -0.040227 0.862000 10243148
0.242691 -0.035137 0.858000 11961469
0.242126 -0.030164 0.856000 11629169
0.240994 -0.025154 0.852000 13213839
0.240429 -0.020238 0.850000 12497831
0.239863 -0.015345 0.848000 7095190
0.239014 -0.010462 0.845000 7627665
0.237883 -0.005607 0.841000 7159887
0.236751 -0.000797 0.837000 10905433
0.235620 0.003967 0.833000 9920101
0.235054 0.008706 0.831000 10381162
0.234489 0.013422 0.829000 9200999
0.233357 0.018071 0.825000 10643068
0.232791 0.022730 0.823000 10580097
0.232226 0.027367 0.821000 9990009
0.231094 0.031902 0.817000 9920359
0.230246 0.036436 0.814000 11840965
0.229680 0.040987 0.812000 10774149
0.228549 0.045402 0.808000 10643834
0.227983 0.049895 0.806000 11432809
0.227417 0.054366 0.804000 12483686
0.226286 0.058667 0.800000 13339784
0.225437 0.063001 0.797000 11630179
0.224871 0.067386 0.795000 11958128
0.225437 0.072110 0.797000 9789027
0.226286 0.076952 0.800000 11830659
0.228549 0.082339 0.808000 8801611
0.231094 0.087925 0.817000 11039318
0.231660 0.092820 0.819000 9327964
0.251160 -0.076440 0.882000 14067898
0.250590 -0.071238 0.880000 11489718
0.250590 -0.066210 0.880000 8211538
0.248597 -0.060694 0.873000 9379896
0.248028 -0.055578 0.871000 9998760
0.247458 -0.050485 0.869000 10511204
0.246319 -0.045310 0.865000 11366488
0.245465 -0.040227 0.862000 9710411
0.244326 -0.035137 0.858000 11567222
0.243756 -0.030164 0.856000 11556174
0.242617 -0.025154 0.852000 13544071
0.241478 -0.020190 0.848000 13610920
0.240624 -0.015290 0.845000 9005452
0.240624 -0.010462 0.845000 9408388
0.239485 -0.005607 0.841000 8342371
0.238346 -0.000797 0.837000 11167845
0.237207 0.003967 0.833000 10513002
0.236637 0.008706 0.831000 10513259
0.236068 0.013422 0.829000 8349801
0.234929 0.018071 0.825000 10128779
0.234359 0.022730 0.823000 10130063
0.233220 0.027300 0.819000 10043762
0.232650 0.031902 0.817000 10118503
0.231796 0.036436 0.814000 11911097
0.231227 0.040987 0.812000 9858463
0.230088 0.045402 0.808000 10577774
0.229518 0.049895 0.806000 11497064
0.228949 0.054366 0.804000 11696487
0.227810 0.058667 0.800000 11828089
0.226955 0.063001 0.797000 11497070
0.226386 0.067386 0.795000 12221811
0.226386 0.071929 0.795000 10116955
0.227810 0.076952 0.800000 10319986
0.228949 0.081931 0.804000 9451634
0.232081 0.087710 0.815000 10773329
0.232650 0.092593 0.817000 9199194
0.252840 -0.076440 0.882000 14265533
0.252267 -0.071238 0.880000 11233191
0.252267 -0.066210 0.880000 8539479
0.250260 -0.060694 0.873000 9390401
0.249687 -0.055578 0.871000 10393007
0.248540 -0.050369 0.867000 9855081
0.247967 -0.045310 0.865000 10906713
0.247107 -0.040227 0.862000 9785674
0.246533 -0.035219 0.860000 11435886
0.244813 -0.030093 0.854000 9847850
0.244240 -0.025154 0.852000 13546879
0.243093 -0.020190 0.848000 13742505
0.242233 -0.015290 0.845000 9137794
0.241660 -0.010437 0.843000 9204854
0.241087 -0.005607 0.841000 8803192
0.239940 -0.000797 0.837000 11169648
0.239367 0.003976 0.835000 10908784
0.238220 0.008706 0.831000 10710123
0.237647 0.013422 0.829000 8806251
0.235927 0.018028 0.823000 10589849
0.235927 0.022730 0.823000 10331550
0.235353 0.027367 0.821000 10049898
0.234207 0.031902 0.817000 10248551
0.233347 0.036436 0.814000 12168365
0.232773 0.040987 0.812000 10848184
0.231627 0.045402 0.808000 10647138
0.231053 0.049895 0.806000 10313320
0.230480 0.054366 0.804000 11563880
0.229333 0.058667 0.800000 11827563
0.228473 0.063001 0.797000 11630200
0.227327 0.067216 0.793000 12420471
0.227900 0.071929 0.795000 10116434
0.229333 0.076952 0.800000 9193570
0.230480 0.081931 0.804000 9658776
0.233633 0.087710 0.815000 9985356
0.234207 0.092593 0.817000 9593688
0.254520 -0.076440 0.882000 14466754
0.253943 -0.071238 0.880000 11025330
0.253943 -0.066210 0.880000 8802395
0.251923 -0.060694 0.873000 9386056
0.251346 -0.055578 0.871000 10785456
0.250191 -0.050369 0.867000 9198930
0.249614 -0.045310 0.865000 10377293
0.248749 -0.040227 0.862000 9853258
0.248171 -0.035219 0.860000 11234398
0.246440 -0.030093 0.854000 8203844
0.245863 -0.025154 0.852000 13540216
0.244709 -0.020190 0.848000 13807009
0.243843 -0.015290 0.845000 9272713
0.243266 -0.010437 0.843000 9069668
0.242111 -0.005593 0.839000 9267061
0.242111 -0.000799 0.839000 11168625
0.240957 0.003976 0.835000 11238259
0.239803 0.008706 0.831000 10973293
0.239226 0.013422 0.829000 9265780
0.237494 0.018028 0.823000 11045774
0.237494 0.022730 0.823000 10515320
0.236917 0.027367 0.821000 10052199
0.235763 0.031902 0.817000 10314852
0.234897 0.036436 0.814000 12496047
0.234320 0.040987 0.812000 11775152
0.233166 0.045402 0.808000 10714198
0.232589 0.049895 0.806000 9132640
0.232011 0.054366 0.804000 11497319
0.230857 0.058667 0.800000 11827303
0.229991 0.063001 0.797000 11759991
0.228837 0.067216 0.793000 12617595
0.228837 0.071748 0.793000 10180436
0.229991 0.076664 0.797000 8020316
0.230857 0.081524 0.800000 9923985
0.235186 0.087710 0.815000 9196103
0.235763 0.092593 0.817000 9987415
0.256200 -0.081480 0.882000 12424860
0.256200 -0.076440 0.882000 14667718
0.256200 -0.071400 0.882000 11236797
0.255038 -0.066059 0.878000 8671072
0.253586 -0.060694 0.873000 9657679
0.253005 -0.055578 0.871000 10126002
0.251843 -0.050369 0.867000 6698554
0.251262 -0.045310 0.865000 9124417
0.250390 -0.040227 0.862000 9327946
0.249229 -0.035137 0.858000 9851214
0.248067 -0.030093 0.854000 8601949
0.247486 -0.025154 0.852000 13146224
0.246324 -0.020190 0.848000 13740952
0.245452 -0.015290 0.845000 10458767
0.244871 -0.010437 0.843000 8738385
0.243129 -0.005580 0.837000 9661810
0.242548 -0.000795 0.835000 11632498
0.241967 0.003967 0.833000 11634807
0.240805 0.008685 0.829000 10710894
0.240224 0.013390 0.827000 9593213
0.238481 0.017984 0.821000 10388099
0.238481 0.022675 0.821000 9524562
0.237900 0.027300 0.819000 10052452
0.236738 0.031824 0.815000 10379873
0.235867 0.036347 0.812000 12232880
0.235286 0.040886 0.810000 11845032
0.234124 0.045290 0.806000 9988681
0.233543 0.049771 0.804000 8801368
0.232381 0.054095 0.800000 11101541
0.231800 0.058520 0.798000 12089443
0.231510 0.063001 0.797000 11696502
0.230348 0.067216 0.793000 12948608
0.229767 0.071567 0.791000 10248022
0.231510 0.076664 0.797000 8345942
0.232962 0.081728 0.802000 9730186
0.236448 0.087602 0.814000 8800835
0.236448 0.092253 0.814000 10184021
0.257295 -0.081295 0.880000 12557470
0.257295 -0.076267 0.880000 14862023
0.256710 -0.071076 0.878000 11435705
0.255833 -0.065833 0.875000 8474465
0.254664 -0.060555 0.871000 9919332
0.254079 -0.055450 0.869000 9464988
0.252910 -0.050252 0.865000 4270120
0.252032 -0.045152 0.862000 7881281
0.251448 -0.040133 0.860000 8737877
0.250278 -0.035055 0.856000 8474197
0.249109 -0.030023 0.852000 8998497
0.248524 -0.025095 0.850000 12683628
0.247939 -0.020190 0.848000 13674647
0.246477 -0.015254 0.843000 11571350
0.245892 -0.010412 0.841000 8472655
0.244723 -0.005580 0.837000 10055537
0.244723 -0.000797 0.837000 12160634
0.243553 0.003967 0.833000 11962747
0.242384 0.008685 0.829000 10514035
0.241799 0.013390 0.827000 9862792
0.240045 0.017984 0.821000 9737096
0.239460 0.022620 0.819000 8476759
0.238875 0.027233 0.817000 10118755
0.238290 0.031824 0.815000 10379617
0.237413 0.036347 0.812000 12038560
0.236829 0.040886 0.810000 11831432
0.235659 0.045290 0.806000 9263957
0.235074 0.049771 0.804000 8410712
0.233905 0.054095 0.800000 10773602
0.233320 0.058520 0.798000 12351583
0.233028 0.063001 0.797000 11697266
0.231858 0.067216 0.793000 13274234
0.231273 0.071567 0.791000 10376789
0.232443 0.076471 0.795000 8608088
0.234490 0.081728 0.802000 9541524
0.237413 0.087387 0.812000 8341828
0.237998 0.092253 0.814000 10380371
0.258971 -0.081295 0.880000 12622496
0.258971 -0.076267 0.880000 14995144
0.258383 -0.071076 0.878000 11439796
0.257500 -0.065833 0.875000 8540770
0.256323 -0.060555 0.871000 9987705
0.255734 -0.055450 0.869000 8275077
0.254557 -0.050252 0.865000 5318422
0.253674 -0.045152 0.862000 9791041
0.253086 -0.040133 0.860000 10054752
0.251909 -0.035055 0.856000 8605788
0.250731 -0.030023 0.852000 9525604
0.250143 -0.025095 0.850000 12354919
0.249554 -0.020190 0.848000 13740437
0.248083 -0.015254 0.843000 11573917
0.247494 -0.010412 0.841000 7814733
0.246317 -0.005580 0.837000 10250865
0.246317 -0.000797 0.837000 12291713
0.245140 0.003967 0.833000 12093824
0.243963 0.008685 0.829000 10381431
0.243374 0.013390 0.827000 10789523
0.241609 0.017984 0.821000 9666956
0.241020 0.022620 0.819000 8543068
0.240431 0.027233 0.817000 10315105
0.239843 0.031824 0.815000 10248033
0.238960 0.036347 0.812000 11441552
0.238371 0.040886 0.810000 10247017
0.237194 0.045290 0.806000 9592161
0.236606 0.049771 0.804000 9725527
0.235429 0.054095 0.800000 11102814
0.234840 0.058520 0.798000 12154716
0.234546 0.063001 0.797000 11696238
0.232780 0.067047 0.791000 12750452
0.232780 0.071567 0.791000 10641236
0.233957 0.076471 0.795000 8608089
0.236017 0.081728 0.802000 9535902
0.238960 0.087387 0.812000 8078406
0.238960 0.092027 0.812000 10445392
0.242197 0.097976 0.823000 10972745
0.260648 -0.076267 0.880000 15057862
0.260055 -0.071076 0.878000 11507119
0.260055 -0.066059 0.878000 8540769
0.257982 -0.060555 0.871000 10128239
0.257982 -0.055578 0.871000 7100555
0.256797 -0.050369 0.867000 6432054
0.255316 -0.045152 0.862000 11694423
0.254724 -0.040133 0.860000 11367775
0.253539 -0.035055 0.856000 8675435
0.252354 -0.030023 0.852000 10052972
0.251762 -0.025095 0.850000 11958631
0.251170 -0.020190 0.848000 13805713
0.249689 -0.015254 0.843000 11499392
0.248504 -0.010388 0.839000 7156052
0.247911 -0.005580 0.837000 10382952
0.247319 -0.000795 0.835000 12422014
0.246727 0.003967 0.833000 12156797
0.245542 0.008685 0.829000 10183278
0.244950 0.013390 0.827000 11703439
0.243765 0.018028 0.823000 9599883
0.242580 0.022620 0.819000 8608341
0.241988 0.027233 0.817000 10576989
0.241099 0.031785 0.814000 10049886
0.240507 0.036347 0.812000 10787223
0.239914 0.040886 0.810000 8608617
0.238730 0.045290 0.806000 9920349
0.238137 0.049771 0.804000 10970968
0.236952 0.054095 0.800000 11430490
0.236360 0.058520 0.798000 11891292
0.236064 0.063001 0.797000 11697770
0.234287 0.067047 0.791000 12221287
0.234287 0.071567 0.791000 10967129
0.234879 0.076279 0.793000 8609115
0.237545 0.081728 0.802000 9472158
0.239914 0.087171 0.810000 7750987
0.240507 0.092027 0.812000 10444112
0.243765 0.097976 0.823000 10905420
0.262324 -0.076267 0.880000 14928324
0.261728 -0.071076 0.878000 11638953
0.260833 -0.065833 0.875000 8804449
0.259641 -0.060555 0.871000 10519396
0.259045 -0.055450 0.869000 7625106
0.257852 -0.050252 0.865000 8277846
0.256958 -0.045152 0.862000 11759981
0.256362 -0.040133 0.860000 11697758
0.255170 -0.035055 0.856000 10318713
0.253977 -0.030023 0.852000 10315379
0.253381 -0.025095 0.850000 11560038
0.252785 -0.020190 0.848000 13739405
0.251294 -0.015254 0.843000 8605028
0.250698 -0.010412 0.841000 7158875
0.249506 -0.005580 0.837000 10580063
0.248910 -0.000795 0.835000 12353914
0.248313 0.003967 0.833000 11106426
0.247121 0.008685 0.829000 9923173
0.246525 0.013390 0.827000 10649739
0.245332 0.018028 0.823000 9203593
0.244736 0.022675 0.821000 8804430
0.243544 0.027233 0.817000 10380120
0.242948 0.031824 0.815000 9654875
0.242053 0.036347 0.812000 10850974
0.240861 0.040785 0.808000 8671850
0.240265 0.045290 0.806000 9854297
0.239669 0.049771 0.804000 10905177
0.238476 0.054095 0.800000 11232597
0.237880 0.058520 0.798000 11626332
0.237582 0.063001 0.797000 11630438
0.236390 0.067216 0.793000 11824731
0.235793 0.071567 0.791000 10903389
0.236390 0.076279 0.793000 8871262
0.238476 0.081524 0.800000 9077661
0.241457 0.087171 0.810000 7618640
0.242650 0.092253 0.814000 9853519
0.244736 0.097738 0.821000 9919312
0.264000 -0.076267 0.880000 14730179
0.263400 -0.071076 0.878000 11770791
0.262500 -0.065833 0.875000 9001059
0.261300 -0.060555 0.871000 10990208
0.260700 -0.055450 0.869000 8151685
0.259500 -0.050252 0.865000 10185052
0.258600 -0.045152 0.862000 11762024
0.258000 -0.040133 0.860000 12093287
0.256800 -0.035055 0.856000 11963011
0.255600 -0.030023 0.852000 10578286
0.255000 -0.025095 0.850000 11106152
0.254400 -0.020190 0.848000 13672836
0.252900 -0.015254 0.843000 5656682
0.252300 -0.010412 0.841000 7166329
0.251100 -0.005580 0.837000 10709613
0.250500 -0.000795 0.835000 12286328
0.249900 0.003967 0.833000 10056057
0.248700 0.008685 0.829000 9657186
0.248100 0.013390 0.827000 9599354
0.246900 0.018028 0.823000 8873092
0.246300 0.022675 0.821000 9001559
0.245100 0.027233 0.817000 10117465
0.244500 0.031824 0.815000 9262677
0.243600 0.036347 0.812000 10853019
0.242400 0.040785 0.808000 8673385
0.241800 0.045290 0.806000 9854297
0.240600 0.049648 0.802000 10839390
0.239400 0.053960 0.798000 11035734
