# .PCD v.7 - Point Cloud Data file format
VERSION .7
FIELDS x y z rgb
SIZE 4 4 4 4
TYPE F F F I
COUNT 1 1 1 1
WIDTH 1315
HEIGHT 1
POINTS 1315
DATA ascii
0.291290 -0.214772 0.913000 9860218
0.290333 -0.208867 0.910000 10709355
0.288100 -0.202100 0.903000 12022889
0.284271 -0.194323 0.891000 10778761
0.282038 -0.187745 0.884000 9395296
0.282995 -0.183313 0.887000 9194058
0.284271 -0.179049 0.891000 9137537
0.285229 -0.174543 0.894000 7687241
0.286505 -0.170192 0.898000 7686740
0.287462 -0.165612 0.901000 11170414
0.288100 -0.160820 0.903000 10314572
0.289695 -0.156522 0.908000 10249296
0.314533 -0.264133 0.980000 10579795
0.311966 -0.256423 0.972000 10843229
0.309077 -0.248546 0.963000 11044731
0.305868 -0.240519 0.953000 8607841
0.300090 -0.230633 0.935000 8542047
0.297523 -0.223363 0.927000 9271935
0.293671 -0.215243 0.915000 9790067
0.291425 -0.208408 0.908000 10512741
0.289820 -0.202100 0.903000 11958382
0.285969 -0.194323 0.891000 10778523
0.284685 -0.188382 0.887000 9461340
0.284685 -0.183313 0.887000 9792855
0.285969 -0.179049 0.891000 7879282
0.287573 -0.174933 0.896000 7883335
0.289178 -0.170761 0.901000 8867417
0.289820 -0.165980 0.903000 10844285
0.290462 -0.161176 0.905000 8998473
0.292067 -0.156867 0.910000 10514514
0.316400 -0.264133 0.980000 10380885
0.313817 -0.256423 0.972000 11171173
0.310911 -0.248546 0.963000 11371382
0.306714 -0.239762 0.950000 9460824
0.302517 -0.231127 0.937000 9594214
0.299289 -0.223363 0.927000 9795964
0.296060 -0.215713 0.917000 9658984
0.293154 -0.208408 0.908000 10381668
0.290894 -0.201652 0.901000 11826797
0.287666 -0.194323 0.891000 10848400
0.287020 -0.188807 0.889000 9526878
0.287020 -0.183727 0.889000 10377049
0.287666 -0.179049 0.891000 6638459
0.289926 -0.175324 0.898000 8081227
0.290894 -0.170761 0.901000 9984598
0.291540 -0.165980 0.903000 10582890
0.292186 -0.161176 0.905000 7686487
0.293800 -0.156867 0.910000 10779240
0.317292 -0.263325 0.977000 10183512
0.315669 -0.256423 0.972000 11236973
0.312746 -0.248546 0.963000 11567474
0.308524 -0.239762 0.950000 9657166
0.304302 -0.231127 0.937000 9728876
0.301054 -0.223363 0.927000 9924984
0.297157 -0.215243 0.915000 9855325
0.295533 -0.208867 0.910000 10315107
0.292610 -0.201652 0.901000 11763052
0.289363 -0.194323 0.891000 10845060
0.288713 -0.188807 0.889000 9593697
0.288713 -0.183727 0.889000 10185819
0.289363 -0.179049 0.891000 7025028
0.291636 -0.175324 0.898000 8212559
0.292610 -0.170761 0.901000 10315347
0.293260 -0.165980 0.903000 10447702
0.294884 -0.161710 0.908000 8473702
0.319153 -0.263325 0.977000 9919832
0.318173 -0.256950 0.974000 11301483
0.315560 -0.249320 0.966000 11762799
0.310333 -0.239762 0.950000 9917508
0.306087 -0.231127 0.937000 9861233
0.302820 -0.223363 0.927000 10056057
0.298900 -0.215243 0.915000 10052706
0.297267 -0.208867 0.910000 10249564
0.294327 -0.201652 0.901000 11695211
0.291060 -0.194323 0.891000 10909572
0.290407 -0.188807 0.889000 9658975
0.291060 -0.184140 0.891000 10051736
0.291060 -0.179049 0.891000 7360885
0.293347 -0.175324 0.898000 8409681
0.294327 -0.170761 0.901000 10577492
0.296613 -0.166899 0.908000 10312537
0.297267 -0.162067 0.910000 9266783
0.323643 -0.271110 0.985000 11374769
0.320029 -0.262516 0.974000 9457753
0.320029 -0.256950 0.974000 11105641
0.317400 -0.249320 0.966000 11565932
0.312143 -0.239762 0.950000 9655866
0.307214 -0.230633 0.935000 10518134
0.305571 -0.224086 0.930000 10385018
0.300643 -0.215243 0.915000 10251367
0.299000 -0.208867 0.910000 10380116
0.295057 -0.200981 0.898000 11563883
0.292757 -0.194323 0.891000 10843524
0.292757 -0.189231 0.891000 9726045
0.292757 -0.184140 0.891000 10193108
0.293743 -0.179651 0.894000 7159398
0.296043 -0.175910 0.901000 8474963
0.296700 -0.171140 0.903000 10509910
0.299000 -0.167267 0.910000 10446171
0.299986 -0.162601 0.913000 10058073
0.324858 -0.270559 0.983000 11576747
0.321884 -0.262516 0.974000 8999775
0.321223 -0.256423 0.972000 10909288
0.318249 -0.248546 0.963000 11303018
0.313952 -0.239762 0.950000 9388360
0.308995 -0.230633 0.935000 11174267
0.306351 -0.223363 0.927000 10648187
0.303047 -0.215713 0.917000 10447977
0.300733 -0.208867 0.910000 10510688
0.297759 -0.201652 0.901000 11366776
0.294454 -0.194323 0.891000 10780287
0.294454 -0.189231 0.891000 9723740
0.295446 -0.184760 0.894000 10346193
0.296107 -0.180053 0.896000 6960467
0.297759 -0.175910 0.901000 8540243
0.299081 -0.171519 0.905000 10378325
0.300733 -0.167267 0.910000 10577242
0.302386 -0.162957 0.915000 10840925
0.325733 -0.269733 0.980000 11771813
0.323739 -0.262516 0.974000 9064037
0.323074 -0.256423 0.972000 10645351
0.320083 -0.248546 0.963000 11368552
0.316759 -0.240519 0.953000 10050645
0.311441 -0.231127 0.937000 11176575
0.309114 -0.224086 0.930000 10844539
0.304793 -0.215713 0.917000 10579051
0.302467 -0.208867 0.910000 10511724
0.299475 -0.201652 0.901000 11694469
0.297149 -0.194977 0.894000 10842746
0.296151 -0.189231 0.891000 8412506
0.297149 -0.184760 0.894000 9806542
0.298478 -0.180455 0.898000 7422016
0.300140 -0.176300 0.903000 8671315
0.301802 -0.172088 0.908000 9854036
0.303464 -0.167818 0.913000 9920345
0.304129 -0.162957 0.915000 9983584
0.327600 -0.269733 0.980000 11968675
0.325594 -0.262516 0.974000 9132913
0.324926 -0.256423 0.972000 10383707
0.321917 -0.248546 0.963000 11368308
0.318574 -0.240519 0.953000 10707811
0.314229 -0.231867 0.940000 11175550
0.309883 -0.223363 0.927000 11041403
0.306540 -0.215713 0.917000 10644075
0.304200 -0.208867 0.910000 10510699
0.299520 -0.200533 0.896000 11960966
0.298851 -0.194977 0.894000 10901875
0.298851 -0.189869 0.894000 7031405
0.299520 -0.185173 0.896000 9284786
0.300189 -0.180455 0.898000 7815491
0.302529 -0.176690 0.905000 8802385
0.304200 -0.172467 0.910000 9328973
0.305871 -0.168186 0.915000 9263448
0.329467 -0.269733 0.980000 12297121
0.327450 -0.262516 0.974000 9330302
0.326777 -0.256423 0.972000 9855311
0.323751 -0.248546 0.963000 11172224
0.320390 -0.240519 0.953000 10907248
0.316019 -0.231867 0.940000 11437949
0.312657 -0.224086 0.930000 11172219
0.308287 -0.215713 0.917000 10578027
0.305933 -0.208867 0.910000 10578026
0.301899 -0.200981 0.898000 12354695
0.300554 -0.194977 0.894000 9922412
0.301227 -0.190293 0.896000 7543936
0.301227 -0.185173 0.896000 9138581
0.302908 -0.181058 0.901000 7555654
0.305261 -0.177276 0.908000 9000270
0.306942 -0.173035 0.913000 8803655
0.308287 -0.168553 0.917000 9328982
0.328629 -0.261977 0.972000 9467533
0.328629 -0.256423 0.972000 9392971
0.325586 -0.248546 0.963000 10975082
0.321190 -0.239762 0.950000 11169135
0.317810 -0.231867 0.940000 11635843
0.314429 -0.224086 0.930000 11303034
0.310033 -0.215713 0.917000 10446698
0.307667 -0.208867 0.910000 10644589
0.303610 -0.200981 0.898000 12745856
0.302933 -0.195413 0.896000 9006187
0.303610 -0.190718 0.898000 8024708
0.304624 -0.186207 0.901000 9054562
0.305976 -0.181862 0.905000 7229007
0.307667 -0.177667 0.910000 9132626
0.309357 -0.173414 0.915000 8214610
0.311048 -0.169105 0.920000 9461340
0.330480 -0.261977 0.972000 10522523
0.329460 -0.255631 0.969000 9326919
0.327420 -0.248546 0.963000 10843989
0.323000 -0.239762 0.950000 11236462
0.319600 -0.231867 0.940000 11964041
0.316200 -0.224086 0.930000 11368569
0.312800 -0.216419 0.920000 10249833
0.309400 -0.208867 0.910000 10579056
0.306340 -0.201652 0.901000 11433849
0.305320 -0.195850 0.898000 8676714
0.306340 -0.191355 0.901000 9873289
0.307020 -0.186620 0.903000 8207407
0.309400 -0.182867 0.910000 8213849
0.310420 -0.178252 0.913000 9264214
0.312800 -0.174362 0.920000 8608604
0.313480 -0.169472 0.922000 9658210
0.332331 -0.261977 0.972000 11572902
0.330280 -0.254840 0.966000 9196105
0.328570 -0.248030 0.961000 10708058
0.324810 -0.239762 0.950000 11367537
0.321390 -0.231867 0.940000 12290172
0.316946 -0.223363 0.927000 11435374
0.314552 -0.216419 0.920000 9987430
0.311133 -0.208867 0.910000 10579310
0.308056 -0.201652 0.901000 10120301
0.306347 -0.195413 0.896000 8345960
0.308056 -0.191355 0.901000 11699838
0.309424 -0.187033 0.905000 7354947
0.311133 -0.182867 0.910000 9197917
0.312843 -0.178643 0.915000 9395800
0.314552 -0.174362 0.920000 8936539
0.315236 -0.169472 0.922000 9855326
0.334183 -0.261977 0.972000 12431793
0.331089 -0.254049 0.963000 9394250
0.330401 -0.248030 0.961000 9851744
0.326619 -0.239762 0.950000 10777460
0.323181 -0.231867 0.940000 11961456
0.318711 -0.223363 0.927000 10975331
0.316305 -0.216419 0.920000 9855331
0.312867 -0.208867 0.910000 10381164
0.309772 -0.201652 0.901000 8734818
0.308053 -0.195413 0.896000 8280165
0.310460 -0.191780 0.903000 10454644
0.311148 -0.187033 0.905000 8211799
0.312867 -0.182867 0.910000 9461857
0.315273 -0.179033 0.917000 9330009
0.316305 -0.174362 0.920000 9396314
0.318024 -0.170024 0.925000 9858138
0.332923 -0.254049 0.963000 9590903
0.331194 -0.247255 0.958000 9001049
0.328429 -0.239762 0.950000 10251609
0.324971 -0.231867 0.940000 11632752
0.320477 -0.223363 0.927000 10516075
0.318057 -0.216419 0.920000 9659495
0.313909 -0.208408 0.908000 10181483
0.311489 -0.201652 0.901000 7363461
0.310451 -0.195850 0.898000 8219271
0.312180 -0.191780 0.903000 9204343
0.313909 -0.187653 0.908000 9066331
0.315637 -0.183470 0.913000 9658723
0.317020 -0.179033 0.917000 9263474
0.318749 -0.174741 0.922000 9793400
0.319786 -0.170024 0.925000 9859966
0.333019 -0.247255 0.958000 9527635
0.329543 -0.239257 0.948000 9985597
0.325719 -0.231127 0.937000 10844528
0.321548 -0.222881 0.925000 9921907
0.319810 -0.216419 0.920000 9398124
0.314595 -0.207719 0.905000 9988713
0.313205 -0.201652 0.901000 9348009
0.312162 -0.195850 0.898000 9474985
0.313900 -0.191780 0.903000 9199227
0.316333 -0.188067 0.910000 9396575
0.317376 -0.183470 0.913000 9921892
0.320505 -0.180010 0.922000 10319243
0.320505 -0.174741 0.922000 10979735
0.334844 -0.247255 0.958000 10052713
0.330300 -0.238500 0.945000 9722458
0.327504 -0.231127 0.937000 9988971
0.322261 -0.222158 0.922000 9330030
0.320513 -0.215713 0.917000 9132387
0.316319 -0.207719 0.905000 9863819
0.314921 -0.201652 0.901000 11247784
0.313872 -0.195850 0.898000 10726050
0.315620 -0.191780 0.903000 9200517
0.318067 -0.188067 0.910000 9660542
0.322261 -0.180010 0.922000 11444895
0.322261 -0.174741 0.922000 12166052
0.336669 -0.247255 0.958000 10185086
0.330343 -0.237238 0.940000 10580086
0.327531 -0.229893 0.932000 10447718
0.324017 -0.222158 0.922000 9069161
0.322260 -0.215713 0.917000 7814746
0.317340 -0.207260 0.903000 9998764
0.316637 -0.201652 0.901000 10655400
0.318043 -0.197376 0.905000 10717594
0.316637 -0.191355 0.901000 10578320
0.319800 -0.188067 0.910000 11243164
0.331073 -0.236481 0.937000 11500142
0.328600 -0.229400 0.930000 10908263
0.325773 -0.222158 0.922000 8807269
0.321533 -0.214067 0.910000 6512494
0.319767 -0.207719 0.905000 10132906
0.319060 -0.202100 0.903000 10063271
0.319767 -0.197376 0.905000 10714783
0.332148 -0.235976 0.935000 11434086
0.329306 -0.228660 0.927000 10316649
0.327530 -0.222158 0.922000 8277600
0.322556 -0.213596 0.908000 8685699
0.321490 -0.207719 0.905000 9669544
0.321490 -0.202548 0.905000 10717094
0.322556 -0.198030 0.908000 12033187
0.333929 -0.235976 0.935000 11306127
0.329286 -0.227427 0.922000 9726339
0.329286 -0.222158 0.922000 7747445
0.324286 -0.213596 0.908000 10850204
0.323214 -0.207719 0.905000 9201827
0.324286 -0.203219 0.908000 11311527
0.331042 -0.227427 0.922000 10846109
0.331042 -0.222158 0.922000 10125706
0.324220 -0.212420 0.903000 11573685
0.324220 -0.207260 0.903000 10982558
0.326015 -0.203219 0.908000 12365993
0.332798 -0.227427 0.922000 11903659
0.332798 -0.222158 0.922000 12564895
0.325940 -0.212420 0.903000 12233138
0.325940 -0.207260 0.903000 12760745
0.327745 -0.203219 0.908000 13413548
0.334554 -0.222158 0.922000 12825012
0.327660 -0.207260 0.903000 12889524
0.143554 -0.226617 0.948000 8410217
0.145069 -0.207110 0.958000 9266785
0.146893 -0.239956 0.958000 10896699
0.146433 -0.233748 0.955000 9656652
0.145360 -0.226617 0.948000 8871000
0.144900 -0.220500 0.945000 9324595
0.145360 -0.215783 0.948000 9924447
0.146893 -0.207110 0.958000 8672324
0.145360 -0.199531 0.948000 7490370
0.148718 -0.239956 0.958000 8801095
0.147942 -0.233258 0.953000 9131600
0.147166 -0.226617 0.948000 9264471
0.146234 -0.219800 0.942000 8608324
0.146700 -0.215100 0.945000 8477784
0.147476 -0.205381 0.950000 8081738
0.147166 -0.199531 0.948000 6965569
0.150426 -0.198414 0.969000 6897977
0.154000 -0.256667 0.980000 10306136
0.152271 -0.248249 0.969000 8992298
0.150543 -0.239956 0.958000 9457491
0.149757 -0.233258 0.953000 9787731
0.148500 -0.225900 0.945000 9002071
0.147714 -0.219333 0.940000 8673877
0.148029 -0.214417 0.942000 8540240
0.149286 -0.205381 0.950000 7226192
0.148971 -0.199531 0.948000 6701375
0.150543 -0.196162 0.958000 6500920
0.151329 -0.191683 0.963000 6571061
0.155867 -0.256667 0.980000 8732754
0.154117 -0.248249 0.969000 9523287
0.152368 -0.239956 0.958000 10114913
0.151572 -0.233258 0.953000 10443861
0.150777 -0.226617 0.948000 8674132
0.149505 -0.219333 0.940000 8803923
0.149505 -0.213962 0.940000 8541518
0.149823 -0.209034 0.942000 7492939
0.150300 -0.204300 0.945000 6306634
0.150300 -0.198900 0.945000 6437434
0.151095 -0.194524 0.950000 6107190
0.152368 -0.190688 0.958000 6441785
0.158216 -0.263070 0.983000 11699589
0.157733 -0.256667 0.980000 9521484
0.155963 -0.248249 0.969000 10647683
0.154192 -0.239956 0.958000 10578030
0.152905 -0.232524 0.950000 10640470
0.152100 -0.225900 0.945000 9789522
0.150812 -0.218633 0.937000 8737360
0.150812 -0.213279 0.937000 8410957
0.151617 -0.209034 0.942000 7492170
0.151617 -0.203651 0.942000 6369092
0.152100 -0.198900 0.945000 6174261
0.152583 -0.194114 0.948000 5449268
0.153388 -0.189692 0.953000 6241085
0.160089 -0.263070 0.983000 11170689
0.159600 -0.256667 0.980000 10250355
0.157809 -0.248249 0.969000 11768202
0.156017 -0.239956 0.958000 11036528
0.154714 -0.232524 0.950000 10903137
0.153900 -0.225900 0.945000 10838102
0.152597 -0.218633 0.937000 8670282
0.152271 -0.212824 0.935000 8213067
0.152597 -0.207925 0.937000 7491146
0.153086 -0.203219 0.940000 6372429
0.153086 -0.197848 0.940000 5976886
0.153411 -0.192886 0.942000 4729134
0.154389 -0.188697 0.948000 6039091
0.155203 -0.184247 0.953000 6567221
0.161961 -0.263070 0.983000 11498876
0.161961 -0.257452 0.983000 11312795
0.159654 -0.248249 0.969000 10910096
0.157842 -0.239956 0.958000 10114674
0.156524 -0.232524 0.950000 10775148
0.155206 -0.225183 0.942000 10969434
0.153558 -0.217467 0.932000 8604740
0.153229 -0.211686 0.930000 8080458
0.153558 -0.206815 0.932000 7424842
0.154052 -0.202138 0.935000 6505047
0.154382 -0.197216 0.937000 5910583
0.155206 -0.192886 0.942000 5254185
0.155700 -0.188100 0.945000 6040616
0.156524 -0.183667 0.950000 6697513
0.164167 -0.263605 0.985000 11893910
0.163833 -0.257452 0.983000 12293023
0.161500 -0.248249 0.969000 10056342
0.159667 -0.239956 0.958000 9195630
0.158833 -0.233258 0.953000 10709837
0.156667 -0.224705 0.940000 11038306
0.155000 -0.217000 0.930000 8603463
0.155000 -0.211686 0.930000 7881800
0.155000 -0.206371 0.930000 7357254
0.155333 -0.201490 0.932000 6637385
0.155833 -0.196795 0.935000 5910073
0.156167 -0.191862 0.937000 5713450
0.156667 -0.187105 0.940000 6106921
0.157000 -0.182120 0.942000 6828067
0.157500 -0.177300 0.945000 6500132
0.166043 -0.263605 0.985000 12556719
0.165706 -0.257452 0.983000 11437219
0.163346 -0.248249 0.969000 9994652
0.161491 -0.239956 0.958000 8929387
0.160649 -0.233258 0.953000 9654062
0.158457 -0.224705 0.940000 11041899
0.156266 -0.216300 0.927000 8670025
0.156266 -0.211003 0.927000 7618374
0.156266 -0.205706 0.927000 7224897
0.156771 -0.201057 0.930000 7166011
0.157109 -0.196164 0.932000 6171963
0.157614 -0.191452 0.935000 5911083
0.157951 -0.186508 0.937000 6107177
0.158457 -0.181733 0.940000 6434590
0.158794 -0.176737 0.942000 6369055
0.169965 -0.272513 0.997000 12688035
0.167919 -0.263605 0.985000 13284549
0.167578 -0.257452 0.983000 10586519
0.165703 -0.249017 0.972000 9989480
0.163316 -0.239956 0.958000 8599637
0.162464 -0.233258 0.953000 8664382
0.160248 -0.224705 0.940000 10972762
0.158031 -0.216300 0.927000 8738382
0.158031 -0.211003 0.927000 7289927
0.157690 -0.205262 0.925000 7093310
0.158031 -0.200409 0.927000 7685693
0.158543 -0.195743 0.930000 6433853
0.158884 -0.190838 0.932000 6042157
0.159395 -0.186110 0.935000 6173222
0.159736 -0.181153 0.937000 6041113
0.160248 -0.176362 0.940000 6303005
0.173415 -0.274973 1.006000 12687518
0.170312 -0.264408 0.988000 13086170
0.169450 -0.257452 0.983000 9997196
0.167554 -0.249017 0.972000 8997684
0.165141 -0.239956 0.958000 8668480
0.163762 -0.232524 0.950000 8865358
0.162038 -0.224705 0.940000 10512202
0.159797 -0.216300 0.927000 9001554
0.159452 -0.210548 0.925000 6829640
0.158935 -0.204596 0.922000 6831162
0.159452 -0.199976 0.925000 7025984
0.159797 -0.195111 0.927000 6503486
0.160314 -0.190429 0.930000 6172975
0.160659 -0.185512 0.932000 6041378
0.161176 -0.180767 0.935000 4925205
0.161521 -0.175799 0.937000 6105626
0.176726 -0.282954 1.014000 12755371
0.175331 -0.274973 1.006000 12690603
0.172194 -0.264408 0.988000 12955088
0.171323 -0.257452 0.983000 9392497
0.169406 -0.249017 0.972000 8009513
0.166966 -0.239956 0.958000 8666926
0.165571 -0.232524 0.950000 9064254
0.164177 -0.225183 0.942000 9984588
0.162086 -0.217000 0.930000 9266024
0.161214 -0.210548 0.925000 6372424
0.160343 -0.204152 0.920000 6568766
0.160691 -0.199328 0.922000 6305327
0.161214 -0.194690 0.925000 6571596
0.161563 -0.189814 0.927000 6303537
0.162086 -0.185114 0.930000 5909797
0.162434 -0.180187 0.932000 3810843
0.163306 -0.175799 0.937000 5974302
0.178657 -0.282954 1.014000 12558253
0.177248 -0.274973 1.006000 13545656
0.175133 -0.266013 0.994000 12164805
0.173195 -0.257452 0.983000 8204630
0.171257 -0.249017 0.972000 7548446
0.169319 -0.240708 0.961000 8070429
0.167381 -0.232524 0.950000 8600622
0.165971 -0.225183 0.942000 9588301
0.163857 -0.217000 0.930000 9199997
0.162448 -0.209865 0.922000 6370633
0.162095 -0.204152 0.920000 6371393
0.162095 -0.198895 0.920000 6172703
0.162448 -0.194059 0.922000 6703706
0.163329 -0.189814 0.927000 6303284
0.163329 -0.184517 0.927000 5909543
0.164210 -0.180187 0.932000 4861474
0.164738 -0.175424 0.935000 6105890
0.180054 -0.282117 1.011000 12361639
0.179164 -0.274973 1.006000 14332090
0.177027 -0.266013 0.994000 11375546
0.175068 -0.257452 0.983000 6957631
0.173109 -0.249017 0.972000 7088721
0.171150 -0.240708 0.961000 7426158
0.169190 -0.232524 0.950000 8071278
0.167766 -0.225183 0.942000 9129027
0.165629 -0.217000 0.930000 9201771
0.163848 -0.209410 0.920000 6307665
0.163313 -0.203487 0.917000 6239550
0.163848 -0.198895 0.920000 6041899
0.163848 -0.193638 0.920000 6838344
0.164204 -0.188790 0.922000 6237493
0.164738 -0.184119 0.925000 5974568
0.165629 -0.179800 0.930000 5844260
0.165985 -0.174861 0.932000 6172197
0.182520 -0.282954 1.014000 12491425
0.181080 -0.274973 1.006000 14528957
0.178920 -0.266013 0.994000 10253231
0.176940 -0.257452 0.983000 6957609
0.174960 -0.249017 0.972000 9467779
0.172980 -0.240708 0.961000 9876927
0.171000 -0.232524 0.950000 9004206
0.169560 -0.225183 0.942000 8407609
0.167400 -0.217000 0.930000 9067609
0.165600 -0.209410 0.920000 7096410
0.164700 -0.203043 0.915000 6304827
0.164700 -0.197814 0.915000 6041912
0.165060 -0.193007 0.917000 6572597
0.165600 -0.188381 0.920000 6237751
0.165600 -0.183124 0.920000 5843753
0.166860 -0.179220 0.927000 5975335
0.167400 -0.174486 0.930000 6368552
0.167760 -0.169535 0.932000 6172195
0.183906 -0.282117 1.011000 12620950
0.182996 -0.274973 1.006000 14726846
0.181359 -0.266816 0.997000 9061509
0.178812 -0.257452 0.983000 6898767
0.176811 -0.249017 0.972000 11908507
0.175174 -0.241209 0.963000 12229008
0.172810 -0.232524 0.950000 9871274
0.171354 -0.225183 0.942000 7684439
0.169171 -0.217000 0.930000 8934999
0.167352 -0.209410 0.920000 7885413
0.166443 -0.203043 0.915000 6435643
0.166443 -0.197814 0.915000 6042680
0.166807 -0.193007 0.917000 6244389
0.167352 -0.188381 0.920000 6172731
0.167352 -0.183124 0.920000 5778474
0.168262 -0.178833 0.925000 6105895
0.168626 -0.173923 0.927000 6565160
0.169171 -0.169171 0.930000 6237477
0.185831 -0.282117 1.011000 12686474
0.184912 -0.274973 1.006000 14205375
0.183810 -0.267619 1.000000 8404059
0.180685 -0.257452 0.983000 9534070
0.178111 -0.248249 0.969000 10781875
0.177009 -0.241209 0.963000 11236192
0.174619 -0.232524 0.950000 10590117
0.172781 -0.224705 0.940000 7615092
0.170943 -0.217000 0.930000 8803413
0.169472 -0.209865 0.922000 8281199
0.167818 -0.202599 0.913000 6633274
0.167818 -0.197382 0.913000 6175033
0.168186 -0.192586 0.915000 6438165
0.168553 -0.187767 0.917000 6171455
0.169105 -0.183124 0.920000 5843754
0.169472 -0.178253 0.922000 6105640
0.170024 -0.173548 0.925000 6433575
0.170391 -0.168626 0.927000 6172199
0.187757 -0.282117 1.011000 12814480
0.186829 -0.274973 1.006000 13611710
0.186271 -0.268422 1.003000 7738953
0.181443 -0.255881 0.977000 12093838
0.179957 -0.248249 0.969000 9655688
0.178843 -0.241209 0.963000 10184290
0.176986 -0.233258 0.953000 11307418
0.174571 -0.224705 0.940000 7561605
0.172714 -0.217000 0.930000 8671825
0.170857 -0.209410 0.920000 8674921
0.169557 -0.202599 0.913000 6829122
0.169000 -0.196733 0.910000 6240829
0.169557 -0.192165 0.913000 6564140
0.170300 -0.187767 0.917000 6174532
0.170300 -0.182527 0.917000 5842988
0.170857 -0.177867 0.920000 6040358
0.171786 -0.173548 0.925000 6302247
0.172157 -0.168626 0.927000 6106408
0.189120 -0.281280 1.008000 13082005
0.188745 -0.274973 1.006000 12561598
0.188182 -0.268422 1.003000 8731958
0.183867 -0.256667 0.980000 11578791
0.181803 -0.248249 0.969000 10447708
0.180677 -0.241209 0.963000 10447972
0.178801 -0.233258 0.953000 10977935
0.175424 -0.223510 0.935000 9406869
0.173548 -0.215833 0.925000 8538957
0.172047 -0.208727 0.917000 8938850
0.170358 -0.201490 0.908000 7422794
0.169795 -0.195652 0.905000 6502721
0.170358 -0.191112 0.908000 6699587
0.171296 -0.186948 0.913000 6370633
0.171671 -0.182129 0.915000 5777197
0.172047 -0.177287 0.917000 5975076
0.172610 -0.172610 0.920000 6302503
0.173548 -0.168262 0.925000 6041129
0.191040 -0.281280 1.008000 13276334
0.190661 -0.274973 1.006000 11505587
0.189524 -0.267619 1.000000 9647714
0.184217 -0.254571 0.972000 11046036
0.183080 -0.247480 0.966000 11236188
0.182132 -0.240708 0.961000 10644325
0.180048 -0.232524 0.950000 10648970
0.177205 -0.223510 0.935000 11175061
0.175310 -0.215833 0.925000 8472909
0.174362 -0.209410 0.920000 9133669
0.172088 -0.201490 0.908000 8014928
0.171519 -0.195652 0.905000 6699065
0.171519 -0.190481 0.905000 6829122
0.172467 -0.186333 0.910000 6505284
0.173414 -0.182129 0.915000 5711918
0.173414 -0.176900 0.915000 5909284
0.173793 -0.172047 0.917000 6302501
0.174741 -0.167716 0.922000 5974564
0.192577 -0.280722 1.006000 13479622
0.192003 -0.274153 1.003000 10258600
0.190854 -0.266816 0.997000 10054030
0.186069 -0.254571 0.972000 9398401
0.184920 -0.247480 0.966000 10973276
0.184346 -0.241209 0.963000 10576998
0.181857 -0.232524 0.950000 10714501
0.178986 -0.223510 0.935000 11311508
0.177071 -0.215833 0.925000 8340044
0.176114 -0.209410 0.920000 9461864
0.173817 -0.201490 0.908000 8080982
0.172860 -0.195220 0.903000 6765617
0.173243 -0.190481 0.905000 6501952
0.173817 -0.185924 0.908000 7362367
0.174774 -0.181730 0.913000 5710895
0.175157 -0.176900 0.915000 5974820
0.175540 -0.172047 0.917000 6105635
0.176497 -0.167716 0.922000 5776927
0.177071 -0.162976 0.925000 5120801
0.194493 -0.280722 1.006000 13619146
0.193913 -0.274153 1.003000 9003921
0.193333 -0.267619 1.000000 10397858
0.187340 -0.253786 0.969000 7687275
0.186760 -0.247480 0.966000 10710108
0.185793 -0.240708 0.961000 10511956
0.183667 -0.232524 0.950000 10780002
0.180767 -0.223510 0.935000 11375511
0.179220 -0.216300 0.927000 8137810
0.177867 -0.209410 0.920000 9787993
0.175547 -0.201490 0.908000 8149852
0.174580 -0.195220 0.903000 6765109
0.174580 -0.190060 0.903000 6109511
0.174967 -0.185310 0.905000 8145994
0.175547 -0.180735 0.908000 5709097
0.176513 -0.176513 0.913000 6040359
0.176900 -0.171671 0.915000 5974565
0.177867 -0.167352 0.920000 5514530
0.178253 -0.162448 0.922000 5186594
0.196410 -0.280722 1.006000 13418445
0.195824 -0.274153 1.003000 8208506
0.194652 -0.266816 0.997000 10261685
0.191919 -0.257452 0.983000 7346006
0.188600 -0.247480 0.966000 10644315
0.187624 -0.240708 0.961000 10380610
0.185476 -0.232524 0.950000 10052670
0.182548 -0.223510 0.935000 11639706
0.180595 -0.215833 0.925000 8406872
0.179619 -0.209410 0.920000 9263177
0.177276 -0.201490 0.908000 8082785
0.175324 -0.194139 0.898000 6698810
0.175910 -0.189639 0.901000 6306125
0.176300 -0.184900 0.903000 7625045
0.177276 -0.180735 0.908000 5776674
0.177667 -0.175933 0.910000 5975082
0.178643 -0.171671 0.915000 6040871
0.179033 -0.166807 0.917000 5646884
0.180010 -0.162448 0.922000 5186338
0.198720 -0.281280 1.008000 13225174
0.197734 -0.274153 1.003000 7358845
0.196551 -0.266816 0.997000 10197672
0.193791 -0.257452 0.983000 6955858
0.190440 -0.247480 0.966000 10579285
0.188863 -0.239956 0.958000 10184024
0.187286 -0.232524 0.950000 9324347
0.184723 -0.223988 0.937000 11833494
0.182357 -0.215833 0.925000 8666752
0.181371 -0.209410 0.920000 8672331
0.177034 -0.199270 0.898000 8019561
0.177034 -0.194139 0.898000 6567488
0.177626 -0.189639 0.901000 6568515
0.178020 -0.184900 0.903000 7032129
0.178414 -0.180138 0.905000 5908010
0.179400 -0.175933 0.910000 5909547
0.179991 -0.171296 0.913000 6106664
0.180780 -0.166807 0.917000 5712938
0.181371 -0.162095 0.920000 5186341
0.200640 -0.281280 1.008000 12693215
0.199645 -0.274153 1.003000 8598143
0.197853 -0.266013 0.994000 10847387
0.195664 -0.257452 0.983000 6891854
0.191683 -0.246711 0.963000 10182734
0.190688 -0.239956 0.958000 10778223
0.188697 -0.232034 0.948000 8932151
0.186508 -0.223988 0.937000 11769745
0.184119 -0.215833 0.925000 9200551
0.183124 -0.209410 0.920000 8475469
0.178745 -0.199270 0.898000 7952497
0.178745 -0.194139 0.898000 6502471
0.178745 -0.189008 0.898000 6436665
0.179740 -0.184900 0.903000 7297581
0.180138 -0.180138 0.905000 6040626
0.181133 -0.175933 0.910000 6040620
0.181133 -0.170733 0.910000 6237737
0.182129 -0.166443 0.915000 5910319
0.182527 -0.161567 0.917000 5120808
0.202560 -0.281280 1.008000 12166339
0.200952 -0.273333 1.000000 9858182
0.199747 -0.266013 0.994000 11495554
0.197938 -0.257976 0.985000 6834774
0.193517 -0.246711 0.963000 9785425
0.192512 -0.239956 0.958000 11368298
0.190503 -0.232034 0.948000 8539981
0.188292 -0.223988 0.937000 11638148
0.185881 -0.215833 0.925000 9793433
0.184876 -0.209410 0.920000 8277836
0.182465 -0.201490 0.908000 7887205
0.180455 -0.194139 0.898000 6372427
0.180455 -0.189008 0.898000 6371387
0.181058 -0.184490 0.901000 7487802
0.181862 -0.180138 0.905000 6237246
0.182465 -0.175547 0.908000 6106154
0.182867 -0.170733 0.910000 6434342
0.183871 -0.166443 0.915000 6041130
0.184273 -0.161567 0.917000 5120298
0.205089 -0.282117 1.011000 11440294
0.203466 -0.274153 1.003000 10787725
0.201640 -0.266013 0.994000 11432297
0.199814 -0.257976 0.985000 9202014
0.195351 -0.246711 0.963000 9522771
0.194337 -0.239956 0.958000 11040613
0.192714 -0.232524 0.950000 8802915
0.190077 -0.223988 0.937000 11575670
0.187643 -0.215833 0.925000 9728906
0.186020 -0.208727 0.917000 8080716
0.185209 -0.202599 0.913000 7755097
0.182166 -0.194139 0.898000 6308175
0.182166 -0.189008 0.898000 6240061
0.182774 -0.184490 0.901000 6497351
0.183180 -0.179740 0.903000 6174281
0.184194 -0.175547 0.908000 6105641
0.184600 -0.170733 0.910000 6237474
0.185209 -0.166079 0.913000 6041124
0.186020 -0.161567 0.917000 5251884
0.210086 -0.292166 1.026000 12028817
0.206400 -0.281280 1.008000 10790047
0.205376 -0.274153 1.003000 11700109
0.203533 -0.266013 0.994000 11432810
0.202305 -0.258762 0.988000 11563878
0.197186 -0.246711 0.963000 9191509
0.195548 -0.239205 0.955000 10646368
0.194524 -0.232524 0.950000 9066070
0.191862 -0.223988 0.937000 11437684
0.188790 -0.215133 0.922000 9731734
0.187767 -0.208727 0.917000 7882828
0.186948 -0.202599 0.913000 7688789
0.183876 -0.194139 0.898000 6241869
0.183467 -0.188587 0.896000 6108987
0.183876 -0.183876 0.898000 5452093
0.184900 -0.179740 0.903000 6171713
0.185924 -0.175547 0.908000 6105639
0.185924 -0.170358 0.908000 6040610
0.186333 -0.165533 0.910000 5974822
0.187357 -0.161214 0.915000 5383982
0.212040 -0.292166 1.026000 11830166
0.208940 -0.282117 1.011000 10584983
0.207287 -0.274153 1.003000 11705742
0.204807 -0.265210 0.991000 11631466
0.202533 -0.256667 0.980000 11564397
0.199020 -0.246711 0.963000 9985879
0.197367 -0.239205 0.955000 10777435
0.196333 -0.232524 0.950000 9328713
0.193647 -0.223988 0.937000 11175025
0.191167 -0.215833 0.925000 9531041
0.189513 -0.208727 0.917000 7752012
0.188687 -0.202599 0.913000 7688017
0.185173 -0.193707 0.896000 5975626
0.185173 -0.188587 0.896000 6043960
0.185587 -0.183876 0.898000 5120564
0.186620 -0.179740 0.903000 6372408
0.187033 -0.174967 0.905000 5974564
0.187653 -0.170358 0.908000 5974561
0.188067 -0.165533 0.910000 6039848
0.188687 -0.160862 0.913000 5712687
0.213994 -0.292166 1.026000 11635607
0.210240 -0.281280 1.008000 10386846
0.209823 -0.274973 1.006000 11635864
0.206694 -0.265210 0.991000 11828329
0.205026 -0.257452 0.983000 11498349
0.200854 -0.246711 0.963000 10773068
0.199186 -0.239205 0.955000 10843482
0.197726 -0.232034 0.948000 9655382
0.196057 -0.224705 0.940000 10845036
0.192929 -0.215833 0.925000 9395879
0.191260 -0.208727 0.917000 7554635
0.189800 -0.201933 0.910000 7752774
0.186880 -0.193707 0.896000 5717062
0.186880 -0.188587 0.896000 5978168
0.187297 -0.183876 0.898000 4728116
0.187923 -0.179342 0.901000 6639670
0.188757 -0.174967 0.905000 5842469
0.189383 -0.170358 0.908000 5842722
0.189383 -0.165170 0.908000 6106923
0.189800 -0.160333 0.910000 6042401
0.190843 -0.155986 0.915000 5580585
0.215949 -0.292166 1.026000 11830937
0.212160 -0.281280 1.008000 10847141
0.211108 -0.274153 1.003000 11439267
0.208582 -0.265210 0.991000 11566439
0.206898 -0.257452 0.983000 11498604
0.202268 -0.246199 0.961000 10115905
0.201005 -0.239205 0.955000 10318938
0.199531 -0.232034 0.948000 9787491
0.197848 -0.224705 0.940000 10841960
0.194690 -0.215833 0.925000 9792685
0.193007 -0.208727 0.917000 7818315
0.192165 -0.202599 0.913000 7686970
0.189008 -0.194139 0.898000 6108994
0.188587 -0.188587 0.896000 5912376
0.188587 -0.183467 0.896000 4596276
0.189639 -0.179342 0.901000 6243892
0.190481 -0.174967 0.905000 5646374
0.191112 -0.170358 0.908000 5710114
0.191112 -0.165170 0.908000 7490606
0.191533 -0.160333 0.910000 7029522
0.192165 -0.155645 0.913000 6170418
0.217903 -0.292166 1.026000 12030104
0.214080 -0.281280 1.008000 11370400
0.213018 -0.274153 1.003000 11241109
0.210470 -0.265210 0.991000 11370340
0.207496 -0.255881 0.977000 11498081
0.204098 -0.246199 0.961000 9455936
0.202824 -0.239205 0.955000 9791314
0.201337 -0.232034 0.948000 9983582
0.199638 -0.224705 0.940000 10843236
0.196452 -0.215833 0.925000 10186659
0.194753 -0.208727 0.917000 8014414
0.193904 -0.202599 0.913000 7621190
0.190718 -0.194139 0.898000 6505032
0.189869 -0.188166 0.894000 5846845
0.190293 -0.183467 0.896000 4400683
0.190718 -0.178745 0.898000 5854277
0.191780 -0.174580 0.903000 5382689
0.192205 -0.169795 0.905000 5577766
0.192842 -0.165170 0.908000 8800816
0.192842 -0.159981 0.908000 8016678
0.193904 -0.155645 0.913000 6764340
0.216000 -0.281280 1.008000 11240858
0.214929 -0.274153 1.003000 10321032
0.212357 -0.265210 0.991000 10514528
0.209357 -0.255881 0.977000 11299926
0.205929 -0.246199 0.961000 9519166
0.204643 -0.239205 0.955000 10909514
0.203571 -0.232524 0.950000 10051673
0.201429 -0.224705 0.940000 10710113
0.198214 -0.215833 0.925000 10119577
0.196500 -0.208727 0.917000 8474706
0.195000 -0.201933 0.910000 7949650
0.192000 -0.193707 0.896000 6833743
0.190929 -0.187534 0.891000 5846593
0.191571 -0.183057 0.894000 5056035
0.192429 -0.178745 0.898000 5982037
0.193500 -0.174580 0.903000 5186076
0.193929 -0.169795 0.905000 5643817
0.193929 -0.164624 0.905000 9198643
0.194571 -0.159981 0.908000 8213050
0.195000 -0.155133 0.910000 7621174
0.217488 -0.280722 1.006000 11043482
0.216190 -0.273333 1.000000 9400698
0.214245 -0.265210 0.991000 9597274
0.211218 -0.255881 0.977000 11102806
0.208191 -0.246711 0.963000 9586768
0.206462 -0.239205 0.955000 11959882
0.204949 -0.232034 0.948000 10184280
0.203219 -0.224705 0.940000 10578020
0.199976 -0.215833 0.925000 10117279
0.197814 -0.208271 0.915000 8868690
0.196733 -0.201933 0.910000 8277331
0.193707 -0.193707 0.896000 7097427
0.192626 -0.187534 0.891000 5846598
0.193274 -0.183057 0.894000 5646885
0.194139 -0.178745 0.898000 6116443
0.194788 -0.174193 0.901000 4988446
0.195652 -0.169795 0.905000 5706014
0.195652 -0.164624 0.905000 9590843
0.196301 -0.159981 0.908000 8408380
0.196733 -0.155133 0.910000 8406835
0.219404 -0.280722 1.006000 11110041
0.218095 -0.273333 1.000000 8478317
0.216132 -0.265210 0.991000 9398100
0.213079 -0.255881 0.977000 11301974
0.210680 -0.247480 0.966000 9587298
0.208281 -0.239205 0.955000 12753482
0.206754 -0.232034 0.948000 8733271
0.205010 -0.224705 0.940000 10904167
0.201738 -0.215833 0.925000 10448036
0.199557 -0.208271 0.915000 9262931
0.198030 -0.201490 0.908000 8738131
0.195413 -0.193707 0.896000 7558744
0.194323 -0.187534 0.891000 5978954
0.194323 -0.182443 0.891000 5647400
0.195413 -0.178347 0.896000 5917281
0.195850 -0.173613 0.898000 4857120
0.196940 -0.169420 0.903000 5972242
0.197376 -0.164624 0.905000 8869699
0.197376 -0.159452 0.905000 8211773
0.198030 -0.154792 0.908000 7553328
0.222420 -0.282117 1.011000 11105157
0.220660 -0.274153 1.003000 7494766
0.218020 -0.265210 0.991000 9266780
0.215600 -0.256667 0.980000 11499101
0.212520 -0.247480 0.966000 9588315
0.210760 -0.239956 0.958000 13540708
0.208560 -0.232034 0.948000 7340358
0.206140 -0.223988 0.937000 11167331
0.203500 -0.215833 0.925000 10770583
0.201300 -0.208271 0.915000 9591378
0.199760 -0.201490 0.908000 9131863
0.196680 -0.193274 0.894000 8016726
0.195580 -0.187113 0.889000 6046026
0.196020 -0.182443 0.891000 5582116
0.197120 -0.178347 0.896000 5726531
0.197560 -0.173613 0.898000 4724774
0.198220 -0.169045 0.901000 6231057
0.198660 -0.164260 0.903000 8146741
0.199100 -0.159452 0.905000 8014900
0.199760 -0.154792 0.908000 6700326
0.225011 -0.282954 1.014000 10910577
0.221905 -0.273333 1.000000 7619950
0.219908 -0.265210 0.991000 9526372
0.217467 -0.256667 0.980000 12093284
0.214360 -0.247480 0.966000 10115155
0.211919 -0.239205 0.955000 13544575
0.210366 -0.232034 0.948000 7745333
0.207925 -0.223988 0.937000 11235935
0.205262 -0.215833 0.925000 10512265
0.203043 -0.208271 0.915000 9722706
0.201490 -0.201490 0.908000 9525850
0.199270 -0.194139 0.898000 9067860
0.197273 -0.187113 0.889000 6374474
0.197273 -0.182033 0.889000 5647903
0.198383 -0.177949 0.894000 5786405
0.198827 -0.173227 0.896000 4198700
0.199270 -0.168482 0.898000 6301712
0.200380 -0.164260 0.903000 7681576
0.200824 -0.159452 0.905000 8014890
0.201490 -0.154792 0.908000 6960668
0.225600 -0.281280 1.008000 10713214
0.224481 -0.274153 1.003000 7754612
0.221795 -0.265210 0.991000 9785687
0.219333 -0.256667 0.980000 12616280
0.216871 -0.248249 0.969000 10704708
0.213738 -0.239205 0.955000 13542787
0.212171 -0.232034 0.948000 8138555
0.209710 -0.223988 0.937000 11302507
0.207024 -0.215833 0.925000 10253949
0.204786 -0.208271 0.915000 9787730
0.203219 -0.201490 0.908000 9919578
0.200981 -0.194139 0.898000 10116179
0.198967 -0.187113 0.889000 6637386
0.198967 -0.182033 0.889000 5712939
0.200086 -0.177949 0.894000 5921567
0.200533 -0.173227 0.896000 3675701
0.200981 -0.168482 0.898000 6429463
0.202100 -0.164260 0.903000 7163957
0.202548 -0.159452 0.905000 8083252
0.203219 -0.154792 0.908000 7224103
0.227069 -0.280722 1.006000 10650251
0.225714 -0.273333 1.000000 7818107
0.223683 -0.265210 0.991000 9324617
0.221200 -0.256667 0.980000 12355148
0.218040 -0.247480 0.966000 10574133
0.215557 -0.239205 0.955000 13281672
0.213977 -0.232034 0.948000 8667457
0.211494 -0.223988 0.937000 11764855
0.208786 -0.215833 0.925000 10186096
0.206529 -0.208271 0.915000 9459283
0.204949 -0.201490 0.908000 10051161
0.202691 -0.194139 0.898000 10313298
0.200660 -0.187113 0.889000 6964810
0.200660 -0.182033 0.889000 6106679
0.201789 -0.177949 0.894000 6243609
0.202240 -0.173227 0.896000 3936574
0.202691 -0.168482 0.898000 6629662
0.203820 -0.164260 0.903000 8347971
0.204271 -0.159452 0.905000 8345662
0.204949 -0.154792 0.908000 7159858
0.229440 -0.287040 1.008000 12227999
0.229440 -0.281280 1.008000 10584718
0.227619 -0.273333 1.000000 7886968
0.226253 -0.266013 0.994000 8925760
0.223750 -0.257452 0.983000 12088400
0.219880 -0.247480 0.966000 10439745
0.217376 -0.239205 0.955000 12951682
0.215783 -0.232034 0.948000 9189703
0.212824 -0.223510 0.935000 12221806
0.210548 -0.215833 0.925000 10186334
0.208271 -0.208271 0.915000 9132114
0.205995 -0.200824 0.905000 10182747
0.204402 -0.194139 0.898000 10509396
0.202353 -0.187113 0.889000 7226689
0.202353 -0.182033 0.889000 6434355
0.202809 -0.177351 0.891000 6567721
0.203491 -0.172840 0.894000 4202800
0.204402 -0.168482 0.898000 6887723
0.205540 -0.164260 0.903000 9462082
0.205995 -0.159452 0.905000 8541496
0.206678 -0.154792 0.908000 7094067
0.232049 -0.287894 1.011000 12294306
0.232049 -0.282117 1.011000 10650768
0.229524 -0.273333 1.000000 8212853
0.228147 -0.266013 0.994000 8142134
0.225622 -0.257452 0.983000 10838100
0.221031 -0.246711 0.963000 10706764
0.219195 -0.239205 0.955000 12823677
0.217589 -0.232034 0.948000 9260876
0.214605 -0.223510 0.935000 10580325
0.212310 -0.215833 0.925000 9788747
0.210014 -0.208271 0.915000 9263698
0.207719 -0.200824 0.905000 10182748
0.205653 -0.193707 0.896000 10378327
0.204047 -0.187113 0.889000 7357240
0.204047 -0.182033 0.889000 6564911
0.204047 -0.176953 0.889000 6765112
0.205194 -0.172840 0.894000 4528162
0.206112 -0.168482 0.898000 6694967
0.206801 -0.163896 0.901000 9790786
0.207719 -0.159452 0.905000 8738609
0.207719 -0.154281 0.905000 7618868
0.233974 -0.287894 1.011000 12360354
0.233280 -0.281280 1.008000 10650772
0.231429 -0.273333 1.000000 8478069
0.229346 -0.265210 0.991000 7418435
0.227494 -0.257452 0.983000 9590868
0.222866 -0.246711 0.963000 11033169
0.221014 -0.239205 0.955000 12618355
0.219857 -0.232524 0.950000 9393494
0.215691 -0.222792 0.932000 8869465
0.213377 -0.215133 0.922000 9394510
0.211757 -0.208271 0.915000 9395290
0.209443 -0.200824 0.905000 10183008
0.207360 -0.193707 0.896000 10247260
0.205740 -0.187113 0.889000 7422001
0.205277 -0.181624 0.887000 6630453
0.205740 -0.176953 0.889000 7024443
0.206203 -0.172260 0.891000 4794679
0.207823 -0.168482 0.898000 6565174
0.208517 -0.163896 0.901000 10049332
0.209443 -0.159452 0.905000 8934461
0.209443 -0.154281 0.905000 8079663
0.238700 -0.291311 1.023000 12492451
0.235900 -0.282117 1.011000 10716312
0.233333 -0.273333 1.000000 8606581
0.231233 -0.265210 0.991000 7619407
0.228667 -0.256667 0.980000 9789269
0.224700 -0.246711 0.963000 10644310
0.222833 -0.239205 0.955000 10980712
0.221667 -0.232524 0.950000 8080991
0.218167 -0.223510 0.935000 7939406
0.215833 -0.215833 0.925000 9591632
0.213500 -0.208271 0.915000 10249313
0.211167 -0.200824 0.905000 10248036
0.209067 -0.193707 0.896000 10247522
0.207433 -0.187113 0.889000 7551530
0.206967 -0.181624 0.887000 6760764
0.207433 -0.176953 0.889000 6895678
0.207900 -0.172260 0.891000 5512779
0.209067 -0.168107 0.896000 6762805
0.209533 -0.163350 0.898000 9066022
0.211167 -0.159452 0.905000 7747144
0.211167 -0.154281 0.905000 8343851
0.240649 -0.291311 1.023000 12557470
0.237826 -0.282117 1.011000 10716320
0.235238 -0.273333 1.000000 8673910
0.233827 -0.266013 0.994000 7880785
0.230533 -0.256667 0.980000 9989212
0.227240 -0.247480 0.966000 10318936
0.224652 -0.239205 0.955000 9323359
0.223476 -0.232524 0.950000 6836564
0.219948 -0.223510 0.935000 6961987
0.217595 -0.215833 0.925000 9854802
0.215243 -0.208271 0.915000 11035741
0.212890 -0.200824 0.905000 10313576
0.210773 -0.193707 0.896000 10247008
0.209127 -0.187113 0.889000 7682360
0.208656 -0.181624 0.887000 6894394
0.209127 -0.176953 0.889000 6827050
0.209597 -0.172260 0.891000 6174539
0.210303 -0.167731 0.894000 6961204
0.211244 -0.163350 0.898000 8076836
0.212890 -0.159452 0.905000 6566198
0.212890 -0.154281 0.905000 8606768
0.242597 -0.291311 1.023000 12623001
0.239751 -0.282117 1.011000 10848423
0.237143 -0.273333 1.000000 9132151
0.235720 -0.266013 0.994000 7421522
0.232400 -0.256667 0.980000 10847844
0.228369 -0.246711 0.963000 10909017
0.226471 -0.239205 0.955000 6750551
0.224811 -0.232034 0.948000 6833993
0.221017 -0.222792 0.932000 7752760
0.219357 -0.215833 0.925000 10051156
0.216986 -0.208271 0.915000 11103065
0.214614 -0.200824 0.905000 10315372
0.212954 -0.194139 0.898000 10115679
0.210820 -0.187113 0.889000 7946821
0.210346 -0.181624 0.887000 7491384
0.210346 -0.176555 0.887000 7158037
0.210820 -0.171873 0.889000 6632010
0.212480 -0.168107 0.896000 7026994
0.212954 -0.163350 0.898000 7086882
0.214140 -0.159100 0.903000 7819300
0.214140 -0.153940 0.903000 8672822
0.243829 -0.290457 1.020000 12622748
0.240960 -0.281280 1.008000 10981535
0.239048 -0.273333 1.000000 9593978
0.237613 -0.266013 0.994000 6962277
0.234984 -0.257452 0.983000 11693409
0.230203 -0.246711 0.963000 11564124
0.228290 -0.239205 0.955000 4212059
0.227095 -0.232524 0.950000 6902100
0.222792 -0.222792 0.932000 8539471
0.221119 -0.215833 0.925000 10312791
0.219207 -0.208727 0.917000 11168347
0.216338 -0.200824 0.905000 10318711
0.214665 -0.194139 0.898000 9919067
0.212513 -0.187113 0.889000 8271950
0.211318 -0.181010 0.884000 8015680
0.212035 -0.176555 0.887000 7481630
0.212513 -0.171873 0.889000 7095113
0.213709 -0.167731 0.894000 7093041
0.214665 -0.163350 0.898000 6039081
0.215382 -0.158748 0.901000 9070131
0.215860 -0.153940 0.903000 8738621
0.246494 -0.291311 1.023000 12557471
0.243603 -0.282117 1.011000 11177879
0.241675 -0.274153 1.003000 10383742
0.239507 -0.266013 0.994000 8672887
0.236133 -0.256667 0.980000 11036765
0.232037 -0.246711 0.963000 11368286
0.230110 -0.239205 0.955000 6774879
0.228905 -0.232524 0.950000 8147807
0.224568 -0.222792 0.932000 9271911
0.222881 -0.215833 0.925000 10180442
0.220953 -0.208727 0.917000 10970718
0.217580 -0.200380 0.903000 10385026
0.215893 -0.193707 0.896000 9918550
0.213725 -0.186692 0.887000 8407638
0.212038 -0.180190 0.880000 7818825
0.213002 -0.175958 0.884000 7420455
0.213725 -0.171487 0.887000 7289671
0.214689 -0.167169 0.891000 7290159
0.215893 -0.162987 0.896000 6301231
0.215893 -0.157867 0.896000 9331265
0.217098 -0.153599 0.901000 8804676
0.247714 -0.290457 1.020000 12491425
0.245529 -0.282117 1.011000 11309204
0.242857 -0.273333 1.000000 11107205
0.241400 -0.266013 0.994000 10317428
0.237271 -0.255881 0.977000 10312530
0.233871 -0.246711 0.963000 11237473
0.231443 -0.238704 0.953000 9333096
0.229500 -0.231300 0.945000 9393251
0.225857 -0.222314 0.930000 9989478
0.223914 -0.215133 0.922000 10112343
0.222700 -0.208727 0.917000 10708584
0.219300 -0.200380 0.903000 10453889
0.217600 -0.193707 0.896000 9852759
0.215414 -0.186692 0.887000 8473944
0.214200 -0.180600 0.882000 7556168
0.214686 -0.175958 0.884000 7348765
0.215414 -0.171487 0.887000 7489096
0.216386 -0.167169 0.891000 7552306
0.217114 -0.162623 0.894000 6569533
0.217600 -0.157867 0.896000 9527363
0.218814 -0.153599 0.901000 8804680
0.249657 -0.290457 1.020000 12491939
0.247454 -0.282117 1.011000 11439761
0.244028 -0.272513 0.997000 11238284
0.243293 -0.266013 0.994000 10318960
0.238398 -0.255095 0.974000 8403014
0.235216 -0.246199 0.961000 11303012
0.233258 -0.238704 0.953000 10053745
0.231300 -0.231300 0.945000 9920871
0.226894 -0.221597 0.927000 9525349
0.225670 -0.215133 0.922000 10048339
0.224447 -0.208727 0.917000 10642802
0.221020 -0.200380 0.903000 10516607
0.219307 -0.193707 0.896000 9852760
0.216370 -0.186061 0.884000 8540505
0.215390 -0.180190 0.880000 7490888
0.216370 -0.175958 0.884000 7553043
0.217104 -0.171487 0.887000 7616841
0.217593 -0.166793 0.889000 7618101
0.218817 -0.162623 0.894000 8016203
0.219307 -0.157867 0.896000 9329989
0.219796 -0.153088 0.898000 8870987
0.250860 -0.289603 1.017000 12492195
0.248640 -0.281280 1.008000 11568762
0.246667 -0.273333 1.000000 11305621
0.244447 -0.265210 0.991000 10255990
0.239020 -0.253786 0.969000 6504018
0.237540 -0.246711 0.963000 11370567
0.235567 -0.239205 0.955000 10776435
0.233100 -0.231300 0.945000 10513251
0.229400 -0.222314 0.930000 9000022
0.227427 -0.215133 0.922000 10047313
0.225207 -0.207816 0.913000 10580587
0.222740 -0.200380 0.903000 10582904
0.220520 -0.193274 0.894000 9787739
0.218053 -0.186061 0.884000 8669017
0.217560 -0.180600 0.882000 7424581
0.218053 -0.175958 0.884000 7810846
0.218793 -0.171487 0.887000 7685199
0.219287 -0.166793 0.889000 7683892
0.220520 -0.162623 0.894000 9459529
0.221013 -0.157867 0.896000 9067334
0.221507 -0.153088 0.898000 8870725
0.222740 -0.148780 0.903000 8541247
0.252797 -0.289603 1.017000 13279395
0.250560 -0.281280 1.008000 11304802
0.248571 -0.273333 1.000000 11306143
0.246334 -0.265210 0.991000 10188924
0.240866 -0.253786 0.969000 7222109
0.238877 -0.246199 0.961000 10644777
0.236889 -0.238704 0.953000 10774900
0.234900 -0.231300 0.945000 10645086
0.231171 -0.222314 0.930000 8734535
0.229183 -0.215133 0.922000 9982287
0.227443 -0.208271 0.915000 10713700
0.224957 -0.200824 0.905000 10514544
0.222223 -0.193274 0.894000 9787231
0.219737 -0.186061 0.884000 8672600
0.218743 -0.180190 0.880000 7292738
0.219737 -0.175958 0.884000 7882280
0.220483 -0.171487 0.887000 7552086
0.220980 -0.166793 0.889000 7813939
0.222223 -0.162623 0.894000 9727816
0.222720 -0.157867 0.896000 9067847
0.223217 -0.153088 0.898000 8805184
0.224460 -0.148780 0.903000 8738874
0.252480 -0.281280 1.008000 11032162
0.250476 -0.273333 1.000000 11308192
0.248222 -0.265210 0.991000 10124916
0.243463 -0.254571 0.972000 7947350
0.240708 -0.246199 0.961000 9987901
0.238704 -0.238704 0.953000 10775134
0.236700 -0.231300 0.945000 10778217
0.232943 -0.222314 0.930000 8474955
0.230939 -0.215133 0.922000 9917012
0.229186 -0.208271 0.915000 10847104
0.226681 -0.200824 0.905000 10445165
0.223926 -0.193274 0.894000 9722462
0.221421 -0.186061 0.884000 8674394
0.220419 -0.180190 0.880000 7160382
0.221421 -0.175958 0.884000 8007210
0.221421 -0.170907 0.884000 7422038
0.222673 -0.166793 0.889000 8010281
0.223926 -0.162623 0.894000 9922629
0.224427 -0.157867 0.896000 9002056
0.224928 -0.153088 0.898000 8738874
0.226180 -0.148780 0.903000 8870449
0.254400 -0.281280 1.008000 10839649
0.252381 -0.273333 1.000000 11505058
0.250110 -0.265210 0.991000 9599084
0.245314 -0.254571 0.972000 7616078
0.242538 -0.246199 0.961000 9524305
0.240519 -0.238704 0.953000 10837064
0.238500 -0.231300 0.945000 10975348
0.235219 -0.222792 0.932000 8999247
0.232695 -0.215133 0.922000 9918809
0.230929 -0.208271 0.915000 11250331
0.228405 -0.200824 0.905000 10511721
0.224871 -0.192626 0.891000 9722206
0.222600 -0.185640 0.882000 8541020
0.222095 -0.180190 0.880000 7029051
0.223105 -0.175958 0.884000 8012587
0.223862 -0.171487 0.887000 7418967
0.224367 -0.166793 0.889000 8011550
0.225629 -0.162623 0.894000 10186306
0.226133 -0.157867 0.896000 8870984
0.226638 -0.153088 0.898000 7753013
0.227900 -0.148780 0.903000 7618855
0.256320 -0.281280 1.008000 10702942
0.253523 -0.272513 0.997000 11704231
0.251997 -0.265210 0.991000 9076083
0.247674 -0.255095 0.974000 7223627
0.244877 -0.246711 0.963000 9067093
0.242843 -0.239205 0.955000 10904913
0.240300 -0.231300 0.945000 11173987
0.236486 -0.222314 0.930000 9457741
0.234451 -0.215133 0.922000 9980001
0.232163 -0.207816 0.913000 11635598
0.230129 -0.200824 0.905000 10512231
0.226569 -0.192626 0.891000 9656667
0.224280 -0.185640 0.882000 8345949
0.224280 -0.180600 0.882000 6897208
0.224280 -0.175560 0.882000 8005927
0.225551 -0.171487 0.887000 7422551
0.225551 -0.166418 0.887000 8010792
0.227331 -0.162623 0.894000 10379576
0.227331 -0.157514 0.894000 8674106
0.228349 -0.153088 0.898000 6700087
0.229620 -0.148780 0.903000 6431253
0.258240 -0.281280 1.008000 10576731
0.255422 -0.272513 0.997000 12299948
0.252348 -0.263605 0.985000 8014970
0.249530 -0.255095 0.974000 7950409
