# .PCD v.7 - Point Cloud Data file format
VERSION .7
FIELDS x y z rgb
SIZE 4 4 4 4
TYPE F F F I
COUNT 1 1 1 1
WIDTH 1315
HEIGHT 1
POINTS 1315
DATA ascii
0.376300 -0.043157 0.795000 10717597
0.377720 -0.038760 0.798000 12824754
0.382453 -0.034629 0.808000 13087414
0.384347 -0.030160 0.812000 13545137
0.396824 -0.073957 0.835000 11508642
0.392071 -0.068357 0.825000 9658489
0.389220 -0.063180 0.819000 10575987
0.385893 -0.058000 0.812000 10775153
0.378765 -0.052374 0.797000 10910862
0.376864 -0.047580 0.793000 6840974
0.377814 -0.043157 0.795000 12499366
0.382091 -0.039051 0.804000 13479342
0.383992 -0.034629 0.808000 13545651
0.385893 -0.030160 0.812000 13675441
0.393643 -0.068357 0.825000 10449817
0.390780 -0.063180 0.819000 11038849
0.387440 -0.058000 0.812000 11699598
0.378374 -0.047580 0.793000 9799334
0.379329 -0.043157 0.795000 13086895
0.383623 -0.039051 0.804000 13412267
0.385531 -0.034629 0.808000 13479344
0.395214 -0.068357 0.825000 11243935
0.392340 -0.063180 0.819000 11440022
0.390424 -0.058214 0.815000 12558238
0.396786 -0.068357 0.825000 12165286
0.393900 -0.063180 0.819000 12296362
0.391976 -0.058214 0.815000 12757166
0.396426 -0.063334 0.821000 13084071
0.210346 -0.046462 0.887000 10120537
0.207500 -0.040833 0.875000 9593436
0.211318 -0.046305 0.884000 8276800
0.209167 -0.040833 0.875000 7950150
0.210351 -0.045729 0.873000 8075815
0.209870 -0.040647 0.871000 7881520
0.208371 -0.064554 0.858000 8472649
0.209343 -0.059930 0.862000 7950658
0.209343 -0.055004 0.862000 7226687
0.211043 -0.050485 0.869000 7290674
0.211529 -0.045624 0.871000 7814702
0.211529 -0.040647 0.871000 7879984
0.210495 -0.074533 0.860000 8474185
0.209516 -0.069295 0.856000 7425868
0.209516 -0.064404 0.856000 7483721
0.210495 -0.059790 0.860000 8017216
0.210985 -0.055004 0.862000 7290953
0.212698 -0.050485 0.869000 7158841
0.212698 -0.045519 0.869000 7421493
0.212209 -0.040460 0.867000 7420719
0.212133 -0.074533 0.860000 8277321
0.210653 -0.069133 0.854000 7819080
0.211147 -0.064404 0.856000 6504519
0.211640 -0.059651 0.858000 8083268
0.212627 -0.055004 0.862000 7289664
0.213367 -0.050252 0.865000 7092536
0.213367 -0.045310 0.865000 7027503
0.213367 -0.040367 0.865000 7026476
0.213274 -0.074360 0.858000 8277321
0.212280 -0.069133 0.854000 7818563
0.212280 -0.064253 0.854000 6900038
0.213274 -0.059651 0.858000 7490887
0.213771 -0.054876 0.860000 7091511
0.213771 -0.049962 0.860000 6960694
0.213771 -0.045048 0.860000 6896170
0.213771 -0.040133 0.860000 6829352
0.213771 -0.035219 0.860000 6172457
0.223926 -0.092806 0.894000 11496807
0.223174 -0.087403 0.891000 10314851
0.220920 -0.081480 0.882000 8671834
0.214408 -0.074187 0.856000 8277326
0.213907 -0.069133 0.854000 7817026
0.213406 -0.064103 0.852000 7227457
0.214408 -0.059512 0.856000 6900775
0.214408 -0.054621 0.856000 6897474
0.214408 -0.049730 0.856000 6763828
0.214909 -0.044943 0.858000 6698794
0.214909 -0.040040 0.858000 6698286
0.214408 -0.035055 0.856000 6041386
0.226133 -0.098133 0.896000 11162990
0.226133 -0.093013 0.896000 11759971
0.223105 -0.086716 0.884000 10580074
0.216543 -0.079263 0.858000 9330541
0.216038 -0.074187 0.856000 8671828
0.215029 -0.068971 0.852000 7422529
0.214524 -0.063952 0.850000 7227708
0.214019 -0.058956 0.848000 6899207
0.214019 -0.054110 0.848000 6963278
0.215029 -0.049497 0.852000 6632497
0.215029 -0.044629 0.852000 6698282
0.215029 -0.039760 0.852000 6763571
0.215029 -0.034891 0.852000 6238251
0.229111 -0.098681 0.901000 11164513
0.227840 -0.093013 0.896000 12088162
0.224280 -0.086520 0.882000 10843758
0.221991 -0.080649 0.873000 10054767
0.217160 -0.074013 0.854000 9065051
0.216143 -0.068810 0.850000 7094082
0.214363 -0.063426 0.843000 7161402
0.214871 -0.058748 0.845000 6894878
0.214871 -0.053919 0.845000 7030853
0.215634 -0.049265 0.848000 6566447
0.215634 -0.044419 0.848000 6632231
0.216143 -0.039667 0.850000 6762541
0.216143 -0.034810 0.850000 6434347
0.216651 -0.030023 0.852000 5187374
0.230828 -0.098681 0.901000 11230037
0.230059 -0.093221 0.898000 11956833
0.224935 -0.086128 0.878000 10121843
0.223654 -0.080649 0.873000 10120305
0.218274 -0.073840 0.852000 9197153
0.215969 -0.068243 0.843000 7029314
0.214944 -0.063125 0.839000 6964281
0.214944 -0.058330 0.839000 6304821
0.215456 -0.053664 0.841000 7558460
0.215969 -0.048974 0.843000 6499884
0.215969 -0.044157 0.843000 6369572
0.216481 -0.039433 0.845000 6631206
0.217250 -0.034728 0.848000 6761771
0.217250 -0.029882 0.848000 5976627
0.233060 -0.098900 0.903000 11295568
0.231253 -0.093013 0.896000 11825761
0.228156 -0.086716 0.884000 9397092
0.224285 -0.080279 0.869000 10249056
0.219897 -0.073840 0.852000 9266271
0.217058 -0.068081 0.841000 6898248
0.216026 -0.062974 0.837000 6701628
0.216026 -0.058191 0.837000 5780275
0.216026 -0.053409 0.837000 8079929
0.216542 -0.048742 0.839000 6434103
0.217058 -0.044052 0.841000 6106405
0.217574 -0.039340 0.843000 6565672
0.218090 -0.034605 0.845000 7026472
0.218865 -0.029882 0.848000 6766890
0.236080 -0.104636 0.908000 11698576
0.235300 -0.099119 0.905000 11098956
0.233480 -0.093221 0.898000 10971745
0.229320 -0.086520 0.882000 9393494
0.226460 -0.080464 0.871000 9459023
0.221520 -0.073840 0.852000 9597277
0.218140 -0.067919 0.839000 6963534
0.217100 -0.062824 0.835000 6571071
0.217100 -0.058052 0.835000 5911345
0.217100 -0.053281 0.835000 7230263
0.218140 -0.048742 0.839000 6302785
0.218140 -0.043948 0.839000 5843237
0.218660 -0.039247 0.841000 6498090
0.219180 -0.034523 0.843000 8344357
0.219700 -0.029776 0.845000 7818016
0.238333 -0.104867 0.910000 11235714
0.237024 -0.099119 0.905000 10903390
0.235976 -0.093532 0.901000 10119263
0.231000 -0.086520 0.882000 9393752
0.228119 -0.080464 0.871000 8736591
0.224714 -0.074360 0.858000 9920600
0.218690 -0.067595 0.835000 7094609
0.218167 -0.062673 0.833000 6438712
0.218167 -0.057913 0.833000 6042932
0.218167 -0.053153 0.833000 6307383
0.218690 -0.048510 0.835000 6236219
0.219214 -0.043843 0.837000 5514531
0.219214 -0.039060 0.837000 6429214
0.219738 -0.034359 0.839000 9590322
0.220262 -0.029635 0.841000 8801835
0.240858 -0.105212 0.913000 11299187
0.239539 -0.099448 0.908000 10970991
0.237692 -0.093532 0.901000 9986652
0.232680 -0.086520 0.882000 9327963
0.229250 -0.080279 0.869000 8802895
0.225821 -0.074187 0.856000 9131092
0.220809 -0.067757 0.837000 7424852
0.219753 -0.062673 0.833000 6635824
0.219226 -0.057774 0.831000 6108726
0.219753 -0.053153 0.833000 5186615
0.219753 -0.048393 0.833000 6372404
0.220281 -0.043738 0.835000 5382177
0.220281 -0.038967 0.835000 6628881
0.220809 -0.034277 0.837000 9264703
0.221336 -0.029565 0.839000 8737078
0.242597 -0.105212 0.913000 11290475
0.241269 -0.099448 0.908000 10974333
0.239940 -0.093740 0.903000 9855072
0.233829 -0.086324 0.880000 9195603
0.230374 -0.080094 0.867000 8933971
0.226920 -0.074013 0.854000 8278347
0.224529 -0.068405 0.845000 7821412
0.220277 -0.062372 0.829000 6765633
0.219746 -0.057496 0.827000 6174777
0.220277 -0.052898 0.829000 4073772
0.221340 -0.048393 0.833000 6574666
0.221340 -0.043633 0.833000 5185311
0.221340 -0.038873 0.833000 6887954
0.221871 -0.034195 0.835000 8869677
0.222934 -0.029565 0.839000 8606260
0.244336 -0.105212 0.913000 11560803
0.243533 -0.099667 0.910000 10647435
0.241660 -0.093740 0.903000 9523300
0.234970 -0.086128 0.878000 8865099
0.232026 -0.080094 0.867000 8736855
0.228011 -0.073840 0.852000 8014914
0.226138 -0.068405 0.845000 8083315
0.221321 -0.062222 0.827000 6895697
0.220786 -0.057357 0.825000 6503483
0.221321 -0.052770 0.827000 5056289
0.221856 -0.048161 0.829000 6441567
0.222391 -0.043529 0.831000 4791837
0.222391 -0.038780 0.831000 6759699
0.222927 -0.034113 0.833000 8933147
0.223462 -0.029424 0.835000 8737329
0.223997 -0.024711 0.837000 6693407
0.245267 -0.099667 0.910000 10255240
0.243380 -0.093740 0.903000 9189715
0.237181 -0.086324 0.880000 8479872
0.233677 -0.080094 0.867000 8604232
0.229634 -0.073840 0.852000 7687754
0.227748 -0.068405 0.845000 8346724
0.222357 -0.062071 0.825000 7030095
0.221818 -0.057218 0.823000 6831928
0.222357 -0.052643 0.825000 5974568
0.222896 -0.048045 0.827000 6380622
0.223435 -0.043424 0.829000 4398116
0.223974 -0.038780 0.831000 6624545
0.223974 -0.034031 0.831000 8935722
0.224513 -0.029353 0.833000 8934452
0.224513 -0.024593 0.833000 7224868
0.247814 -0.105212 0.913000 11692393
0.247000 -0.099667 0.910000 9991301
0.245643 -0.093948 0.905000 9987138
0.238857 -0.086324 0.880000 10263733
0.235329 -0.080094 0.867000 9066552
0.231257 -0.073840 0.852000 8015955
0.229357 -0.068405 0.845000 8541780
0.223929 -0.062071 0.825000 8079693
0.223386 -0.057218 0.823000 7160885
0.223386 -0.052515 0.823000 6237231
0.223929 -0.047929 0.825000 6309437
0.225014 -0.043424 0.829000 4725546
0.225014 -0.038687 0.829000 6497327
0.225557 -0.034031 0.831000 9727289
0.225557 -0.029283 0.831000 9132598
0.226100 -0.024593 0.833000 7687209
0.250647 -0.105673 0.917000 11562878
0.248733 -0.099667 0.910000 9658239
0.246820 -0.093740 0.903000 10847353
0.240533 -0.086324 0.880000 11967144
0.236980 -0.080094 0.867000 9460588
0.233427 -0.074013 0.854000 8278354
0.230967 -0.068405 0.845000 8802901
0.225500 -0.062071 0.825000 9130570
0.224407 -0.057079 0.821000 7556663
0.224953 -0.052515 0.823000 6499627
0.224953 -0.047812 0.823000 6307897
0.225500 -0.043214 0.825000 4988464
0.226047 -0.038593 0.827000 6365487
0.226593 -0.033950 0.829000 10443816
0.226593 -0.029212 0.829000 9396259
0.227140 -0.024534 0.831000 8080425
0.252393 -0.105673 0.917000 11633555
0.251292 -0.099995 0.913000 9126010
0.246063 -0.092806 0.894000 11308719
0.242210 -0.086324 0.880000 11499419
0.238081 -0.079910 0.865000 10188448
0.235053 -0.074013 0.854000 8212560
0.232576 -0.068405 0.845000 9065814
0.226521 -0.061921 0.823000 9591879
0.225970 -0.057079 0.821000 7552312
0.225970 -0.052388 0.821000 6761768
0.226521 -0.047812 0.823000 6700085
0.226521 -0.043110 0.823000 4659253
0.227071 -0.038500 0.825000 6498351
0.227622 -0.033868 0.827000 8998422
0.227622 -0.029142 0.827000 8869904
0.227622 -0.024416 0.827000 8604712
0.254140 -0.105673 0.917000 11705254
0.253031 -0.099995 0.913000 8538488
0.247766 -0.092806 0.894000 11770533
0.243886 -0.086324 0.880000 11043991
0.240283 -0.080094 0.867000 10912425
0.236680 -0.074013 0.854000 8080724
0.233631 -0.068243 0.843000 9261911
0.228643 -0.062071 0.825000 10050643
0.226980 -0.056940 0.819000 7550511
0.226980 -0.052260 0.819000 7024685
0.227534 -0.047696 0.821000 7089701
0.227534 -0.043005 0.821000 4271932
0.228089 -0.038407 0.823000 6698286
0.228089 -0.033704 0.823000 7487261
0.228643 -0.029071 0.825000 8409632
0.228643 -0.024357 0.825000 9062703
0.256724 -0.106019 0.920000 11704248
0.254770 -0.099995 0.913000 8469111
0.249469 -0.092806 0.894000 11768475
0.246120 -0.086520 0.882000 10708372
0.242492 -0.080279 0.869000 10980785
0.238307 -0.074013 0.854000 8276312
0.235237 -0.068243 0.843000 9525080
0.231330 -0.062372 0.829000 10248031
0.228540 -0.056940 0.819000 7812901
0.227982 -0.052132 0.817000 7288370
0.227982 -0.047464 0.817000 7158293
0.228540 -0.042900 0.819000 5583172
0.229098 -0.038313 0.821000 6960429
0.229098 -0.033622 0.821000 7090724
0.229656 -0.029001 0.823000 7879215
0.230214 -0.024357 0.825000 9328439
0.230772 -0.019690 0.827000 8802360
0.258476 -0.106019 0.920000 11707822
0.256510 -0.099995 0.913000 8345469
0.251171 -0.092806 0.894000 11761544
0.247800 -0.086520 0.882000 10323088
0.244148 -0.080279 0.869000 11051444
0.240495 -0.074187 0.856000 8406879
0.236281 -0.068081 0.841000 9853782
0.233471 -0.062523 0.831000 10378840
0.229538 -0.056801 0.817000 8009010
0.228976 -0.052005 0.815000 7553335
0.229538 -0.047464 0.817000 7156266
0.228976 -0.042690 0.815000 6832700
0.229538 -0.038127 0.817000 7288876
0.230100 -0.033540 0.819000 6633507
0.231224 -0.029001 0.823000 7353882
0.231224 -0.024298 0.823000 9525051
0.231786 -0.019643 0.825000 8868922
0.260794 -0.106250 0.922000 11570083
0.258249 -0.099995 0.913000 9463682
0.252874 -0.092806 0.894000 11302773
0.248914 -0.086324 0.880000 10649740
0.246369 -0.080464 0.871000 11115191
0.242691 -0.074360 0.858000 8734310
0.237883 -0.068081 0.841000 9985363
0.235054 -0.062523 0.831000 10247761
0.230529 -0.056662 0.815000 8340542
0.230246 -0.051941 0.814000 7818300
0.230246 -0.047290 0.814000 6960958
0.230529 -0.042690 0.815000 7228213
0.231094 -0.038127 0.817000 7552299
0.231094 -0.033458 0.817000 7027233
0.231660 -0.028860 0.819000 7747845
0.232226 -0.024239 0.821000 9656640
0.232226 -0.019548 0.821000 9000508
0.262550 -0.106250 0.922000 11439015
0.261127 -0.100433 0.917000 10578809
0.252584 -0.092079 0.887000 10906227
0.250590 -0.086324 0.880000 10909564
0.248028 -0.080464 0.871000 11184798
0.244326 -0.074360 0.858000 9065069
0.237776 -0.067595 0.835000 10181969
0.236068 -0.062372 0.829000 10116432
0.231796 -0.056592 0.814000 8734530
0.231227 -0.051813 0.812000 8080448
0.231227 -0.047173 0.812000 6764601
0.231796 -0.042638 0.814000 7621182
0.232081 -0.038033 0.815000 7880239
0.232081 -0.033376 0.815000 7420965
0.232650 -0.028790 0.817000 8071461
0.233220 -0.024180 0.819000 9788220
0.233220 -0.019500 0.819000 9132092
0.264307 -0.106250 0.922000 11306923
0.261727 -0.099995 0.913000 10913137
0.254273 -0.092079 0.887000 11106161
0.251693 -0.086128 0.878000 9918829
0.248540 -0.080094 0.867000 11309444
0.245960 -0.074360 0.858000 9590131
0.239940 -0.067757 0.837000 10378319
0.237647 -0.062372 0.829000 10247247
0.232773 -0.056453 0.812000 8867653
0.232200 -0.051686 0.810000 8147012
0.232773 -0.047173 0.812000 7027763
0.232773 -0.042533 0.812000 7820616
0.233347 -0.037987 0.814000 8012083
0.233633 -0.033376 0.815000 7748905
0.234207 -0.028790 0.817000 8406852
0.234207 -0.024121 0.817000 9591096
0.234780 -0.019500 0.819000 9132348
0.271834 -0.119320 0.942000 12228245
0.266063 -0.106250 0.922000 11180709
0.263466 -0.099995 0.913000 11236215
0.255963 -0.092079 0.887000 11238251
0.253366 -0.086128 0.878000 8871524
0.250769 -0.080279 0.869000 11436674
0.248171 -0.074533 0.860000 10052208
0.241534 -0.067757 0.837000 10574673
0.239226 -0.062372 0.829000 10312530
0.234897 -0.056592 0.814000 8999747
0.233743 -0.051686 0.810000 8146241
0.233743 -0.047057 0.810000 7291187
0.234320 -0.042533 0.812000 8014643
0.234320 -0.037893 0.812000 8208944
0.235186 -0.033376 0.815000 8010277
0.235186 -0.028719 0.815000 8741710
0.235186 -0.024062 0.815000 9394749
0.235763 -0.019452 0.817000 9132604
0.273048 -0.119067 0.940000 12293782
0.270724 -0.112728 0.932000 12817297
0.268690 -0.106595 0.925000 10911134
0.265205 -0.099995 0.913000 11503230
0.256781 -0.091768 0.884000 11369573
0.255619 -0.086324 0.880000 8536924
0.252424 -0.080279 0.869000 11569023
0.249810 -0.074533 0.860000 10181484
0.243129 -0.067757 0.837000 10181202
0.240224 -0.062222 0.827000 10312277
0.235867 -0.056453 0.812000 9064512
0.235286 -0.051686 0.810000 8080702
0.235286 -0.047057 0.810000 7355699
0.235286 -0.042429 0.810000 7886366
0.235867 -0.037893 0.812000 8143660
0.236448 -0.033335 0.814000 7944226
0.236738 -0.028719 0.815000 9331543
0.236738 -0.024062 0.815000 9394753
0.237319 -0.019452 0.817000 9132860
0.274838 -0.119067 0.940000 12359569
0.271914 -0.112486 0.930000 12884384
0.270452 -0.106595 0.925000 10650274
0.266944 -0.099995 0.913000 11698816
0.261389 -0.092806 0.894000 11499873
0.255833 -0.085833 0.875000 8216417
0.253494 -0.080094 0.867000 11765866
0.250863 -0.074360 0.858000 10249840
0.245308 -0.067919 0.839000 9787468
0.242384 -0.062372 0.829000 10312789
0.237998 -0.056592 0.814000 9132610
0.236829 -0.051686 0.810000 7947582
0.236244 -0.046941 0.808000 7421750
0.236244 -0.042324 0.808000 7684655
0.236829 -0.037800 0.810000 8143152
0.237413 -0.033253 0.812000 7878947
0.237998 -0.028684 0.814000 9857867
0.238290 -0.024062 0.815000 9395005
0.238290 -0.019405 0.815000 9133107
0.273686 -0.112486 0.930000 13212079
0.272214 -0.106595 0.925000 10642598
0.268683 -0.099995 0.913000 12033155
0.263680 -0.093013 0.896000 11170653
0.257500 -0.085833 0.875000 9529702
0.255146 -0.080094 0.867000 11763797
0.252497 -0.074360 0.858000 10313844
0.246906 -0.067919 0.839000 10049606
0.243374 -0.062222 0.827000 10313046
0.239549 -0.056592 0.814000 9131075
0.238371 -0.051686 0.810000 7881022
0.237783 -0.046941 0.808000 7290424
0.237783 -0.042324 0.808000 7090496
0.237783 -0.037707 0.808000 8341044
0.238371 -0.033171 0.810000 8140580
0.238960 -0.028613 0.812000 9856062
0.239549 -0.024032 0.814000 9461049
0.239843 -0.019405 0.815000 8672554
0.275457 -0.112486 0.930000 13544365
0.273976 -0.106595 0.925000 10635931
0.270422 -0.099995 0.913000 12358274
0.265387 -0.093013 0.896000 10839399
0.261240 -0.086520 0.882000 10776940
0.256797 -0.080094 0.867000 11827290
0.254131 -0.074360 0.858000 10316659
0.248504 -0.067919 0.839000 10245455
0.245542 -0.062372 0.829000 10314079
0.241099 -0.056592 0.814000 9197640
0.239914 -0.051686 0.810000 7749182
0.238730 -0.046825 0.806000 7224885
0.238730 -0.042219 0.806000 6436667
0.239322 -0.037707 0.808000 8602931
0.239322 -0.033090 0.808000 8337960
0.240507 -0.028613 0.812000 9856052
0.241099 -0.024032 0.814000 9526315
0.241395 -0.019405 0.815000 8278324
0.241395 -0.014748 0.815000 7155244
0.277229 -0.112486 0.930000 13939116
0.274844 -0.106250 0.922000 10971280
0.272161 -0.099995 0.913000 11831425
0.267690 -0.093221 0.898000 11170929
0.262324 -0.086324 0.880000 10775411
0.257852 -0.079910 0.865000 11630175
0.255766 -0.074360 0.858000 10380914
0.250102 -0.067919 0.839000 10443863
0.247717 -0.062523 0.831000 10316137
0.242650 -0.056592 0.814000 9393484
0.240861 -0.051558 0.808000 7290685
0.239669 -0.046709 0.804000 7028529
0.239669 -0.042114 0.804000 5644341
0.240265 -0.037613 0.806000 8407858
0.240861 -0.033090 0.808000 8272428
0.241457 -0.028543 0.810000 9325866
0.242053 -0.023973 0.812000 9591838
0.242650 -0.019381 0.814000 7484990
0.242948 -0.014748 0.815000 6099758
0.279000 -0.112486 0.930000 14266288
0.277500 -0.106595 0.925000 11225230
0.273900 -0.099995 0.913000 11240067
0.268800 -0.093013 0.896000 11564910
0.265200 -0.086716 0.884000 10710894
0.259500 -0.079910 0.865000 11430747
0.257400 -0.074360 0.858000 10448237
0.251700 -0.067919 0.839000 10707290
0.249300 -0.062523 0.831000 10315620
0.244500 -0.056662 0.815000 9590613
0.242400 -0.051558 0.808000 6831673
0.240600 -0.046592 0.802000 6896946
0.240600 -0.042010 0.802000 4795438
0.241200 -0.037520 0.804000 8278076
0.241800 -0.033008 0.806000 8207660
0.242400 -0.028472 0.808000 8730155
0.243000 -0.023914 0.810000 9590561
0.243600 -0.019333 0.812000 6695223
0.244200 -0.014730 0.814000 4987943
0.280771 -0.112486 0.930000 14398388
0.279262 -0.106595 0.925000 11234955
0.276243 -0.100214 0.915000 11238022
0.271110 -0.093221 0.898000 11434347
0.266884 -0.086716 0.884000 10445418
0.259638 -0.079448 0.860000 11366231
0.258430 -0.074187 0.856000 10385000
0.253902 -0.068081 0.841000 10248540
0.250279 -0.062372 0.829000 10446175
0.246052 -0.056662 0.815000 9722461
0.242731 -0.051303 0.804000 6634292
0.241524 -0.046476 0.800000 6700083
0.241524 -0.041905 0.800000 5253928
0.241524 -0.037333 0.800000 8213061
0.242128 -0.032844 0.802000 8141869
0.242731 -0.028331 0.804000 7746859
0.243939 -0.023855 0.808000 9457957
0.243939 -0.019238 0.808000 6433327
0.244543 -0.014657 0.810000 4924193
0.282543 -0.112486 0.930000 14530484
0.281024 -0.106595 0.925000 11162246
0.277378 -0.099995 0.913000 11238270
0.273732 -0.093532 0.901000 11369325
0.266745 -0.086128 0.878000 10119534
0.260669 -0.079263 0.858000 11365465
0.259453 -0.074013 0.854000 10252905
0.254289 -0.067757 0.837000 9855583
0.251250 -0.062222 0.827000 10512479
0.246693 -0.056453 0.812000 9855848
0.243655 -0.051175 0.802000 6371380
0.242440 -0.046360 0.798000 6568242
0.243048 -0.041905 0.800000 5647909
0.243048 -0.037333 0.800000 8149831
0.243655 -0.032844 0.802000 8010283
0.244263 -0.028331 0.804000 6764071
0.244870 -0.023796 0.806000 9256994
0.245478 -0.019238 0.808000 6236715
0.245478 -0.014621 0.808000 4857891
0.283397 -0.106826 0.927000 10904960
0.278200 -0.099667 0.910000 10515063
0.275449 -0.093532 0.901000 11236719
0.268417 -0.086128 0.878000 9921137
0.261691 -0.079078 0.856000 10708571
0.261080 -0.074013 0.854000 10516330
0.255883 -0.067757 0.837000 10117730
0.252826 -0.062222 0.827000 10644318
0.248851 -0.056592 0.814000 10054003
0.245183 -0.051175 0.802000 6170419
0.243960 -0.046360 0.798000 6436913
0.244571 -0.041905 0.800000 5974562
0.244571 -0.037333 0.800000 7950921
0.244571 -0.032762 0.800000 8010793
0.245183 -0.028261 0.802000 6829090
0.246406 -0.023796 0.806000 8994848
0.246406 -0.019190 0.806000 6105894
0.247017 -0.014621 0.808000 5186084
0.284548 -0.106595 0.925000 10630268
0.279933 -0.099667 0.910000 9789797
0.277780 -0.093740 0.903000 11168362
0.270090 -0.086128 0.878000 9727083
0.264552 -0.079448 0.860000 10111057
0.262091 -0.073840 0.852000 10711398
0.256862 -0.067595 0.835000 10379614
0.254401 -0.062222 0.827000 10709603
0.250710 -0.056662 0.815000 10319980
0.246095 -0.051048 0.800000 5976884
0.245480 -0.046360 0.798000 6370863
0.245480 -0.041800 0.798000 6303523
0.245480 -0.037240 0.798000 7756628
0.246095 -0.032762 0.800000 8010274
0.246095 -0.028190 0.800000 6894886
0.247326 -0.023737 0.804000 8666661
0.247941 -0.019190 0.806000 5974306
0.248556 -0.014621 0.808000 5448992
0.285381 -0.106250 0.922000 10707575
0.281048 -0.099448 0.908000 9380691
0.279500 -0.093740 0.903000 11105125
0.270214 -0.085637 0.873000 10053734
0.266190 -0.079448 0.860000 10050119
0.263095 -0.073667 0.850000 10775394
0.259071 -0.067757 0.837000 10775130
0.255357 -0.062071 0.825000 10709352
0.252262 -0.056662 0.815000 10053733
0.247619 -0.051048 0.800000 6105397
0.247000 -0.046360 0.798000 6306092
0.247000 -0.041800 0.798000 6500388
0.247000 -0.037240 0.798000 7623263
0.247619 -0.032762 0.800000 8010268
0.247619 -0.028190 0.800000 7222314
0.248238 -0.023678 0.802000 8470314
0.249476 -0.019190 0.806000 5710878
0.249476 -0.014585 0.806000 5712412
0.288071 -0.106595 0.925000 10767734
0.283400 -0.099667 0.910000 9000545
0.281220 -0.093740 0.903000 11038824
0.271877 -0.085637 0.873000 10385772
0.267829 -0.079448 0.860000 9919577
0.264714 -0.073667 0.850000 10774366
0.261289 -0.067919 0.839000 11234906
0.256306 -0.061921 0.823000 10709600
0.253814 -0.056662 0.815000 9790044
0.249143 -0.051048 0.800000 6174518
0.248209 -0.046302 0.797000 6241324
0.248209 -0.041748 0.797000 6632750
0.248209 -0.037193 0.797000 7560269
0.248520 -0.032680 0.798000 7943717
0.249143 -0.028190 0.800000 7548971
0.249766 -0.023678 0.802000 8273197
0.250389 -0.019143 0.804000 5446160
0.251011 -0.014585 0.806000 5909527
0.290460 -0.106826 0.927000 10775413
0.285133 -0.099667 0.910000 8992879
0.275733 -0.091352 0.880000 10974571
0.273540 -0.085637 0.873000 11636851
0.270093 -0.079632 0.862000 10579562
0.266333 -0.073667 0.850000 10246233
0.262887 -0.067919 0.839000 10971226
0.257873 -0.061921 0.823000 10774617
0.255053 -0.056592 0.814000 9328978
0.251920 -0.051303 0.804000 6698040
0.249100 -0.046186 0.795000 6437676
0.249100 -0.041643 0.795000 6765112
0.249727 -0.037193 0.797000 7491130
0.250040 -0.032680 0.798000 7943726
0.250667 -0.028190 0.800000 7615532
0.250667 -0.023619 0.800000 8537392
0.251293 -0.019095 0.802000 4723457
0.252547 -0.014585 0.806000 5909779
0.293171 -0.112486 0.930000 14660267
0.292226 -0.106826 0.927000 10838388
0.286236 -0.099448 0.908000 8938096
0.281823 -0.092806 0.894000 10908272
0.275203 -0.085637 0.873000 12881271
0.272681 -0.079910 0.865000 11171930
0.267322 -0.073493 0.848000 9723475
0.264485 -0.067919 0.839000 10772306
0.259441 -0.061921 0.823000 10840670
0.256604 -0.056592 0.814000 8868946
0.253451 -0.051303 0.804000 7224894
0.250614 -0.046186 0.795000 6700069
0.249984 -0.041538 0.793000 6831158
0.250614 -0.037100 0.795000 7428918
0.251560 -0.032680 0.798000 7878446
0.252190 -0.028190 0.800000 7680811
0.252190 -0.023619 0.800000 8732454
0.252821 -0.019095 0.802000 3936274
0.253451 -0.014549 0.804000 5842961
0.294943 -0.112486 0.930000 14663849
0.293357 -0.106595 0.925000 10907251
0.288600 -0.099667 0.910000 10189937
0.283526 -0.092806 0.894000 10183796
0.276866 -0.085637 0.873000 13217403
0.274329 -0.079910 0.865000 10512458
0.268937 -0.073493 0.848000 9655117
0.266083 -0.067919 0.839000 10707786
0.261009 -0.061921 0.823000 10841444
0.258154 -0.056592 0.814000 8605010
0.254349 -0.051175 0.802000 7553859
0.252129 -0.046186 0.795000 6830622
0.250860 -0.041433 0.791000 6898741
0.251494 -0.037007 0.793000 7161649
0.252763 -0.032639 0.797000 7812655
0.253080 -0.028120 0.798000 7550250
0.253714 -0.023619 0.800000 8338973
0.253714 -0.019048 0.800000 4331298
0.254349 -0.014512 0.802000 4923664
0.296714 -0.112486 0.930000 14660266
0.295119 -0.106595 0.925000 10971518
0.289695 -0.099448 0.908000 11370099
0.285229 -0.092806 0.894000 9526384
0.278529 -0.085637 0.873000 13539706
0.275976 -0.079910 0.865000 9855313
0.270552 -0.073493 0.848000 9590865
0.268319 -0.068081 0.841000 10705737
0.261938 -0.061770 0.821000 10844787
0.259705 -0.056592 0.814000 8341321
0.255876 -0.051175 0.802000 7817026
0.253005 -0.046070 0.793000 7026734
0.252367 -0.041433 0.791000 6963512
0.252367 -0.036913 0.791000 6961702
0.253005 -0.032475 0.793000 7683372
0.254281 -0.028085 0.797000 7353386
0.254600 -0.023560 0.798000 7944734
0.255238 -0.019048 0.800000 4726053
0.255876 -0.014512 0.802000 4007710
0.256514 -0.009954 0.804000 4859681
0.296881 -0.106595 0.925000 10974601
0.291425 -0.099448 0.908000 12026998
0.285969 -0.092494 0.891000 9987179
0.281796 -0.086128 0.878000 13742201
0.277624 -0.079910 0.865000 8935000
0.272168 -0.073493 0.848000 9459541
0.269921 -0.068081 0.841000 10511175
0.263502 -0.061770 0.821000 10651522
0.260613 -0.056453 0.812000 8145471
0.257404 -0.051175 0.802000 8147522
0.253873 -0.045953 0.791000 7355454
0.253873 -0.041433 0.791000 7227195
0.253873 -0.036913 0.791000 7092762
0.254515 -0.032475 0.793000 7551528
0.255157 -0.028014 0.795000 7287850
0.256120 -0.023560 0.798000 7420447
0.256762 -0.019048 0.800000 5317672
0.256762 -0.014476 0.800000 5582123
0.258046 -0.009954 0.804000 5318441
0.299289 -0.106826 0.927000 11040135
0.293154 -0.099448 0.908000 12682611
0.287666 -0.092494 0.891000 10449262
0.284760 -0.086520 0.882000 13868922
0.279271 -0.079910 0.865000 8015451
0.274429 -0.073667 0.850000 9262931
0.271523 -0.068081 0.841000 10312526
0.264420 -0.061620 0.819000 10448753
0.262160 -0.056453 0.812000 7949118
0.259577 -0.051303 0.804000 8474691
0.255380 -0.045953 0.791000 7683900
0.255380 -0.041433 0.791000 7423291
0.255380 -0.036913 0.791000 7219484
0.256026 -0.032475 0.793000 7355695
0.256671 -0.028014 0.795000 7222056
0.257640 -0.023560 0.798000 6894119
0.257640 -0.019000 0.798000 5908773
0.258286 -0.014476 0.800000 7153951
0.258931 -0.009930 0.802000 5776670
0.300405 -0.106595 0.925000 11106437
0.295533 -0.099667 0.910000 12419953
0.289363 -0.092494 0.891000 10778480
0.286440 -0.086520 0.882000 13740666
0.280919 -0.079910 0.865000 8082526
0.276697 -0.073840 0.852000 9790801
0.273125 -0.068081 0.841000 10249044
0.265330 -0.061470 0.817000 10181985
0.263057 -0.056314 0.810000 7883324
0.261109 -0.051303 0.804000 8672068
0.256887 -0.045953 0.791000 7945786
0.256237 -0.041329 0.789000 7620156
0.256887 -0.036913 0.791000 7485982
0.257536 -0.032475 0.793000 7285814
0.257536 -0.027944 0.793000 7091494
0.258835 -0.023530 0.797000 6697263
0.259160 -0.019000 0.798000 5843746
0.259810 -0.014476 0.800000 5578772
0.259810 -0.009905 0.800000 5446675
0.301187 -0.106250 0.922000 11175299
0.296613 -0.099448 0.908000 12158064
0.291060 -0.092494 0.891000 11174521
0.288120 -0.086520 0.882000 13605756
0.283220 -0.080094 0.867000 8148832
0.278320 -0.073840 0.852000 10249825
0.274073 -0.067919 0.839000 10180689
0.266887 -0.061470 0.817000 9918811
0.263947 -0.056175 0.808000 7818305
0.261987 -0.051175 0.802000 8803405
0.258393 -0.045953 0.791000 8207421
0.257740 -0.041329 0.789000 7751231
0.258393 -0.036913 0.791000 7810084
0.259047 -0.032475 0.793000 7158328
0.259047 -0.027944 0.793000 7026214
0.260353 -0.023530 0.797000 6500139
0.260353 -0.018976 0.797000 5779229
0.260680 -0.014440 0.798000 3940377
0.261333 -0.009905 0.800000 5182759
0.302943 -0.106250 0.922000 11174272
0.298343 -0.099448 0.908000 12224112
0.292757 -0.092494 0.891000 11370881
0.289143 -0.086324 0.880000 13542269
0.284871 -0.080094 0.867000 8478562
0.280600 -0.074013 0.854000 10716786
0.276329 -0.068081 0.841000 10445134
0.273700 -0.062673 0.833000 9325910
0.265486 -0.056175 0.808000 7949381
0.263514 -0.051175 0.802000 9459287
0.259900 -0.045953 0.791000 8407104
0.259243 -0.041329 0.789000 7817026
0.259243 -0.036820 0.789000 7880489
0.259900 -0.032393 0.791000 6958394
0.260557 -0.027944 0.793000 7156774
0.261214 -0.023471 0.795000 5844007
0.261871 -0.018976 0.797000 6500120
0.262200 -0.014440 0.798000 6105630
0.262857 -0.009905 0.800000 7094074
0.309656 -0.113332 0.937000 14066070
0.304699 -0.106250 0.922000 11242119
0.300733 -0.099667 0.910000 12221800
0.294454 -0.092494 0.891000 11635828
0.291480 -0.086520 0.882000 13407354
0.285862 -0.079910 0.865000 8805472
0.282227 -0.074013 0.854000 11103079
0.277930 -0.068081 0.841000 10640729
0.275287 -0.062673 0.833000 8672598
0.267686 -0.056314 0.810000 8080711
0.265042 -0.051175 0.802000 10048847
0.260746 -0.045837 0.789000 8669758
0.260746 -0.041329 0.789000 7882301
0.260746 -0.036820 0.789000 8007720
0.261407 -0.032393 0.791000 6765885
0.262068 -0.027944 0.793000 7287591
0.262729 -0.023471 0.795000 5123363
0.263390 -0.018976 0.797000 7221529
0.263720 -0.014440 0.798000 8209447
0.264381 -0.009905 0.800000 9066297
0.310776 -0.113090 0.935000 13736585
0.306455 -0.106250 0.922000 11371918
0.302467 -0.099667 0.910000 11366240
0.296151 -0.092494 0.891000 11567718
0.292495 -0.086324 0.880000 13474935
0.287510 -0.079910 0.865000 9331293
0.283853 -0.074013 0.854000 10707291
0.279532 -0.068081 0.841000 10446179
0.276873 -0.062673 0.833000 8341591
0.269229 -0.056314 0.810000 8212040
0.267234 -0.051303 0.804000 9655368
0.262249 -0.045837 0.789000 8604219
0.261916 -0.041276 0.788000 8012857
0.261916 -0.036773 0.788000 7946791
0.262913 -0.032393 0.791000 7221824
0.262913 -0.027873 0.791000 7222311
0.264243 -0.023471 0.795000 5647135
0.264908 -0.018976 0.797000 7087386
0.265240 -0.014440 0.798000 9462321
0.265905 -0.009905 0.800000 9197112
0.313226 -0.113332 0.937000 13342345
0.308211 -0.106250 0.922000 11570577
0.304200 -0.099667 0.910000 10450027
0.298851 -0.092806 0.894000 11438438
0.293503 -0.086128 0.878000 13470820
0.289826 -0.080094 0.867000 9787746
0.285480 -0.074013 0.854000 10248791
0.280466 -0.067919 0.839000 10247520
0.277791 -0.062523 0.831000 7950172
0.270771 -0.056314 0.810000 8278090
0.268766 -0.051303 0.804000 9196357
0.263751 -0.045837 0.789000 8537914
0.262749 -0.041171 0.786000 8078137
0.263417 -0.036773 0.788000 7878950
0.263751 -0.032311 0.789000 7620933
0.264420 -0.027873 0.791000 7221804
0.265089 -0.023412 0.793000 6106404
0.265757 -0.018929 0.795000 6951701
0.266426 -0.014422 0.797000 10706489
0.266760 -0.009880 0.798000 9328434
0.315010 -0.113332 0.937000 13211529
0.309968 -0.106250 0.922000 11372435
0.306942 -0.099995 0.913000 10975605
0.300554 -0.092806 0.894000 10975846
0.295175 -0.086128 0.878000 11961937
0.292150 -0.080279 0.869000 9851751
0.287107 -0.074013 0.854000 10249300
0.281391 -0.067757 0.837000 10382941
0.279374 -0.062523 0.831000 7882337
0.273995 -0.056662 0.815000 8474700
0.270297 -0.051303 0.804000 8868674
0.265254 -0.045837 0.789000 8275256
0.264246 -0.041171 0.786000 7947577
0.264246 -0.036680 0.786000 7552292
0.264918 -0.032270 0.788000 7821643
0.265927 -0.027873 0.791000 7221808
0.266599 -0.023412 0.793000 6237481
0.267271 -0.018929 0.795000 7284239
0.267944 -0.014422 0.797000 10379841
0.268280 -0.009880 0.798000 9129771
0.316119 -0.113090 0.935000 13079429
0.312738 -0.106595 0.925000 11241875
0.307667 -0.099667 0.910000 11434610
0.302257 -0.092806 0.894000 10520944
0.295833 -0.085833 0.875000 10448481
0.293805 -0.080279 0.869000 9850966
0.288733 -0.074013 0.854000 10249816
0.282986 -0.067757 0.837000 10583395
0.279605 -0.062222 0.827000 7753552
0.276900 -0.056940 0.819000 8605768
0.272505 -0.051430 0.806000 8539712
0.266419 -0.045779 0.788000 8011578
0.265743 -0.041171 0.786000 7750968
0.265743 -0.036680 0.786000 7288362
0.265743 -0.032189 0.786000 8019785
0.266419 -0.027768 0.788000 7221811
0.267433 -0.023353 0.791000 6369066
0.268110 -0.018881 0.793000 7608856
0.269462 -0.014422 0.797000 9987397
0.269800 -0.009880 0.798000 8997936
0.317900 -0.113090 0.935000 12948354
0.314500 -0.106595 0.925000 11241618
0.310420 -0.099995 0.913000 11632495
0.303960 -0.092806 0.894000 11305593
0.298520 -0.086128 0.878000 11039089
0.296140 -0.080464 0.871000 9985860
0.289680 -0.073840 0.852000 10512477
0.284580 -0.067757 0.837000 9792361
0.280500 -0.062071 0.825000 7488831
0.277780 -0.056801 0.817000 8474435
0.274040 -0.051430 0.806000 8078399
0.267920 -0.045779 0.788000 7356475
0.267240 -0.041171 0.786000 7488823
0.267240 -0.036680 0.786000 6827056
0.267240 -0.032189 0.786000 8486471
0.267920 -0.027768 0.788000 7221046
0.268940 -0.023353 0.791000 6499883
0.269620 -0.018881 0.793000 7680032
0.270300 -0.014386 0.795000 10118986
0.271320 -0.009880 0.798000 8601141
0.317971 -0.112486 0.930000 12751245
0.316262 -0.106595 0.925000 11308185
0.311133 -0.099667 0.910000 11828076
0.305663 -0.092806 0.894000 12158826
0.300192 -0.086128 0.878000 11565676
0.297799 -0.080464 0.871000 10116188
0.291303 -0.073840 0.852000 10710369
0.285490 -0.067595 0.835000 9074782
0.281388 -0.061921 0.823000 7227996
0.278652 -0.056662 0.815000 8277850
0.276259 -0.051558 0.808000 7554367
0.268737 -0.045663 0.786000 6766148
0.268053 -0.041067 0.784000 7226679
0.268053 -0.036587 0.784000 6369577
0.268737 -0.032189 0.786000 8940613
0.269421 -0.027768 0.788000 7221557
0.270447 -0.023353 0.791000 6565677
0.271130 -0.018881 0.793000 7744035
0.271130 -0.014350 0.793000 10183506
0.272498 -0.009868 0.797000 8142908
0.319743 -0.112486 0.930000 12685463
0.318024 -0.106595 0.925000 10914207
0.312867 -0.099667 0.910000 11038057
0.308053 -0.093013 0.896000 12026202
0.300833 -0.085833 0.875000 11894888
0.299458 -0.080464 0.871000 10975091
0.293613 -0.074013 0.854000 11104870
0.287081 -0.067595 0.835000 9597011
0.283643 -0.062071 0.825000 7950969
0.279861 -0.056592 0.814000 8610160
0.277110 -0.051430 0.806000 7027776
0.270234 -0.045663 0.786000 6898252
0.269547 -0.041067 0.784000 7226423
0.269547 -0.036587 0.784000 6171682
0.269547 -0.032107 0.784000 9537347
0.270234 -0.027697 0.786000 7156019
0.271266 -0.023294 0.789000 6434863
0.271953 -0.018833 0.791000 8605478
0.272641 -0.014350 0.793000 10313563
0.274016 -0.009868 0.797000 8999747
0.322206 -0.112728 0.932000 12619666
0.320477 -0.106826 0.927000 10587551
0.314600 -0.099667 0.910000 10184814
0.310451 -0.093221 0.898000 11959399
0.302500 -0.085833 0.875000 12156522
0.300426 -0.080279 0.869000 11763830
0.295931 -0.074187 0.856000 11431012
0.287980 -0.067433 0.833000 10185564
0.285214 -0.062071 0.825000 8675185
0.281411 -0.056592 0.814000 8945274
0.278646 -0.051430 0.806000 6504250
0.272423 -0.045779 0.788000 7096404
0.271040 -0.041067 0.784000 7161664
0.271040 -0.036587 0.784000 5912890
0.271040 -0.032107 0.784000 10053959
0.271731 -0.027697 0.786000 7025454
0.272769 -0.023294 0.789000 6303019
0.273460 -0.018833 0.791000 9399104
0.274151 -0.014350 0.793000 10446421
0.275534 -0.009868 0.797000 9919558
0.323286 -0.112486 0.930000 12619406
0.321548 -0.106595 0.925000 10585502
0.316333 -0.099667 0.910000 8934771
0.311467 -0.093013 0.896000 11038067
0.304167 -0.085833 0.875000 11959148
0.302081 -0.080279 0.869000 11895160
0.298257 -0.074360 0.858000 10313826
0.290262 -0.067595 0.835000 9528677
0.286786 -0.062071 0.825000 8872040
0.282962 -0.056592 0.814000 8877188
0.280181 -0.051430 0.806000 7029557
0.273924 -0.045779 0.788000 7425627
0.272533 -0.041067 0.784000 7555913
0.272533 -0.036587 0.784000 6570834
0.272533 -0.032107 0.784000 10189900
0.273229 -0.027697 0.786000 7024937
0.273924 -0.023265 0.788000 6236712
0.274967 -0.018833 0.791000 10120025
0.275662 -0.014350 0.793000 10448208
0.277052 -0.009868 0.797000 9920329
0.325057 -0.112486 0.930000 12554126
0.323310 -0.106595 0.925000 10653600
0.318067 -0.099667 0.910000 7689840
0.313173 -0.093013 0.896000 10182253
0.305833 -0.085833 0.875000 11763306
0.303736 -0.080279 0.869000 12025711
0.300590 -0.074533 0.860000 9134948
0.291153 -0.067433 0.833000 8939116
0.287658 -0.061921 0.823000 9067628
0.283813 -0.056453 0.812000 8881787
0.280318 -0.051175 0.802000 7553340
0.275425 -0.045779 0.788000 7823977
0.273328 -0.040962 0.782000 7884364
0.273328 -0.036493 0.782000 7294029
0.273328 -0.032025 0.782000 10316110
0.274027 -0.027627 0.784000 7089958
0.274726 -0.023206 0.786000 6171945
0.275774 -0.018786 0.789000 10843990
0.276473 -0.014313 0.791000 10447443
0.277172 -0.009818 0.793000 9921099
0.326829 -0.112486 0.930000 12685199
0.325071 -0.106595 0.925000 10784930
0.319800 -0.099667 0.910000 8017517
0.315583 -0.093221 0.898000 10645863
0.306797 -0.085637 0.873000 11763049
0.305391 -0.080279 0.869000 11959909
0.301526 -0.074360 0.858000 9263975
0.292037 -0.067271 0.831000 9466995
0.287820 -0.061620 0.819000 8999535
0.285360 -0.056453 0.812000 9270897
0.280440 -0.050920 0.798000 7619395
0.276926 -0.045779 0.788000 8478838
0.274817 -0.040962 0.782000 8147279
0.274817 -0.036493 0.782000 7752519
0.274817 -0.032025 0.782000 10517841
0.275520 -0.027627 0.784000 7089954
0.276223 -0.023206 0.786000 6301225
0.277277 -0.018786 0.789000 10842451
0.277980 -0.014313 0.791000 10512725
0.278683 -0.009818 0.793000 10183757
0.328600 -0.112486 0.930000 12816527
0.326833 -0.106595 0.925000 10983588
0.322593 -0.099995 0.913000 8347246
0.316587 -0.093013 0.896000 11106402
0.308460 -0.085637 0.873000 11698797
0.305633 -0.079910 0.865000 11892073
0.301747 -0.074013 0.854000 9332327
0.294327 -0.067433 0.833000 9992561
0.289380 -0.061620 0.819000 8936030
0.286907 -0.056453 0.812000 9733226
0.281607 -0.050856 0.797000 7620163
0.278427 -0.045779 0.788000 9138028
0.275600 -0.040857 0.780000 8408653
0.275600 -0.036400 0.780000 8212296
0.276307 -0.032025 0.782000 10644308
0.276307 -0.027556 0.782000 7089183
0.277720 -0.023206 0.786000 6370345
0.278780 -0.018786 0.789000 10842199
0.279487 -0.014313 0.791000 10507842
0.279487 -0.009793 0.791000 10445646
0.329306 -0.112123 0.927000 12751504
0.328595 -0.106595 0.925000 11047589
0.322556 -0.099448 0.908000 8280944
0.318293 -0.093013 0.896000 10512989
0.309412 -0.085441 0.871000 11502194
0.307281 -0.079910 0.865000 11499116
0.303373 -0.074013 0.854000 9131112
0.295913 -0.067433 0.833000 9399663
0.290940 -0.061620 0.819000 8999244
0.288453 -0.056453 0.812000 9530979
0.283125 -0.050856 0.797000 8015427
0.279928 -0.045779 0.788000 10120033
0.276730 -0.040805 0.779000 8473930
0.277086 -0.036400 0.780000 8342601
0.277796 -0.032025 0.782000 10583384
0.277796 -0.027556 0.782000 7023644
0.279217 -0.023206 0.786000 6499369
0.279928 -0.018762 0.788000 11038554
0.280993 -0.014313 0.791000 8725040
0.280993 -0.009793 0.791000 10644815
0.281704 -0.005287 0.793000 8605003
0.331071 -0.112123 0.927000 12685969
0.330357 -0.106595 0.925000 11114659
0.326071 -0.099995 0.913000 8150389
0.319286 -0.092806 0.894000 9986145
0.311071 -0.085441 0.871000 11300971
0.308929 -0.079910 0.865000 11170922
0.305000 -0.074013 0.854000 8870754
0.296786 -0.067271 0.831000 8810854
0.295357 -0.062222 0.827000 9065815
0.290714 -0.056592 0.814000 9398640
0.284643 -0.050856 0.797000 8409414
0.281429 -0.045779 0.788000 11169882
0.278214 -0.040805 0.779000 8476241
0.278214 -0.036353 0.779000 8474696
0.278571 -0.031943 0.780000 10448469
0.279286 -0.027556 0.782000 7022366
0.280000 -0.023147 0.784000 6567724
0.281429 -0.018762 0.788000 11300437
0.281786 -0.014277 0.789000 6891308
0.282500 -0.009793 0.791000 10843961
0.283214 -0.005287 0.793000 9197910
0.332837 -0.112123 0.927000 12686226
0.332119 -0.106595 0.925000 11244961
0.327810 -0.099995 0.913000 8542330
0.320989 -0.092806 0.894000 9855588
0.313449 -0.085637 0.873000 9458789
0.310576 -0.079910 0.865000 11236455
0.306627 -0.074013 0.854000 8671324
0.298369 -0.067271 0.831000 8939100
0.294778 -0.061770 0.821000 9328482
0.292265 -0.056592 0.814000 9663101
0.286161 -0.050856 0.797000 8999497
0.283289 -0.045837 0.789000 10971731
0.278980 -0.040700 0.777000 8605273
0.279698 -0.036353 0.779000 8539719
0.280057 -0.031943 0.780000 10518099
0.280775 -0.027556 0.782000 6957856
0.281493 -0.023147 0.784000 6565168
0.282930 -0.018762 0.788000 11102288
0.283289 -0.014277 0.789000 7348265
0.284007 -0.009793 0.791000 10050594
0.334603 -0.112123 0.927000 12688548
0.332798 -0.106250 0.922000 11377052
0.327745 -0.099448 0.908000 8872065
0.322691 -0.092806 0.894000 9725033
0.317638 -0.086324 0.880000 7559267
0.312224 -0.079910 0.865000 11301477
0.308253 -0.074013 0.854000 8477537
0.302117 -0.067757 0.837000 9135720
0.296342 -0.061770 0.821000 9525853
0.293815 -0.056592 0.814000 9929585
0.287679 -0.050856 0.797000 9523789
0.284791 -0.045837 0.789000 10837586
0.280460 -0.040700 0.777000 8737617
0.280460 -0.036260 0.777000 8606279
0.281543 -0.031943 0.780000 10580311
0.282265 -0.027556 0.782000 6956828
0.282987 -0.023147 0.784000 6565934
0.283709 -0.018714 0.786000 10905412
0.284791 -0.014277 0.789000 7814702
0.285513 -0.009793 0.791000 9260084
0.285513 -0.005273 0.791000 9461328
0.336369 -0.112123 0.927000 13743031
0.334554 -0.106250 0.922000 11768982
0.329474 -0.099448 0.908000 9134471
0.324394 -0.092806 0.894000 9660014
0.316774 -0.085637 0.873000 8280673
0.314597 -0.080094 0.867000 11500130
0.309154 -0.073840 0.852000 8343653
0.304437 -0.067919 0.839000 9201267
0.298631 -0.061921 0.823000 9394264
0.294640 -0.056453 0.812000 9924965
0.289560 -0.050920 0.798000 9852240
0.285206 -0.045663 0.786000 10443601
0.281940 -0.040700 0.777000 9000009
0.281940 -0.036260 0.777000 8539719
0.283029 -0.031943 0.780000 10784091
0.283754 -0.027556 0.782000 6892056
0.284480 -0.023147 0.784000 6762027
0.285206 -0.018714 0.786000 10378807
0.285931 -0.014259 0.788000 9130547
0.286294 -0.009769 0.789000 9918021
0.287020 -0.005273 0.791000 9391168
0.338134 -0.112123 0.927000 14722994
0.337405 -0.106595 0.925000 12226201
0.331204 -0.099448 0.908000 9332614
0.326827 -0.093013 0.896000 9597556
0.318437 -0.085637 0.873000 8936290
0.315519 -0.079910 0.865000 11698547
0.311507 -0.074013 0.854000 8215398
0.305306 -0.067757 0.837000 9331818
0.300199 -0.061921 0.823000 9263965
0.296187 -0.056453 0.812000 9925990
0.290715 -0.050856 0.797000 10115409
0.287432 -0.045779 0.788000 9984591
0.283420 -0.040700 0.777000 9196357
0.283420 -0.036260 0.777000 8540743
0.284150 -0.031902 0.779000 10974555
0.285244 -0.027556 0.782000 6891292
0.285244 -0.023088 0.782000 6959663
0.285973 -0.018667 0.784000 9852979
0.287432 -0.014259 0.788000 10377271
0.287797 -0.009769 0.789000 10506821
0.288527 -0.005273 0.791000 9259328
0.341000 -0.112486 0.930000 14264237
0.339167 -0.106595 0.925000 12555420
0.332933 -0.099448 0.908000 9593990
0.327800 -0.092806 0.894000 9728890
0.321933 -0.086128 0.878000 8869732
0.317167 -0.079910 0.865000 11437700
0.313133 -0.074013 0.854000 7885159
0.307633 -0.067919 0.839000 9395808
0.301767 -0.061921 0.823000 9394530
0.297000 -0.056314 0.810000 10383463
0.292233 -0.050856 0.797000 10312786
0.288933 -0.045779 0.788000 10181453
0.284900 -0.040700 0.777000 9262145
0.284900 -0.036260 0.777000 8605767
0.285633 -0.031902 0.779000 10913883
0.286733 -0.027556 0.782000 6826784
0.287467 -0.023147 0.784000 7222066
0.287467 -0.018667 0.784000 9192751
0.288933 -0.014259 0.788000 10179644
0.289300 -0.009769 0.789000 10310725
0.290033 -0.005273 0.791000 9388863
0.342771 -0.112486 0.930000 13803934
0.339823 -0.106250 0.922000 12869777
0.335400 -0.099667 0.910000 9859462
0.329503 -0.092806 0.894000 9863551
0.325080 -0.086520 0.882000 8804701
0.319551 -0.080094 0.867000 11245687
0.314760 -0.074013 0.854000 7494507
0.308494 -0.067757 0.837000 9525624
0.302597 -0.061770 0.821000 9528153
0.299280 -0.056453 0.812000 10842972
0.293014 -0.050729 0.795000 10510162
0.290434 -0.045779 0.788000 10378318
0.286380 -0.040700 0.777000 9327686
0.286380 -0.036260 0.777000 8737862
0.287117 -0.031902 0.779000 10842461
0.288223 -0.027556 0.782000 6760740
0.288960 -0.023147 0.784000 7484981
0.288960 -0.018667 0.784000 8533298
0.289697 -0.014223 0.786000 9982270
0.290803 -0.009769 0.789000 10115897
0.291540 -0.005273 0.791000 9455424
0.344543 -0.112486 0.930000 13013903
0.341579 -0.106250 0.922000 12354181
0.337133 -0.099667 0.910000 10776966
0.331206 -0.092806 0.894000 10322051
0.326760 -0.086520 0.882000 8672086
0.321203 -0.080094 0.867000 10977897
0.316387 -0.074013 0.854000 7755631
0.310089 -0.067757 0.837000 9987216
0.303420 -0.061620 0.819000 9659472
0.300827 -0.056453 0.812000 10052432
0.294529 -0.050729 0.795000 10773587
0.291935 -0.045779 0.788000 10378574
0.287860 -0.040700 0.777000 9327691
0.287860 -0.036260 0.777000 8802885
0.288601 -0.031902 0.779000 10583903
0.288971 -0.027486 0.780000 6827815
0.289712 -0.023088 0.782000 7616312
0.290453 -0.018667 0.784000 8272181
0.291194 -0.014223 0.786000 10113089
0.292306 -0.009769 0.789000 10578988
0.292306 -0.005260 0.789000 9521473
0.341473 -0.105673 0.917000 11830161
0.338867 -0.099667 0.910000 11632779
0.333653 -0.093013 0.896000 10783363
0.327695 -0.086324 0.880000 8475482
0.322110 -0.079910 0.865000 10784884
0.318013 -0.074013 0.854000 8018532
0.311683 -0.067757 0.837000 10517364
0.304980 -0.061620 0.819000 9791327
0.302373 -0.056453 0.812000 9262162
0.296043 -0.050729 0.795000 10968655
0.292691 -0.045663 0.786000 10444881
0.289340 -0.040700 0.777000 9327434
0.289340 -0.036260 0.777000 8869194
0.289340 -0.031820 0.777000 10317406
0.290457 -0.027486 0.780000 6958375
0.291202 -0.023088 0.782000 7682359
0.291947 -0.018667 0.784000 8077110
0.292691 -0.014223 0.786000 10247240
0.293809 -0.009769 0.789000 11106876
0.293809 -0.005260 0.789000 9589312
0.344343 -0.106019 0.920000 11964317
0.341723 -0.099995 0.913000 11765393
0.334611 -0.092806 0.894000 10781059
0.329371 -0.086324 0.880000 8475486
0.324506 -0.080094 0.867000 10782846
0.318891 -0.073840 0.852000 8281433
0.313277 -0.067757 0.837000 10117464
0.306540 -0.061620 0.819000 9792367
0.303920 -0.056453 0.812000 9065812
0.296809 -0.050601 0.793000 10969931
0.292691 -0.045430 0.782000 10576211
0.290820 -0.040700 0.777000 9458505
0.290820 -0.036260 0.777000 9065550
0.290820 -0.031820 0.777000 10319965
0.291943 -0.027486 0.780000 7025959
0.292691 -0.023088 0.782000 7682614
0.293440 -0.018667 0.784000 8077110
0.294189 -0.014223 0.786000 10775886
0.294937 -0.009756 0.788000 10775371
0.295311 -0.005260 0.789000 9656128
0.347976 -0.106595 0.925000 12096922
0.342333 -0.099667 0.910000 11831441
0.336314 -0.092806 0.894000 10782339
0.330295 -0.086128 0.878000 8411486
0.326157 -0.080094 0.867000 10788218
0.320514 -0.073840 0.852000 8542291
0.313367 -0.067433 0.833000 9787482
0.309605 -0.061921 0.823000 9792104
0.305467 -0.056453 0.812000 8933974
0.298319 -0.050601 0.793000 10968658
0.296438 -0.045779 0.788000 10642005
0.292300 -0.040700 0.777000 9524555
0.292300 -0.036260 0.777000 9196878
0.292300 -0.031820 0.777000 10316892
0.293429 -0.027486 0.780000 7090730
0.294181 -0.023088 0.782000 7682611
0.294933 -0.018667 0.784000 8142652
0.295686 -0.014223 0.786000 11234128
0.296438 -0.009756 0.788000 10511440
0.296814 -0.005260 0.789000 9655872
0.350494 -0.112123 0.927000 12424851
0.349738 -0.106595 0.925000 12228247
0.345957 -0.100214 0.915000 12160145
0.338017 -0.092806 0.894000 10910851
0.332724 -0.086324 0.880000 8147807
0.327809 -0.080094 0.867000 10585205
0.325162 -0.074533 0.860000 8476494
0.314197 -0.067271 0.831000 9920604
0.311172 -0.061921 0.823000 9792097
0.307770 -0.056592 0.814000 9327704
0.299830 -0.050601 0.793000 10904410
0.297183 -0.045663 0.786000 10773078
0.293780 -0.040700 0.777000 9655886
0.293780 -0.036260 0.777000 9262925
0.293780 -0.031820 0.777000 10055004
0.294914 -0.027486 0.780000 7289389
0.295670 -0.023088 0.782000 7813681
0.296427 -0.018667 0.784000 8274497
0.297183 -0.014223 0.786000 11631186
0.297939 -0.009756 0.788000 10379604
0.298317 -0.005260 0.789000 9655360
0.352260 -0.112123 0.927000 12359572
0.351500 -0.106595 0.925000 12425114
