# .PCD v.7 - Point Cloud Data file format
VERSION .7
FIELDS x y z rgb
SIZE 4 4 4 4
TYPE F F F I
COUNT 1 1 1 1
WIDTH 1316
HEIGHT 1
POINTS 1316
DATA ascii
0.201677 -0.072540 0.837000 11361891
0.200713 -0.067433 0.833000 11829360
0.199750 -0.062372 0.829000 10845299
0.199268 -0.057496 0.827000 9729729
0.198304 -0.052515 0.823000 9591637
0.197340 -0.047580 0.819000 11898283
0.196135 -0.042638 0.814000 12359072
0.195653 -0.037893 0.812000 10456223
0.195653 -0.033253 0.812000 5451600
0.196858 -0.028790 0.817000 8549252
0.198304 -0.024298 0.823000 5709387
0.199268 -0.019690 0.827000 6632239
0.201195 -0.015110 0.835000 6501162
0.202641 -0.010412 0.841000 6894381
0.219786 -0.176690 0.905000 11500944
0.219786 -0.171519 0.905000 11103848
0.219786 -0.166348 0.905000 10777451
0.218814 -0.160464 0.901000 10710109
0.217600 -0.154453 0.896000 11042675
0.216386 -0.148500 0.891000 9662837
0.215414 -0.142765 0.887000 8682892
0.214686 -0.137230 0.884000 6701131
0.213229 -0.131282 0.878000 10000483
0.212500 -0.125833 0.875000 9597305
0.211529 -0.120281 0.871000 7685198
0.210557 -0.114774 0.867000 9657179
0.210071 -0.109567 0.865000 8938099
0.208857 -0.104019 0.860000 6306642
0.207886 -0.098644 0.856000 6891853
0.206914 -0.093314 0.852000 8079193
0.205943 -0.088030 0.848000 9930615
0.205214 -0.082890 0.845000 10713709
0.204243 -0.077692 0.841000 10709587
0.202786 -0.072367 0.835000 10646375
0.201814 -0.067271 0.831000 12095348
0.200843 -0.062222 0.827000 10517108
0.200357 -0.057357 0.825000 9862844
0.199871 -0.052515 0.823000 9392717
0.198414 -0.047464 0.817000 11841189
0.197686 -0.042638 0.814000 12162720
0.197200 -0.037893 0.812000 10330275
0.197200 -0.033253 0.812000 3749477
0.197929 -0.028719 0.815000 8548485
0.199386 -0.024239 0.821000 5847624
0.200357 -0.019643 0.825000 6501423
0.202300 -0.015073 0.833000 6566698
0.202786 -0.010338 0.835000 6894381
0.221510 -0.176690 0.905000 11434377
0.221510 -0.171519 0.905000 11236468
0.221510 -0.166348 0.905000 10709871
0.220530 -0.160464 0.901000 10775391
0.219307 -0.154453 0.896000 10911094
0.218083 -0.148500 0.891000 10060676
0.217593 -0.143087 0.889000 8549783
0.216370 -0.137230 0.884000 6766157
0.214901 -0.131282 0.878000 9794150
0.214167 -0.125833 0.875000 9730165
0.213188 -0.120281 0.871000 7686223
0.212209 -0.114774 0.867000 10579045
0.211719 -0.109567 0.865000 9594732
0.210495 -0.104019 0.860000 6109277
0.209516 -0.098644 0.856000 7422278
0.208537 -0.093314 0.852000 8537438
0.207558 -0.088030 0.848000 9858905
0.206824 -0.082890 0.845000 11636330
0.205845 -0.077692 0.841000 9986125
0.204376 -0.072367 0.835000 11173483
0.203397 -0.067271 0.831000 11962743
0.202418 -0.062222 0.827000 10713973
0.201929 -0.057357 0.825000 10125750
0.201439 -0.052515 0.823000 9132358
0.199970 -0.047464 0.817000 11968414
0.199236 -0.042638 0.814000 12096929
0.198747 -0.037893 0.812000 10983846
0.198747 -0.033253 0.812000 5126010
0.199970 -0.028790 0.817000 8877189
0.200950 -0.024239 0.821000 5713221
0.201929 -0.019643 0.825000 6501423
0.203397 -0.015037 0.831000 6566698
0.204376 -0.010338 0.835000 6894636
0.222740 -0.176300 0.903000 11364222
0.223233 -0.171519 0.905000 11370106
0.222740 -0.165980 0.903000 10640483
0.222247 -0.160464 0.901000 10772052
0.221013 -0.154453 0.896000 10845540
0.219780 -0.148500 0.891000 10389117
0.218793 -0.142765 0.887000 8487296
0.218053 -0.137230 0.884000 6766156
0.216573 -0.131282 0.878000 9524565
0.215833 -0.125833 0.875000 9860982
0.214353 -0.120005 0.869000 7753048
0.213860 -0.114774 0.867000 11432811
0.212627 -0.109187 0.862000 10317173
0.212133 -0.104019 0.860000 5852004
0.211640 -0.098874 0.858000 8012881
0.210160 -0.093314 0.852000 8942185
0.208433 -0.087719 0.845000 9784931
0.207940 -0.082694 0.843000 12552044
0.207447 -0.077692 0.841000 9327184
0.205967 -0.072367 0.835000 11630674
0.204980 -0.067271 0.831000 11896176
0.203993 -0.062222 0.827000 10844272
0.203500 -0.057357 0.825000 10396612
0.202513 -0.052388 0.821000 8868175
0.201527 -0.047464 0.817000 12102034
0.200293 -0.042533 0.812000 12030887
0.200293 -0.037893 0.812000 11641762
0.200293 -0.033253 0.812000 6512778
0.201033 -0.028719 0.815000 9269638
0.202020 -0.024180 0.819000 5584719
0.203500 -0.019643 0.825000 6567216
0.204980 -0.015037 0.831000 6567213
0.205967 -0.010338 0.835000 6894893
0.224460 -0.176300 0.903000 11367027
0.224957 -0.171519 0.905000 11701377
0.224460 -0.165980 0.903000 10510934
0.223963 -0.160464 0.901000 8340041
0.222720 -0.154453 0.896000 10117969
0.220980 -0.148167 0.889000 10782838
0.220483 -0.142765 0.887000 7954025
0.219240 -0.136920 0.882000 7226699
0.218246 -0.131282 0.878000 9591619
0.217500 -0.125833 0.875000 9926518
0.216506 -0.120281 0.871000 7753568
0.215511 -0.114774 0.867000 11765618
0.214269 -0.109187 0.862000 10186109
0.213274 -0.103777 0.858000 8217196
0.212777 -0.098644 0.856000 8606043
0.211286 -0.093095 0.850000 10785397
0.210043 -0.087719 0.845000 10051948
0.209546 -0.082694 0.843000 12619375
0.209049 -0.077692 0.841000 9328210
0.207557 -0.072367 0.835000 11697465
0.206563 -0.067271 0.831000 11895400
0.205569 -0.062222 0.827000 10118251
0.205071 -0.057357 0.825000 10591185
0.204077 -0.052388 0.821000 8870232
0.203083 -0.047464 0.817000 11834501
0.201840 -0.042533 0.812000 11962029
0.201840 -0.037893 0.812000 11968670
0.201343 -0.033171 0.810000 6840987
0.202586 -0.028719 0.815000 9667207
0.203580 -0.024180 0.819000 5445465
0.204574 -0.019595 0.823000 6436145
0.206066 -0.015001 0.829000 6305329
0.207557 -0.010338 0.835000 6829358
0.226180 -0.176300 0.903000 11364973
0.226681 -0.171519 0.905000 12027517
0.226180 -0.165980 0.903000 10379355
0.225679 -0.160464 0.901000 5849686
0.224427 -0.154453 0.896000 9395283
0.222673 -0.148167 0.889000 11172205
0.222172 -0.142765 0.887000 7489144
0.220920 -0.136920 0.882000 7620944
0.219918 -0.131282 0.878000 9589586
0.218666 -0.125546 0.873000 9992047
0.217664 -0.120005 0.869000 7820123
0.217163 -0.114774 0.867000 12092533
0.215910 -0.109187 0.862000 10116977
0.214909 -0.103777 0.858000 10513005
0.214408 -0.098644 0.856000 9196892
0.212905 -0.093095 0.850000 12618874
0.211652 -0.087719 0.845000 10380652
0.211151 -0.082694 0.843000 12684396
0.210650 -0.077692 0.841000 9326698
0.209148 -0.072367 0.835000 11760723
0.208146 -0.067271 0.831000 11962226
0.207144 -0.062222 0.827000 9397098
0.206643 -0.057357 0.825000 10797000
0.205641 -0.052388 0.821000 8801886
0.204138 -0.047348 0.815000 11571018
0.203387 -0.042533 0.812000 11832490
0.203387 -0.037893 0.812000 12360600
0.202886 -0.033171 0.810000 7170964
0.203888 -0.028684 0.814000 10058117
0.205140 -0.024180 0.819000 5256800
0.206142 -0.019595 0.823000 6305332
0.207144 -0.014965 0.827000 6043187
0.209148 -0.010338 0.835000 6829103
0.228405 -0.176690 0.905000 11300710
0.227900 -0.171140 0.903000 12159610
0.227900 -0.165980 0.903000 10578016
0.226638 -0.159930 0.898000 6698338
0.226133 -0.154453 0.896000 9330005
0.224367 -0.148167 0.889000 10383716
0.223105 -0.142282 0.884000 7756423
0.222600 -0.136920 0.882000 7818326
0.221590 -0.131282 0.878000 9525601
0.219824 -0.125258 0.871000 9925480
0.219319 -0.120005 0.869000 8016214
0.218814 -0.114774 0.867000 12686200
0.217552 -0.109187 0.862000 9724260
0.216543 -0.103777 0.858000 9728622
0.215533 -0.098413 0.854000 9330013
0.214524 -0.093095 0.850000 12554880
0.213262 -0.087719 0.845000 10974060
0.212757 -0.082694 0.843000 12618345
0.212252 -0.077692 0.841000 9919874
0.210738 -0.072367 0.835000 11896174
0.209224 -0.067110 0.829000 12225148
0.208719 -0.062222 0.827000 9262441
0.208214 -0.057357 0.825000 11252158
0.206700 -0.052260 0.819000 8737123
0.205690 -0.047348 0.815000 10909710
0.204933 -0.042533 0.812000 11634598
0.204429 -0.037800 0.810000 12163217
0.203924 -0.033090 0.808000 6643086
0.205438 -0.028684 0.814000 9928834
0.206195 -0.024121 0.817000 5846632
0.207710 -0.019595 0.823000 6633526
0.208719 -0.014965 0.827000 6370870
0.210738 -0.010338 0.835000 6960688
0.230129 -0.176690 0.905000 11296606
0.229620 -0.171140 0.903000 12290691
0.229111 -0.165612 0.901000 10841957
0.228349 -0.159930 0.898000 7560547
0.227840 -0.154453 0.896000 9265242
0.226060 -0.148167 0.889000 9595493
0.224789 -0.142282 0.884000 8017535
0.224280 -0.136920 0.882000 7950426
0.222500 -0.130833 0.875000 9525596
0.221483 -0.125258 0.871000 9794679
0.220974 -0.120005 0.869000 8212310
0.220466 -0.114774 0.867000 13278322
0.218686 -0.108933 0.860000 9391992
0.218177 -0.103777 0.858000 8871768
0.217160 -0.098413 0.854000 9391958
0.216143 -0.093095 0.850000 12486009
0.214871 -0.087719 0.845000 11630688
0.214363 -0.082694 0.843000 12487536
0.213854 -0.077692 0.841000 10583161
0.212329 -0.072367 0.835000 12026482
0.210803 -0.067110 0.829000 12487287
0.210294 -0.062222 0.827000 9068647
0.209277 -0.057218 0.823000 11782331
0.208260 -0.052260 0.819000 8602727
0.207243 -0.047348 0.815000 10313008
0.206480 -0.042533 0.812000 11371408
0.205971 -0.037800 0.810000 12031626
0.205463 -0.033090 0.808000 6120593
0.206480 -0.028613 0.812000 9792899
0.207751 -0.024121 0.817000 6379121
0.209277 -0.019595 0.823000 6896442
0.210294 -0.014965 0.827000 6633268
0.211820 -0.010313 0.833000 7092273
0.231852 -0.176690 0.905000 11233878
0.231340 -0.171140 0.903000 12097677
0.230828 -0.165612 0.901000 11105898
0.230059 -0.159930 0.898000 9599077
0.229547 -0.154453 0.896000 9001567
0.227753 -0.148167 0.889000 9596262
0.226472 -0.142282 0.884000 8085111
0.225448 -0.136610 0.880000 7951198
0.224935 -0.131282 0.878000 9857623
0.223142 -0.125258 0.871000 9598599
0.222630 -0.120005 0.869000 8080981
0.222117 -0.114774 0.867000 13609580
0.220324 -0.108933 0.860000 9791627
0.219811 -0.103777 0.858000 8672579
0.218787 -0.098413 0.854000 9922382
0.217762 -0.093095 0.850000 12156275
0.216481 -0.087719 0.845000 11432788
0.215969 -0.082694 0.843000 12818295
0.215456 -0.077692 0.841000 11239791
0.213919 -0.072367 0.835000 12024951
0.212382 -0.067110 0.829000 11895154
0.211357 -0.062071 0.825000 7883877
0.210845 -0.057218 0.823000 11184055
0.209820 -0.052260 0.819000 8339306
0.208539 -0.047290 0.814000 10182738
0.208027 -0.042533 0.812000 11040379
0.207002 -0.037707 0.808000 12161410
0.206490 -0.033008 0.806000 6644372
0.208027 -0.028613 0.812000 9597316
0.209308 -0.024121 0.817000 7298939
0.210845 -0.019595 0.823000 7027261
0.211870 -0.014965 0.827000 6699058
0.213407 -0.010313 0.833000 7354929
0.233576 -0.176690 0.905000 11102295
0.233060 -0.171140 0.903000 11898247
0.232544 -0.165612 0.901000 11369331
0.231770 -0.159930 0.898000 11630697
0.230737 -0.154109 0.894000 8803672
0.228930 -0.147833 0.887000 9596264
0.228156 -0.142282 0.884000 8152422
0.227124 -0.136610 0.880000 7951708
0.226608 -0.131282 0.878000 10189142
0.224801 -0.125258 0.871000 9402237
0.224285 -0.120005 0.869000 8015963
0.223252 -0.114510 0.865000 13866859
0.221962 -0.108933 0.860000 10250634
0.220930 -0.103535 0.856000 8474709
0.219897 -0.098183 0.852000 10454631
0.218865 -0.092876 0.848000 11828343
0.218865 -0.088030 0.848000 11303266
0.217574 -0.082694 0.843000 13079417
0.216542 -0.077508 0.839000 11894892
0.215510 -0.072367 0.835000 11960181
0.213961 -0.067110 0.829000 11371384
0.212929 -0.062071 0.825000 6638684
0.212412 -0.057218 0.823000 10662578
0.211380 -0.052260 0.819000 8012910
0.210348 -0.047348 0.815000 10049368
0.209573 -0.042533 0.812000 10647413
0.208541 -0.037707 0.808000 12291448
0.208025 -0.033008 0.806000 7108765
0.209057 -0.028543 0.810000 9398919
0.210864 -0.024121 0.817000 8155510
0.211896 -0.019548 0.821000 7158590
0.212929 -0.014929 0.825000 6764852
0.214993 -0.010313 0.833000 7552310
0.215510 -0.005567 0.835000 5517864
0.235300 -0.176690 0.905000 10971223
0.234780 -0.171140 0.903000 11766402
0.233480 -0.165061 0.898000 11567228
0.232960 -0.159573 0.896000 11564653
0.232440 -0.154109 0.894000 8475472
0.230620 -0.147833 0.887000 9928042
0.229840 -0.142282 0.884000 8085589
0.228280 -0.136299 0.878000 8279386
0.227500 -0.130833 0.875000 9924181
0.225940 -0.124970 0.869000 9536371
0.225940 -0.120005 0.869000 7686752
0.224120 -0.114112 0.862000 13015146
0.223600 -0.108933 0.860000 10911369
0.222560 -0.103535 0.856000 9130343
0.221520 -0.098183 0.852000 11240320
0.220480 -0.092876 0.848000 12094843
0.220480 -0.088030 0.848000 11698800
0.219180 -0.082694 0.843000 13017466
0.218140 -0.077508 0.839000 11829097
0.216580 -0.072193 0.833000 11828595
0.215540 -0.067110 0.829000 10976638
0.214500 -0.062071 0.825000 6702931
0.213460 -0.057079 0.821000 10721709
0.212420 -0.052132 0.817000 7749234
0.211900 -0.047348 0.815000 9787486
0.211120 -0.042533 0.812000 10316143
0.210080 -0.037707 0.808000 12093549
0.209560 -0.033008 0.806000 7636134
0.210600 -0.028543 0.810000 9269130
0.212420 -0.024121 0.817000 8882290
0.213460 -0.019548 0.821000 7092543
0.214500 -0.014929 0.825000 6894902
0.216060 -0.010289 0.831000 7421243
0.237024 -0.176690 0.905000 10838616
0.236500 -0.171140 0.903000 11633796
0.235976 -0.165612 0.901000 11765374
0.234667 -0.159573 0.896000 11432300
0.234143 -0.154109 0.894000 8080977
0.232310 -0.147833 0.887000 10253941
0.231524 -0.142282 0.884000 8020569
0.230476 -0.136610 0.880000 8541524
0.229167 -0.130833 0.875000 9723736
0.227595 -0.124970 0.869000 9598583
0.227595 -0.120005 0.869000 7423320
0.226548 -0.114510 0.865000 12157288
0.225238 -0.108933 0.860000 11569539
0.224190 -0.103535 0.856000 9792877
0.223143 -0.098183 0.852000 12026746
0.222095 -0.092876 0.848000 12290676
0.221310 -0.087719 0.845000 12093268
0.220262 -0.082498 0.841000 12948603
0.219738 -0.077508 0.839000 11830147
0.218167 -0.072193 0.833000 11697524
0.217119 -0.067110 0.829000 10584179
0.216071 -0.062071 0.825000 6703182
0.215024 -0.057079 0.821000 10794179
0.214500 -0.052260 0.819000 7488878
0.213452 -0.047348 0.815000 9524064
0.212667 -0.042533 0.812000 9924222
0.211619 -0.037707 0.808000 11895147
0.211095 -0.033008 0.806000 8092312
0.212143 -0.028543 0.810000 9072258
0.213452 -0.024062 0.815000 9603705
0.214500 -0.019500 0.819000 7094341
0.216071 -0.014929 0.825000 6961209
0.217643 -0.010289 0.831000 7290433
0.238748 -0.176690 0.905000 10774104
0.238220 -0.171140 0.903000 11502215
0.237692 -0.165612 0.901000 11240320
0.236373 -0.159573 0.896000 10642796
0.235846 -0.154109 0.894000 8278609
0.233999 -0.147833 0.887000 9863295
0.232680 -0.141960 0.882000 7690077
0.231625 -0.136299 0.878000 8737613
0.230833 -0.130833 0.875000 9658202
0.229250 -0.124970 0.869000 9006715
0.228723 -0.119729 0.867000 7487568
0.228195 -0.114510 0.865000 11960933
0.226876 -0.108933 0.860000 11700349
0.225821 -0.103535 0.856000 10716018
0.224238 -0.097952 0.850000 11829364
0.223710 -0.092876 0.848000 12355949
0.222919 -0.087719 0.845000 10840631
0.221864 -0.082498 0.841000 12753277
0.220809 -0.077323 0.837000 12490652
0.219753 -0.072193 0.833000 11893622
0.218170 -0.066948 0.827000 9330279
0.217643 -0.062071 0.825000 7359561
0.216060 -0.056940 0.819000 11247832
0.216060 -0.052260 0.819000 7352683
0.215005 -0.047348 0.815000 9987426
0.214213 -0.042533 0.812000 10122125
0.213158 -0.037707 0.808000 11763304
0.212103 -0.032926 0.804000 8085130
0.213686 -0.028543 0.810000 9067129
0.214741 -0.024032 0.814000 10796161
0.216060 -0.019500 0.819000 7158858
0.217643 -0.014929 0.825000 7223101
0.219226 -0.010289 0.831000 7421767
0.240471 -0.176690 0.905000 10706774
0.239940 -0.171140 0.903000 11303555
0.239409 -0.165612 0.901000 10717573
0.238080 -0.159573 0.896000 9790828
0.236751 -0.153591 0.891000 8409172
0.235689 -0.147833 0.887000 9402745
0.234891 -0.142282 0.884000 7424863
0.233297 -0.136299 0.878000 8934479
0.232500 -0.130833 0.875000 9590872
0.230906 -0.124970 0.869000 8411749
0.230374 -0.119729 0.867000 7554127
0.229046 -0.114112 0.862000 11761226
0.228514 -0.108933 0.860000 11899769
0.227451 -0.103535 0.856000 11632760
0.225857 -0.097952 0.850000 11631732
0.225326 -0.092876 0.848000 12420204
0.224529 -0.087719 0.845000 9519930
0.223466 -0.082498 0.841000 12551525
0.221871 -0.077138 0.835000 13209986
0.221340 -0.072193 0.833000 12026226
0.219746 -0.066948 0.827000 8080724
0.219214 -0.062071 0.825000 8016724
0.217620 -0.056940 0.819000 11770062
0.217089 -0.052132 0.817000 7160176
0.216557 -0.047348 0.815000 10445145
0.215760 -0.042533 0.812000 10321037
0.214166 -0.037613 0.806000 11565159
0.213634 -0.032926 0.804000 8095652
0.215229 -0.028543 0.810000 9000594
0.216291 -0.024032 0.814000 11968394
0.217089 -0.019452 0.817000 7291968
0.219214 -0.014929 0.825000 7420475
0.220277 -0.010264 0.829000 7487294
0.221340 -0.005553 0.833000 5124154
0.242195 -0.176690 0.905000 10576979
0.241660 -0.171140 0.903000 11104639
0.241125 -0.165612 0.901000 10978442
0.239787 -0.159573 0.896000 9726060
0.238449 -0.153591 0.891000 8277591
0.237378 -0.147833 0.887000 9141363
0.236575 -0.142282 0.884000 7622496
0.234970 -0.136299 0.878000 8868945
0.234167 -0.130833 0.875000 9393749
0.232561 -0.124970 0.869000 7945039
0.232026 -0.119729 0.867000 7487566
0.230688 -0.114112 0.862000 11101487
0.230152 -0.108933 0.860000 11108212
0.228547 -0.103293 0.854000 11965310
0.227476 -0.097952 0.850000 11632243
0.226138 -0.092548 0.845000 10975595
0.225603 -0.087511 0.843000 9656124
0.224532 -0.082302 0.839000 11367758
0.223462 -0.077138 0.835000 12156519
0.222927 -0.072193 0.833000 11829615
0.221856 -0.067110 0.829000 7290688
0.220786 -0.062071 0.825000 8348512
0.219180 -0.056940 0.819000 11245508
0.218645 -0.052132 0.817000 7090548
0.218110 -0.047348 0.815000 10119503
0.217307 -0.042533 0.812000 9923470
0.215701 -0.037613 0.806000 11498086
0.215166 -0.032926 0.804000 10339519
0.216236 -0.028472 0.808000 10059947
0.217842 -0.024032 0.814000 12766868
0.218645 -0.019452 0.817000 7354934
0.220250 -0.014892 0.823000 7420730
0.221856 -0.010264 0.829000 7356213
0.222927 -0.005553 0.833000 5976126
0.243380 -0.176300 0.903000 10510670
0.243380 -0.171140 0.903000 10843773
0.242841 -0.165612 0.901000 11239294
0.241493 -0.159573 0.896000 9662831
0.240146 -0.153591 0.891000 8143939
0.239068 -0.147833 0.887000 8811118
0.238259 -0.142282 0.884000 7817053
0.236642 -0.136299 0.878000 8737617
0.235833 -0.130833 0.875000 9263207
0.234216 -0.124970 0.869000 7424341
0.233677 -0.119729 0.867000 7422289
0.232330 -0.114112 0.862000 10379843
0.231790 -0.108933 0.860000 10320747
0.230712 -0.103535 0.856000 12225646
0.229095 -0.097952 0.850000 11697263
0.227748 -0.092548 0.845000 9464163
0.227209 -0.087511 0.843000 9787475
0.225591 -0.082106 0.837000 10185045
0.225052 -0.077138 0.835000 11103323
0.224513 -0.072193 0.833000 11626848
0.223435 -0.067110 0.829000 6503498
0.222357 -0.062071 0.825000 8609122
0.220740 -0.056940 0.819000 10724268
0.220201 -0.052132 0.817000 6963563
0.219392 -0.047290 0.814000 9854289
0.218314 -0.042429 0.810000 9532043
0.217236 -0.037613 0.806000 11362655
0.216697 -0.032926 0.804000 12560539
0.217775 -0.028472 0.808000 11051903
0.219392 -0.024032 0.814000 13477527
0.220201 -0.019452 0.817000 7488311
0.221818 -0.014892 0.823000 7421495
0.223435 -0.010264 0.829000 7225143
0.245100 -0.176300 0.903000 11236168
0.245100 -0.171140 0.903000 10711164
0.243743 -0.165061 0.898000 10647665
0.243200 -0.159573 0.896000 9795443
0.241843 -0.153591 0.891000 7750702
0.240757 -0.147833 0.887000 9334889
0.239943 -0.142282 0.884000 7884890
0.238314 -0.136299 0.878000 8802385
0.237500 -0.130833 0.875000 9398392
0.235871 -0.124970 0.869000 7690332
0.235329 -0.119729 0.867000 7288916
0.233971 -0.114112 0.862000 10644567
0.233429 -0.108933 0.860000 9001825
0.232343 -0.103535 0.856000 12095070
0.230171 -0.097722 0.848000 11500395
0.229357 -0.092548 0.845000 9722203
0.228814 -0.087511 0.843000 10315882
0.227729 -0.082302 0.839000 10051421
0.226643 -0.077138 0.835000 9852494
0.226100 -0.072193 0.833000 10047312
0.224471 -0.066948 0.827000 8213332
0.223929 -0.062071 0.825000 8809060
0.222300 -0.056940 0.819000 10455443
0.221757 -0.052132 0.817000 6696033
0.220943 -0.047290 0.814000 9854547
0.219857 -0.042429 0.810000 9793672
0.218771 -0.037613 0.806000 11299159
0.218229 -0.032926 0.804000 10580600
0.219314 -0.028472 0.808000 9916498
0.220943 -0.024032 0.814000 13753755
0.221757 -0.019452 0.817000 7551288
0.223386 -0.014892 0.823000 7356212
0.225014 -0.010264 0.829000 7224376
0.246820 -0.176300 0.903000 11963223
0.246820 -0.171140 0.903000 10582389
0.245453 -0.165061 0.898000 10121314
0.244360 -0.159217 0.894000 9927550
0.242993 -0.153247 0.889000 7421495
0.242447 -0.147833 0.887000 9857127
0.241627 -0.142282 0.884000 8016986
0.239987 -0.136299 0.878000 8803164
0.239167 -0.130833 0.875000 9597551
0.237527 -0.124970 0.869000 7952737
0.236980 -0.119729 0.867000 7221584
0.235613 -0.114112 0.862000 10841176
0.235067 -0.108933 0.860000 7755609
0.233973 -0.103535 0.856000 11960931
0.232333 -0.097952 0.850000 11369067
0.230967 -0.092548 0.845000 9988190
0.230420 -0.087511 0.843000 10909539
0.229327 -0.082302 0.839000 9921370
0.228233 -0.077138 0.835000 8667212
0.227687 -0.072193 0.833000 8475477
0.226047 -0.066948 0.827000 9919823
0.224953 -0.061921 0.823000 9004385
0.223860 -0.056940 0.819000 10196133
0.223313 -0.052132 0.817000 6438752
0.222493 -0.047290 0.814000 9854805
0.221400 -0.042429 0.810000 9993607
0.220307 -0.037613 0.806000 11295828
0.219213 -0.032844 0.802000 8545665
0.220307 -0.028402 0.806000 8716617
0.221947 -0.023973 0.812000 13935246
0.223313 -0.019452 0.817000 7619644
0.224953 -0.014892 0.823000 7224110
0.226593 -0.010264 0.829000 7158582
0.248540 -0.176300 0.903000 11894373
0.248540 -0.171140 0.903000 10381421
0.247164 -0.165061 0.898000 10056019
0.246063 -0.159217 0.894000 9993353
0.244687 -0.153247 0.889000 7225919
0.243310 -0.147333 0.884000 9137253
0.242760 -0.141960 0.882000 7885401
0.241659 -0.136299 0.878000 8738408
0.240833 -0.130833 0.875000 9200997
0.239182 -0.124970 0.869000 8215910
0.238631 -0.119729 0.867000 7092300
0.237255 -0.114112 0.862000 11239769
0.236154 -0.108680 0.858000 8213840
0.234503 -0.103051 0.852000 12093289
0.233952 -0.097952 0.850000 11238506
0.232576 -0.092548 0.845000 10711393
0.231475 -0.087304 0.841000 10909787
0.229824 -0.081910 0.835000 9854807
0.229273 -0.076953 0.833000 8735306
0.228723 -0.072020 0.831000 8804441
0.227622 -0.066948 0.827000 10382153
0.226521 -0.061921 0.823000 9986398
0.225420 -0.056940 0.819000 10786743
0.224870 -0.052132 0.817000 6563935
0.223493 -0.047173 0.812000 9921366
0.222943 -0.042429 0.810000 9930117
0.221291 -0.037520 0.804000 11034961
0.220741 -0.032844 0.802000 9334410
0.221842 -0.028402 0.806000 9055551
0.223493 -0.023973 0.812000 13488257
0.224319 -0.019405 0.815000 7748672
0.225970 -0.014856 0.821000 7419432
0.228172 -0.010264 0.829000 7815987
0.250260 -0.176300 0.903000 11828288
0.249706 -0.170761 0.901000 10122351
0.248320 -0.164693 0.896000 10055515
0.247766 -0.159217 0.894000 10057598
0.245826 -0.152902 0.887000 7094083
0.244994 -0.147333 0.884000 8347490
0.244440 -0.141960 0.882000 7818341
0.243331 -0.136299 0.878000 8675944
0.242500 -0.130833 0.875000 8807023
0.240837 -0.124970 0.869000 8479333
0.240283 -0.119729 0.867000 6958402
0.238897 -0.114112 0.862000 11632474
0.237789 -0.108680 0.858000 8673630
0.236680 -0.103293 0.854000 12224372
0.235571 -0.097952 0.850000 11173996
0.234186 -0.092548 0.845000 11370602
0.233077 -0.087304 0.841000 10975353
0.231414 -0.081910 0.835000 9787732
0.230860 -0.076953 0.833000 8800082
0.229751 -0.071847 0.829000 9065810
0.229197 -0.066948 0.827000 10908496
0.228089 -0.061921 0.823000 10906718
0.226980 -0.056940 0.819000 11382974
0.225871 -0.052005 0.815000 6699356
0.225040 -0.047173 0.812000 9987159
0.224486 -0.042429 0.810000 9793410
0.222823 -0.037520 0.804000 10834252
0.222269 -0.032844 0.802000 10123650
0.222823 -0.028331 0.804000 9327992
0.225040 -0.023973 0.812000 13014909
0.226426 -0.019452 0.817000 7817282
0.228089 -0.014892 0.823000 7617585
0.229751 -0.010264 0.829000 8538166
0.251980 -0.176300 0.903000 10971162
0.251422 -0.170761 0.901000 10248817
0.250027 -0.164693 0.896000 10055267
0.248631 -0.158683 0.891000 9992307
0.247515 -0.152902 0.887000 7357767
0.246678 -0.147333 0.884000 8479327
0.245562 -0.141638 0.880000 8282736
0.245004 -0.136299 0.878000 8675944
0.243609 -0.130534 0.873000 8808313
0.242492 -0.124970 0.869000 8612196
0.241376 -0.119452 0.865000 6895160
0.239981 -0.113848 0.860000 12028508
0.239423 -0.108680 0.858000 9724779
0.238307 -0.103293 0.854000 12690048
0.236632 -0.097722 0.848000 9653358
0.235795 -0.092548 0.845000 12230516
0.234679 -0.087304 0.841000 11241878
0.233005 -0.081910 0.835000 9064273
0.232447 -0.076953 0.833000 9329498
0.231330 -0.071847 0.829000 8008268
0.230772 -0.066948 0.827000 10250071
0.229656 -0.061921 0.823000 11038815
0.227982 -0.056801 0.817000 11183300
0.227424 -0.052005 0.815000 6497113
0.226587 -0.047173 0.812000 9856344
0.225470 -0.042324 0.808000 9659263
0.224354 -0.037520 0.804000 10375239
0.223238 -0.032762 0.800000 10322810
0.224354 -0.028331 0.804000 9860016
0.226029 -0.023914 0.810000 12761720
0.227424 -0.019405 0.815000 8012355
0.229098 -0.014856 0.821000 7881019
0.231330 -0.010264 0.829000 8472632
0.253700 -0.176300 0.903000 10049849
0.253138 -0.170761 0.901000 10381422
0.251733 -0.164693 0.896000 10055263
0.250329 -0.158683 0.891000 9859950
0.249205 -0.152902 0.887000 7619658
0.248362 -0.147333 0.884000 8607576
0.247238 -0.141638 0.880000 8809343
0.245833 -0.135833 0.875000 8610662
0.245271 -0.130534 0.873000 8876388
0.244148 -0.124970 0.869000 8675174
0.243024 -0.119452 0.865000 6893632
0.241619 -0.113848 0.860000 12352346
0.240495 -0.108427 0.856000 10774374
0.239371 -0.103051 0.852000 13072497
0.238248 -0.097722 0.848000 8196408
0.236843 -0.092329 0.843000 13080949
0.236281 -0.087304 0.841000 11443859
0.234595 -0.081910 0.835000 8339790
0.234033 -0.076953 0.833000 9922915
0.232910 -0.071847 0.829000 6968922
0.231786 -0.066786 0.825000 9593181
0.230662 -0.061770 0.821000 11170396
0.229538 -0.056801 0.817000 11053735
0.228976 -0.052005 0.815000 6305630
0.227571 -0.047057 0.810000 9724254
0.227010 -0.042324 0.808000 9466237
0.225324 -0.037427 0.802000 9915463
0.224762 -0.032762 0.800000 10516598
0.225886 -0.028331 0.804000 10463657
0.227571 -0.023914 0.810000 12421995
0.228976 -0.019405 0.815000 8211273
0.230100 -0.014820 0.819000 8078397
0.232910 -0.010264 0.829000 8407097
0.255420 -0.176300 0.903000 9919063
0.254854 -0.170761 0.901000 10313068
0.253440 -0.164693 0.896000 10119259
0.252026 -0.158683 0.891000 9597034
0.250894 -0.152902 0.887000 7620428
0.249480 -0.147000 0.882000 8670801
0.248349 -0.141316 0.878000 8940173
0.247500 -0.135833 0.875000 8806245
0.246934 -0.130534 0.873000 9003343
0.245237 -0.124683 0.867000 8940136
0.244671 -0.119452 0.865000 6960712
0.243257 -0.113848 0.860000 11433561
0.242126 -0.108427 0.856000 10777185
0.240994 -0.103051 0.852000 10644066
0.239863 -0.097722 0.848000 7676673
0.238449 -0.092329 0.843000 13084022
0.237883 -0.087304 0.841000 12033424
0.236186 -0.081910 0.835000 7347786
0.235620 -0.076953 0.833000 10382955
0.233923 -0.071673 0.827000 9007977
0.233357 -0.066786 0.825000 10250851
0.232226 -0.061770 0.821000 11564889
0.231094 -0.056801 0.817000 10325386
0.230246 -0.051941 0.814000 6562403
0.229114 -0.047057 0.810000 9660004
0.228549 -0.042324 0.808000 9200507
0.226851 -0.037427 0.802000 9850694
0.226286 -0.032762 0.800000 10781042
0.227417 -0.028331 0.804000 10448545
0.229114 -0.023914 0.810000 11509598
0.230529 -0.019405 0.815000 8340814
0.231660 -0.014820 0.819000 8013118
0.233923 -0.010239 0.827000 8275002
0.257140 -0.176300 0.903000 9785681
0.255716 -0.170192 0.898000 10249066
0.255147 -0.164693 0.896000 10183257
0.253723 -0.158683 0.891000 9333602
0.252584 -0.152902 0.887000 7618901
0.251160 -0.147000 0.882000 8738132
0.250021 -0.141316 0.878000 9136482
0.249167 -0.135833 0.875000 9001306
0.248597 -0.130534 0.873000 9197890
0.246889 -0.124683 0.867000 9139047
0.246319 -0.119452 0.865000 7091265
0.244326 -0.113583 0.858000 10445397
0.243756 -0.108427 0.856000 10845548
0.242617 -0.103051 0.852000 8149346
0.241478 -0.097722 0.848000 7209250
0.240054 -0.092329 0.843000 13082234
0.238915 -0.087096 0.839000 12558225
0.237776 -0.081910 0.835000 6379875
0.237207 -0.076953 0.833000 10776941
0.235498 -0.071673 0.827000 10973799
0.234359 -0.066624 0.823000 10906975
0.233220 -0.061620 0.819000 11956564
0.232650 -0.056801 0.817000 9542279
0.231796 -0.051941 0.814000 6762843
0.230657 -0.047057 0.810000 9528426
0.229518 -0.042219 0.806000 8935277
0.228379 -0.037427 0.802000 9785416
0.227810 -0.032762 0.800000 10976870
0.228379 -0.028261 0.802000 10509905
0.230657 -0.023914 0.810000 10583391
0.231796 -0.019381 0.814000 8472650
0.233220 -0.014820 0.819000 7947324
0.235498 -0.010239 0.827000 8142639
0.258860 -0.176300 0.903000 9590347
0.257427 -0.170192 0.898000 10180969
0.256853 -0.164693 0.896000 10051926
0.255420 -0.158683 0.891000 9068378
0.254273 -0.152902 0.887000 7949149
0.252840 -0.147000 0.882000 8673879
0.251693 -0.141316 0.878000 8540727
0.250833 -0.135833 0.875000 8933199
0.249687 -0.130235 0.871000 9066293
0.248540 -0.124683 0.867000 9011303
0.247107 -0.119038 0.862000 7027258
0.245960 -0.113583 0.858000 9985362
0.245387 -0.108427 0.856000 10975350
0.243667 -0.102810 0.850000 8079971
0.242233 -0.097376 0.845000 7481411
0.241660 -0.092329 0.843000 13016958
0.239940 -0.086889 0.837000 12558993
0.239367 -0.081910 0.835000 9473917
0.238793 -0.076953 0.833000 10710382
0.237073 -0.071673 0.827000 10908006
0.235927 -0.066624 0.823000 10972250
0.234780 -0.061620 0.819000 11760463
0.234207 -0.056801 0.817000 9537411
0.232773 -0.051813 0.812000 6563412
0.231627 -0.046941 0.808000 9659759
0.231053 -0.042219 0.806000 8799071
0.229907 -0.037427 0.802000 9654345
0.229333 -0.032762 0.800000 9859419
0.229907 -0.028261 0.802000 9780993
0.232200 -0.023914 0.810000 10190944
0.233347 -0.019381 0.814000 8538182
0.234780 -0.014820 0.819000 7880761
0.237073 -0.010239 0.827000 7814692
0.260580 -0.176300 0.903000 9457226
0.259137 -0.170192 0.898000 10051682
0.257983 -0.164326 0.894000 9920082
0.256540 -0.158327 0.889000 8808799
0.255963 -0.152902 0.887000 8273480
0.254520 -0.147000 0.882000 8610147
0.253366 -0.141316 0.878000 8012875
0.251923 -0.135523 0.873000 8868175
0.251346 -0.130235 0.871000 8999738
0.250191 -0.124683 0.867000 8874863
0.248171 -0.118762 0.860000 6963776
0.247594 -0.113583 0.858000 9524297
0.247017 -0.108427 0.856000 11171946
0.245286 -0.102810 0.850000 7952228
0.243843 -0.097376 0.845000 7809096
0.243266 -0.092329 0.843000 12949351
0.241534 -0.086889 0.837000 12624793
0.240957 -0.081910 0.835000 12554095
0.239803 -0.076769 0.831000 10644066
0.238649 -0.071673 0.827000 10777199
0.236917 -0.066462 0.821000 11038300
0.236340 -0.061620 0.819000 11496530
0.235186 -0.056662 0.815000 9541278
0.234320 -0.051813 0.812000 6367060
0.233743 -0.047057 0.810000 9803634
0.232011 -0.042114 0.804000 8606056
0.230857 -0.037333 0.800000 9524043
0.230280 -0.032680 0.798000 8736834
0.232011 -0.028331 0.804000 9044247
0.233166 -0.023855 0.808000 9727586
0.234897 -0.019381 0.814000 8605253
0.236340 -0.014820 0.819000 7816260
0.238649 -0.010239 0.827000 7553079
0.261719 -0.175910 0.901000 9261641
0.260267 -0.169813 0.896000 9918812
0.259686 -0.164326 0.894000 9787982
0.258814 -0.158683 0.891000 8877667
0.257652 -0.152902 0.887000 8013106
0.256200 -0.147000 0.882000 8741999
0.255038 -0.141316 0.878000 8215134
0.253586 -0.135523 0.873000 8933712
0.252424 -0.129936 0.869000 9070143
0.251262 -0.124395 0.865000 8677751
0.249810 -0.118762 0.860000 7424069
0.249229 -0.113583 0.858000 8860224
0.248648 -0.108427 0.856000 11170909
0.246905 -0.102810 0.850000 8279142
0.245452 -0.097376 0.845000 7547981
0.244871 -0.092329 0.843000 12621135
0.243129 -0.086889 0.837000 12756128
0.242548 -0.081910 0.835000 11961185
0.241386 -0.076769 0.831000 10710869
0.240224 -0.071673 0.827000 10776440
0.238481 -0.066462 0.821000 10248285
0.237319 -0.061470 0.817000 11563349
0.236738 -0.056662 0.815000 10065337
0.235867 -0.051813 0.812000 6560853
0.235286 -0.047057 0.810000 10456181
0.233543 -0.042114 0.804000 8800880
0.232962 -0.037427 0.802000 9393228
0.232381 -0.032762 0.800000 8401705
0.233543 -0.028331 0.804000 9188141
0.234705 -0.023855 0.808000 9330277
0.236448 -0.019381 0.814000 8604995
0.237900 -0.014820 0.819000 8409424
0.240224 -0.010239 0.827000 7819849
0.263435 -0.175910 0.901000 9064019
0.261973 -0.169813 0.896000 9788505
0.261389 -0.164326 0.894000 9656652
0.259927 -0.158327 0.889000 8938849
0.258465 -0.152385 0.884000 7682380
0.257295 -0.146667 0.880000 8807023
0.256710 -0.141316 0.878000 8416607
0.255249 -0.135523 0.873000 8933711
0.254079 -0.129936 0.869000 9139013
0.252910 -0.124395 0.865000 8415843
0.251448 -0.118762 0.860000 7878983
0.250863 -0.113583 0.858000 8210761
0.249693 -0.108173 0.854000 11168868
0.248524 -0.102810 0.850000 8609377
0.246477 -0.097146 0.843000 7288679
0.245892 -0.092110 0.841000 12287566
0.244723 -0.086889 0.837000 12952485
0.244138 -0.081910 0.835000 11369068
0.243553 -0.076953 0.833000 10775649
0.241799 -0.071673 0.827000 10712433
0.240045 -0.066462 0.821000 9392484
0.238875 -0.061470 0.817000 11628626
0.238290 -0.056662 0.815000 10664631
0.237413 -0.051813 0.812000 6691916
0.236244 -0.046941 0.808000 11117945
0.235074 -0.042114 0.804000 8936300
0.234490 -0.037427 0.802000 9327695
0.233905 -0.032762 0.800000 8079423
0.235074 -0.028331 0.804000 9383734
0.236244 -0.023855 0.808000 8937565
0.237998 -0.019381 0.814000 8539458
0.239460 -0.014820 0.819000 8936278
0.241799 -0.010239 0.827000 8085585
0.264269 -0.175324 0.898000 9064284
0.263680 -0.169813 0.896000 9722711
0.263091 -0.164326 0.894000 9327178
0.261620 -0.158327 0.889000 8739166
0.261031 -0.152902 0.887000 8082278
0.258971 -0.146667 0.880000 8815728
0.257500 -0.140833 0.875000 8413536
0.256911 -0.135523 0.873000 8933711
0.255734 -0.129936 0.869000 8607306
0.254557 -0.124395 0.865000 8348494
0.253086 -0.118762 0.860000 8079688
0.252497 -0.113583 0.858000 8208211
0.251320 -0.108173 0.854000 11369579
0.249554 -0.102568 0.848000 8869724
0.248083 -0.097146 0.843000 8412032
0.248083 -0.092329 0.843000 9859406
0.246317 -0.086889 0.837000 12952489
0.244551 -0.081517 0.831000 10183799
0.243963 -0.076584 0.829000 10580845
0.242197 -0.071327 0.823000 11109482
0.241020 -0.066300 0.819000 9327979
0.239843 -0.061319 0.815000 11170384
0.239549 -0.056592 0.814000 10132661
0.238960 -0.051813 0.812000 7086916
0.237194 -0.046825 0.806000 10849149
0.236017 -0.042010 0.802000 8735336
0.235429 -0.037333 0.800000 9327697
0.234840 -0.032680 0.798000 8672853
0.236017 -0.028261 0.802000 9655614
0.237194 -0.023796 0.806000 8669526
0.239549 -0.019381 0.814000 8211265
0.241020 -0.014820 0.819000 8544605
0.242786 -0.010214 0.825000 7886424
0.265387 -0.174933 0.896000 9063769
0.265387 -0.169813 0.896000 9657690
0.264794 -0.164326 0.894000 9064270
0.263313 -0.158327 0.889000 8543067
0.262721 -0.152902 0.887000 8540262
0.260648 -0.146667 0.880000 8810353
0.258574 -0.140511 0.873000 8351339
0.257982 -0.135212 0.871000 8868176
0.256797 -0.129637 0.867000 8015692
0.255316 -0.123964 0.862000 8281943
0.254131 -0.118486 0.858000 8274526
0.252947 -0.113053 0.854000 8212305
0.251762 -0.107667 0.850000 11566941
0.250281 -0.102205 0.845000 9066839
0.249096 -0.096915 0.841000 9598578
0.248504 -0.091890 0.839000 7360062
0.247319 -0.086681 0.835000 13019282
0.246134 -0.081517 0.831000 8937064
0.244950 -0.076399 0.827000 10449516
0.243765 -0.071327 0.823000 11434091
0.242580 -0.066300 0.819000 9323874
0.241395 -0.061319 0.815000 10710098
0.241099 -0.056592 0.814000 9679023
0.239914 -0.051686 0.810000 7414333
0.238730 -0.046825 0.806000 10584458
0.237545 -0.042010 0.802000 8537445
0.236360 -0.037240 0.798000 9327185
0.236360 -0.032680 0.798000 9198937
0.237545 -0.028261 0.802000 9915205
0.238730 -0.023796 0.806000 8343386
0.241099 -0.019381 0.814000 7883846
0.242580 -0.014820 0.819000 8150885
0.244357 -0.010214 0.825000 7757659
0.266497 -0.174543 0.894000 8932438
0.266497 -0.169434 0.894000 9855069
0.265603 -0.163774 0.891000 8867921
0.264410 -0.157970 0.887000 8612184
0.263516 -0.152385 0.884000 8872037
0.261728 -0.146333 0.878000 8742258
0.260237 -0.140511 0.873000 8480373
0.259045 -0.134902 0.869000 8934225
0.258449 -0.129637 0.867000 8278861
0.256958 -0.123964 0.862000 8412512
0.255766 -0.118486 0.858000 8743028
0.254573 -0.113053 0.854000 8339279
0.253381 -0.107667 0.850000 11236687
0.251294 -0.101963 0.843000 8540753
0.250698 -0.096915 0.841000 8414307
0.250102 -0.091890 0.839000 7209774
0.248910 -0.086681 0.835000 11437179
0.247717 -0.081517 0.831000 7943769
0.246525 -0.076399 0.827000 10580075
0.245332 -0.071327 0.823000 11567980
0.244140 -0.066300 0.819000 9854808
0.242948 -0.061319 0.815000 10382677
0.242650 -0.056592 0.814000 9406888
0.241457 -0.051686 0.810000 7745079
0.240265 -0.046825 0.806000 10584215
0.239072 -0.042010 0.802000 8996194
0.237880 -0.037240 0.798000 9393232
0.237880 -0.032680 0.798000 9597278
0.239072 -0.028261 0.802000 9525067
0.240265 -0.023796 0.806000 8538718
0.242650 -0.019381 0.814000 7948618
0.244140 -0.014820 0.819000 8944237
0.245929 -0.010214 0.825000 7884638
0.268200 -0.174543 0.894000 8866889
0.268200 -0.169434 0.894000 10051670
0.267300 -0.163774 0.891000 8671059
0.266100 -0.157970 0.887000 8610143
0.264600 -0.152040 0.882000 9199203
0.263400 -0.146333 0.878000 8674663
0.261900 -0.140511 0.873000 8613996
0.261300 -0.135212 0.871000 8998983
0.260100 -0.129637 0.867000 8475209
0.258000 -0.123676 0.860000 8545632
0.257400 -0.118486 0.858000 9273708
0.256200 -0.113053 0.854000 8409415
0.255000 -0.107667 0.850000 10971977
0.253500 -0.102205 0.845000 7950415
0.252300 -0.096915 0.841000 7296317
0.251700 -0.091890 0.839000 7088957
0.250500 -0.086681 0.835000 9923171
0.249300 -0.081517 0.831000 6897740
0.248100 -0.076399 0.827000 10713450
0.246900 -0.071327 0.823000 11631210
0.245700 -0.066300 0.819000 10381661
0.244500 -0.061319 0.815000 10051414
0.243600 -0.056453 0.812000 9151657
0.243000 -0.051686 0.810000 8008755
0.241800 -0.046825 0.806000 10648941
0.240600 -0.042010 0.802000 9392986
0.239400 -0.037240 0.798000 9524306
0.239400 -0.032680 0.798000 9986662
0.240600 -0.028261 0.802000 9129551
0.242400 -0.023855 0.808000 8738652
0.244200 -0.019381 0.814000 8077637
0.245700 -0.014820 0.819000 9659992
0.246900 -0.010190 0.823000 7945815
0.269903 -0.174543 0.894000 8603452
0.269903 -0.169434 0.894000 9723728
0.268393 -0.163407 0.889000 8737109
0.266884 -0.157436 0.884000 8676453
0.266280 -0.152040 0.882000 8740705
0.264167 -0.145833 0.875000 8407388
0.263563 -0.140511 0.873000 8876131
0.262355 -0.134902 0.869000 8933693
0.261751 -0.129637 0.867000 8211269
0.259034 -0.123389 0.858000 8548448
0.259034 -0.118486 0.858000 9004644
0.257827 -0.113053 0.854000 8537918
0.256619 -0.107667 0.850000 10841155
0.254506 -0.101963 0.843000 7948876
0.253902 -0.096915 0.841000 6565142
0.253298 -0.091890 0.839000 7620941
0.252090 -0.086681 0.835000 8997194
0.250883 -0.081517 0.831000 7155775
0.249675 -0.076399 0.827000 10645608
0.248468 -0.071327 0.823000 11368552
0.247260 -0.066300 0.819000 10447202
0.246052 -0.061319 0.815000 9660503
0.245147 -0.056453 0.812000 8945322
0.244543 -0.051686 0.810000 8273455
0.243335 -0.046825 0.806000 9985603
0.242128 -0.042010 0.802000 9326162
0.240920 -0.037240 0.798000 9525075
0.240920 -0.032680 0.798000 9723759
0.242128 -0.028261 0.802000 9131346
0.243939 -0.023855 0.808000 8670811
0.246052 -0.019405 0.815000 7487039
0.247260 -0.014820 0.819000 8344899
0.248468 -0.010190 0.823000 7882319
0.272213 -0.174933 0.896000 8405313
0.271606 -0.169434 0.894000 9395280
0.270087 -0.163407 0.889000 8802128
0.268568 -0.157436 0.884000 8741473
0.267352 -0.151695 0.880000 8347742
0.265833 -0.145833 0.875000 8079957
0.264618 -0.140190 0.871000 9143930
0.264010 -0.134902 0.869000 8867136
0.263403 -0.129637 0.867000 8014406
0.260669 -0.123389 0.858000 8480609
0.260669 -0.118486 0.858000 8805972
0.258846 -0.112789 0.852000 8604741
0.257630 -0.107413 0.848000 10776909
0.256111 -0.101963 0.843000 7883343
0.255504 -0.096915 0.841000 5907756
0.254896 -0.091890 0.839000 8148558
0.253073 -0.086473 0.833000 8075077
0.252466 -0.081517 0.831000 7422539
0.250643 -0.076214 0.825000 10580827
0.250035 -0.071327 0.823000 11040876
0.248820 -0.066300 0.819000 10511459
0.247605 -0.061319 0.815000 9266542
0.246693 -0.056453 0.812000 8817836
0.245478 -0.051558 0.808000 8535095
0.244870 -0.046825 0.806000 9261385
0.243655 -0.042010 0.802000 9261131
0.242440 -0.037240 0.798000 9525074
0.242440 -0.032680 0.798000 9396073
0.243655 -0.028261 0.802000 9192538
0.246086 -0.023914 0.810000 8541528
0.247605 -0.019405 0.815000 6962496
0.248820 -0.014820 0.819000 6964299
0.250035 -0.010190 0.823000 7817031
0.273309 -0.174543 0.894000 8340293
0.272391 -0.168866 0.891000 9723728
0.271780 -0.163407 0.889000 8671306
0.270251 -0.157436 0.884000 8939613
0.269029 -0.151695 0.880000 8544347
0.267500 -0.145833 0.875000 8275279
0.266277 -0.140190 0.871000 9073809
0.265666 -0.134902 0.869000 9129538
0.265054 -0.129637 0.867000 7751495
0.262303 -0.123389 0.858000 8683619
0.262303 -0.118486 0.858000 8672323
0.260469 -0.112789 0.852000 8801869
0.259246 -0.107413 0.848000 9984599
0.257717 -0.101963 0.843000 7030867
0.257106 -0.096915 0.841000 7094337
0.256494 -0.091890 0.839000 9071184
0.254660 -0.086473 0.833000 8606016
0.254049 -0.081517 0.831000 8146264
0.252826 -0.076399 0.827000 10117966
0.250991 -0.071153 0.821000 11041649
0.249769 -0.066138 0.817000 10447203
0.249157 -0.061319 0.815000 10259589
0.247629 -0.056314 0.810000 9007022
0.247017 -0.051558 0.808000 8732992
0.246406 -0.046825 0.806000 9261903
0.245183 -0.042010 0.802000 9326405
0.243960 -0.037240 0.798000 9590864
0.243960 -0.032680 0.798000 9330275
0.245183 -0.028261 0.802000 9198178
0.247629 -0.023914 0.810000 8341588
0.249157 -0.019405 0.815000 7094337
0.250380 -0.014820 0.819000 7289682
0.252214 -0.010214 0.825000 7750975
0.275011 -0.174543 0.894000 8209984
0.274089 -0.168866 0.891000 9984853
0.273473 -0.163407 0.889000 8605006
0.271935 -0.157436 0.884000 9072490
0.270090 -0.151350 0.878000 8741214
0.269167 -0.145833 0.875000 8406861
0.267936 -0.140190 0.871000 9011079
0.266706 -0.134591 0.867000 9391684
0.266090 -0.129338 0.865000 7489604
0.263937 -0.123389 0.858000 8800069
0.263322 -0.118210 0.856000 8536377
0.262091 -0.112789 0.852000 8998731
0.260861 -0.107413 0.848000 9196119
0.258708 -0.101721 0.841000 6108241
0.258092 -0.096685 0.839000 8344110
0.257477 -0.091671 0.837000 9923156
0.256247 -0.086473 0.833000 9131331
0.255016 -0.081321 0.829000 8870737
0.253786 -0.076214 0.825000 9721172
0.253170 -0.071327 0.823000 10974821
0.251325 -0.066138 0.817000 10318474
0.250402 -0.061244 0.814000 11175804
0.249171 -0.056314 0.810000 9199261
0.248556 -0.051558 0.808000 8864320
0.247326 -0.046709 0.804000 9262165
0.246095 -0.041905 0.800000 9392200
0.245172 -0.037193 0.797000 9721429
0.245480 -0.032680 0.798000 9265766
0.246710 -0.028261 0.802000 9199980
0.249171 -0.023914 0.810000 8082011
0.250710 -0.019405 0.815000 7291976
0.251940 -0.014820 0.819000 7622749
0.254401 -0.010239 0.827000 7748411
0.276714 -0.174543 0.894000 8208954
0.275786 -0.168866 0.891000 9658970
0.275167 -0.163407 0.889000 8801873
0.273619 -0.157436 0.884000 9536887
0.271762 -0.151350 0.878000 8804704
0.270833 -0.145833 0.875000 7948107
0.268976 -0.139868 0.869000 9007741
0.268357 -0.134591 0.867000 9065286
0.267738 -0.129338 0.865000 7292225
0.265571 -0.123389 0.858000 7733544
0.264952 -0.118210 0.856000 8011567
0.264333 -0.113053 0.854000 8933194
0.262476 -0.107413 0.848000 9529174
0.260310 -0.101721 0.841000 5315408
0.259690 -0.096685 0.839000 8476442
0.259071 -0.091671 0.837000 9594968
0.257833 -0.086473 0.833000 8540229
0.256595 -0.081321 0.829000 9332810
0.255357 -0.076214 0.825000 8935002
0.254738 -0.071327 0.823000 10577241
0.252881 -0.066138 0.817000 10388144
0.251952 -0.061244 0.814000 10518899
0.250714 -0.056314 0.810000 9197451
0.250095 -0.051558 0.808000 9061953
0.248238 -0.046592 0.802000 9589595
0.247619 -0.041905 0.800000 9523532
0.246690 -0.037193 0.797000 9853017
0.247000 -0.032680 0.798000 9332586
0.248857 -0.028331 0.804000 9201014
0.251333 -0.023973 0.812000 8609377
0.252262 -0.019405 0.815000 7423567
0.254119 -0.014856 0.821000 8282983
0.278417 -0.174543 0.894000 8274742
0.277483 -0.168866 0.891000 9329997
0.276237 -0.163039 0.887000 9063500
0.274680 -0.157080 0.882000 9992042
0.273434 -0.151350 0.878000 8803694
0.271877 -0.145500 0.873000 7488581
0.270631 -0.139868 0.869000 9078399
0.270009 -0.134591 0.867000 8736843
0.269386 -0.129338 0.865000 7031105
0.267206 -0.123389 0.858000 6639954
0.266583 -0.118210 0.856000 7548481
0.265337 -0.112789 0.852000 8867916
0.264091 -0.107413 0.848000 9853773
0.261911 -0.101721 0.841000 4534607
0.261289 -0.096685 0.839000 8680769
0.260666 -0.091671 0.837000 9198160
0.259420 -0.086473 0.833000 7949124
0.258174 -0.081321 0.829000 9791824
0.256929 -0.076214 0.825000 8083282
0.255683 -0.071153 0.821000 10113338
0.254437 -0.066138 0.817000 10526096
0.253503 -0.061244 0.814000 9796241
0.252257 -0.056314 0.810000 9255008
0.251634 -0.051558 0.808000 9259586
0.249766 -0.046592 0.802000 9917268
0.248520 -0.041800 0.798000 9654859
0.248209 -0.037193 0.797000 9983837
0.248520 -0.032680 0.798000 9330791
0.250389 -0.028331 0.804000 9147777
0.252880 -0.023973 0.812000 9068127
0.253814 -0.019405 0.815000 7620691
0.255683 -0.014856 0.821000 8872031
0.280120 -0.174543 0.894000 8471346
0.278553 -0.168487 0.889000 9529151
0.277927 -0.163039 0.887000 9066310
0.276360 -0.157080 0.882000 9200478
0.275107 -0.151350 0.878000 8938108
0.273540 -0.145500 0.873000 7618879
0.272287 -0.139868 0.869000 9140608
0.271660 -0.134591 0.867000 8736847
0.271033 -0.129338 0.865000 7686720
0.268840 -0.123389 0.858000 8034684
0.268213 -0.118210 0.856000 8412243
0.266960 -0.112789 0.852000 8868430
0.265707 -0.107413 0.848000 9526595
0.264140 -0.101963 0.843000 4788558
0.262887 -0.096685 0.839000 9729895
0.262260 -0.091671 0.837000 8932937
0.260380 -0.086266 0.831000 7423555
0.258500 -0.080929 0.825000 10185558
0.257873 -0.076030 0.823000 7752777
0.257247 -0.071153 0.821000 9843996
0.255993 -0.066138 0.817000 10782320
0.255053 -0.061244 0.814000 10056623
0.253173 -0.056175 0.808000 8797237
0.252547 -0.051430 0.806000 9260099
0.251293 -0.046592 0.802000 9785933
0.250040 -0.041800 0.798000 9785673
0.249727 -0.037193 0.797000 10052449
0.250040 -0.032680 0.798000 9460581
0.251920 -0.028331 0.804000 9403532
0.254427 -0.023973 0.812000 9068894
0.255367 -0.019405 0.815000 7883607
0.257247 -0.014856 0.821000 8348503
0.281823 -0.174543 0.894000 8732987
0.280247 -0.168487 0.889000 9722438
0.279616 -0.163039 0.887000 9129799
0.278040 -0.157080 0.882000 8411728
0.276779 -0.151350 0.878000 9002590
0.275203 -0.145500 0.873000 7750720
0.273942 -0.139868 0.869000 9209475
0.273311 -0.134591 0.867000 8670545
0.272681 -0.129338 0.865000 8405820
0.270474 -0.123389 0.858000 9334109
0.269844 -0.118210 0.856000 9271921
0.268583 -0.112789 0.852000 8867915
0.266376 -0.107033 0.845000 9258570
0.265115 -0.101721 0.841000 4992323
0.264485 -0.096685 0.839000 10719581
0.263224 -0.091452 0.835000 8606288
0.261332 -0.086058 0.829000 6903635
0.260702 -0.081125 0.827000 10579280
0.259441 -0.076030 0.823000 7492685
0.258810 -0.071153 0.821000 9521980
0.257550 -0.066138 0.817000 11040356
0.255973 -0.061093 0.812000 10330288
0.254712 -0.056175 0.808000 8388904
0.254082 -0.051430 0.806000 9194821
0.252821 -0.046592 0.802000 9589590
0.251245 -0.041748 0.797000 9851472
0.250614 -0.037100 0.795000 10184289
0.251560 -0.032680 0.798000 9525857
0.254082 -0.028402 0.806000 9665684
0.255973 -0.023973 0.812000 9070181
0.257550 -0.019452 0.817000 8211027
0.258810 -0.014856 0.821000 7755353
0.283526 -0.174543 0.894000 8930883
0.282574 -0.168866 0.891000 9459532
0.280354 -0.162488 0.884000 9064520
0.279720 -0.157080 0.882000 8867138
0.277500 -0.150833 0.875000 9131583
0.276866 -0.145500 0.873000 7553089
0.275597 -0.139868 0.869000 9338501
0.274963 -0.134591 0.867000 8670804
0.273377 -0.128890 0.862000 8277815
0.272109 -0.123389 0.858000 8398399
0.271474 -0.118210 0.856000 9335950
0.270206 -0.112789 0.852000 8868936
0.267986 -0.107033 0.845000 9195857
0.266717 -0.101721 0.841000 5579321
0.265449 -0.096454 0.837000 10647891
0.264180 -0.091233 0.833000 9001304
