# .PCD v.7 - Point Cloud Data file format
VERSION .7
FIELDS x y z rgb
SIZE 4 4 4 4
TYPE F F F I
COUNT 1 1 1 1
WIDTH 1323
HEIGHT 1
POINTS 1323
DATA ascii
0.280833 -0.265833 0.875000 6232641
0.278908 -0.259045 0.869000 8407300
0.277624 -0.252910 0.865000 9734532
0.275377 -0.245960 0.858000 9269638
0.274093 -0.239933 0.854000 9525857
0.272168 -0.233402 0.848000 7947070
0.269921 -0.226670 0.841000 6960975
0.268637 -0.220809 0.837000 6897738
0.266711 -0.214477 0.831000 7818071
0.265428 -0.208719 0.827000 8738125
0.262860 -0.202020 0.819000 8737622
0.261255 -0.196135 0.814000 8934222
0.259971 -0.190543 0.810000 8535135
0.258046 -0.184537 0.804000 9866909
0.256762 -0.179048 0.800000 8277359
0.255799 -0.173822 0.797000 7883342
0.253873 -0.167993 0.791000 7750737
0.252910 -0.162853 0.788000 7886423
0.250343 -0.156743 0.780000 7554890
0.249380 -0.151700 0.777000 7293502
0.250343 -0.147829 0.780000 7488315
0.252269 -0.144474 0.786000 7891079
0.253231 -0.140517 0.789000 6565693
0.254515 -0.136698 0.793000 8805192
0.255157 -0.132500 0.795000 8007985
0.256762 -0.128762 0.800000 9461846
0.258688 -0.125122 0.806000 7292998
0.259971 -0.121114 0.810000 9068090
0.285406 -0.278670 0.884000 10514531
0.284760 -0.273000 0.882000 8802613
0.281854 -0.265226 0.873000 4399930
0.280563 -0.259045 0.869000 5506848
0.279271 -0.252910 0.865000 9326422
0.277011 -0.245960 0.858000 9332581
0.275720 -0.239933 0.854000 8212308
0.272814 -0.232576 0.845000 6962757
0.271523 -0.226670 0.841000 6765128
0.270231 -0.220809 0.837000 6897766
0.268294 -0.214477 0.831000 7885661
0.267003 -0.208719 0.827000 8607592
0.264420 -0.202020 0.819000 8802903
0.262806 -0.196135 0.814000 8803150
0.261514 -0.190543 0.810000 8410973
0.260223 -0.184996 0.806000 10524050
0.258931 -0.179495 0.802000 8151921
0.257317 -0.173822 0.797000 8080717
0.256026 -0.168418 0.793000 8145232
0.254411 -0.162853 0.788000 8674648
0.252474 -0.157145 0.782000 8145740
0.251506 -0.152090 0.779000 7687234
0.251829 -0.147829 0.780000 7685436
0.252474 -0.143739 0.782000 8025477
0.254411 -0.140339 0.788000 6500147
0.256026 -0.136698 0.793000 9262926
0.256671 -0.132500 0.795000 6961974
0.258286 -0.128762 0.800000 9593670
0.260869 -0.125432 0.808000 7949370
0.261514 -0.121114 0.810000 8805954
0.287090 -0.278670 0.884000 10052955
0.286440 -0.273000 0.882000 7291697
0.283517 -0.265226 0.873000 4860723
0.282218 -0.259045 0.869000 5969980
0.280919 -0.252910 0.865000 8791848
0.278646 -0.245960 0.858000 8999748
0.277347 -0.239933 0.854000 8212040
0.274424 -0.232576 0.845000 7095116
0.273125 -0.226670 0.841000 7092289
0.271826 -0.220809 0.837000 7691906
0.269877 -0.214477 0.831000 8215395
0.267929 -0.208214 0.825000 8872323
0.265980 -0.202020 0.819000 8802905
0.264356 -0.196135 0.814000 8474957
0.263057 -0.190543 0.810000 8811356
0.261758 -0.184996 0.806000 10191750
0.260459 -0.179495 0.802000 8551540
0.258186 -0.173386 0.795000 8277068
0.256887 -0.167993 0.791000 8605007
0.255912 -0.162853 0.788000 8870488
0.253314 -0.156743 0.780000 8474446
0.252990 -0.152090 0.779000 7884101
0.253314 -0.147829 0.780000 7815485
0.255263 -0.144474 0.786000 7955842
0.255912 -0.140339 0.788000 6434601
0.257536 -0.136698 0.793000 9198164
0.258835 -0.132833 0.797000 7551548
0.259810 -0.128762 0.800000 9262389
0.261758 -0.125122 0.806000 7550766
0.263057 -0.121114 0.810000 7947082
0.288773 -0.278670 0.884000 9525337
0.288120 -0.273000 0.882000 5845568
0.285833 -0.265833 0.875000 5320756
0.283873 -0.259045 0.869000 6433340
0.282567 -0.252910 0.865000 8272435
0.280280 -0.245960 0.858000 8735814
0.278973 -0.239933 0.854000 8146248
0.277013 -0.233402 0.848000 7291978
0.274727 -0.226670 0.841000 7422287
0.273420 -0.220809 0.837000 8552328
0.272113 -0.214993 0.833000 8478305
0.270153 -0.208719 0.827000 9071221
0.266887 -0.201527 0.817000 8802904
0.265253 -0.195653 0.812000 8213078
0.263947 -0.190072 0.808000 9139569
0.263293 -0.184996 0.806000 9858405
0.261987 -0.179495 0.802000 8875360
0.260353 -0.173822 0.797000 8539722
0.259047 -0.168418 0.793000 9064781
0.257413 -0.162853 0.788000 9133157
0.255453 -0.157145 0.782000 8737617
0.254473 -0.152090 0.779000 8080967
0.255453 -0.148208 0.782000 7881534
0.256760 -0.144474 0.786000 7959170
0.257413 -0.140339 0.788000 6303790
0.259047 -0.136698 0.793000 9131848
0.260353 -0.132833 0.797000 8145477
0.261987 -0.129084 0.802000 8934714
0.263947 -0.125432 0.808000 7094325
0.264600 -0.121114 0.810000 7091529
0.290457 -0.278670 0.884000 7945559
0.289800 -0.273000 0.882000 5651023
0.287500 -0.265833 0.875000 5517110
0.285529 -0.259045 0.869000 6829884
0.284214 -0.252910 0.865000 8407359
0.282571 -0.246533 0.860000 8736071
0.280600 -0.239933 0.854000 8080713
0.277643 -0.232576 0.845000 7489096
0.276329 -0.226670 0.841000 7882846
0.275014 -0.220809 0.837000 8879246
0.273700 -0.214993 0.833000 8741215
0.271729 -0.208719 0.827000 9005415
0.269100 -0.202020 0.819000 8671575
0.267457 -0.196135 0.814000 8408927
0.266143 -0.190543 0.810000 9670278
0.264829 -0.184996 0.806000 8737604
0.263514 -0.179495 0.802000 8609357
0.261871 -0.173822 0.797000 8671048
0.260557 -0.168418 0.793000 9393227
0.258257 -0.162440 0.786000 9330289
0.255957 -0.156542 0.779000 8934995
0.255957 -0.152090 0.779000 8146761
0.256286 -0.147829 0.780000 7617856
0.258257 -0.144474 0.786000 7824258
0.258914 -0.140339 0.788000 6501428
0.261214 -0.137043 0.795000 8866619
0.261871 -0.132833 0.797000 8738127
0.263514 -0.129084 0.802000 9065535
0.264829 -0.125122 0.806000 7683899
0.266143 -0.121114 0.810000 7486791
0.292141 -0.278670 0.884000 6369875
0.291480 -0.273000 0.882000 5453649
0.289167 -0.265833 0.875000 5648941
0.287184 -0.259045 0.869000 7159353
0.285862 -0.252910 0.865000 8473661
0.283549 -0.245960 0.858000 8801863
0.282227 -0.239933 0.854000 7949129
0.279252 -0.232576 0.845000 7752784
0.277270 -0.226130 0.839000 8283493
0.276609 -0.220809 0.837000 9141123
0.274626 -0.214477 0.831000 8936281
0.273304 -0.208719 0.827000 8941924
0.270660 -0.202020 0.819000 8541023
0.269008 -0.196135 0.814000 8605537
0.267025 -0.190072 0.808000 10123638
0.266364 -0.184996 0.806000 7618373
0.263720 -0.178600 0.798000 8343112
0.263390 -0.173822 0.797000 8868430
0.262068 -0.168418 0.793000 9656651
0.259754 -0.162440 0.786000 9527653
0.257441 -0.156542 0.779000 9065807
0.257441 -0.152090 0.779000 8277579
0.258432 -0.148208 0.782000 7356994
0.259754 -0.144474 0.786000 7762563
0.260415 -0.140339 0.788000 6697522
0.262729 -0.137043 0.795000 8601404
0.263390 -0.132833 0.797000 9328462
0.265042 -0.129084 0.802000 9196605
0.266364 -0.125122 0.806000 8209982
0.267686 -0.121114 0.810000 7947328
0.293160 -0.278040 0.882000 5515342
0.293160 -0.273000 0.882000 5652050
0.290833 -0.265833 0.875000 6042149
0.288839 -0.259045 0.869000 7487030
0.287510 -0.252910 0.865000 8604988
0.285183 -0.245960 0.858000 8605511
0.283189 -0.239371 0.852000 8145992
0.280862 -0.232576 0.845000 7947864
0.279532 -0.226670 0.841000 9406317
0.277538 -0.220281 0.835000 9203831
0.276209 -0.214477 0.831000 8869459
0.274879 -0.208719 0.827000 8741473
0.272885 -0.202513 0.821000 8474984
0.270558 -0.196135 0.814000 8808291
0.269229 -0.190543 0.810000 9402215
0.267234 -0.184537 0.804000 7685958
0.265240 -0.178600 0.798000 8145220
0.264908 -0.173822 0.797000 8801876
0.262913 -0.167993 0.791000 9919052
0.261251 -0.162440 0.786000 9658201
0.258925 -0.156542 0.779000 9065547
0.258925 -0.152090 0.779000 8277836
0.259922 -0.148208 0.782000 7619396
0.261251 -0.144474 0.786000 7693188
0.261916 -0.140339 0.788000 6698032
0.264243 -0.137043 0.795000 8076092
0.265240 -0.133000 0.798000 9721422
0.265905 -0.128762 0.800000 9197115
0.267899 -0.125122 0.806000 8538945
0.269229 -0.121114 0.810000 8342840
0.294840 -0.278040 0.882000 4596039
0.294840 -0.273000 0.882000 5851470
0.292500 -0.265833 0.875000 6370613
0.290494 -0.259045 0.869000 7814205
0.289157 -0.252910 0.865000 8670784
0.286817 -0.245960 0.858000 8408907
0.285480 -0.239933 0.854000 8277324
0.282471 -0.232576 0.845000 8143449
0.280466 -0.226130 0.839000 10519672
0.279797 -0.220809 0.837000 9335919
0.278460 -0.214993 0.833000 8737877
0.276454 -0.208719 0.827000 8606046
0.274449 -0.202513 0.821000 8410203
0.272109 -0.196135 0.814000 9008478
0.270771 -0.190543 0.810000 8677473
0.269434 -0.184996 0.806000 7753293
0.267429 -0.179048 0.800000 7883850
0.265757 -0.173386 0.795000 8668758
0.264420 -0.167993 0.791000 10116175
0.262749 -0.162440 0.786000 9789274
0.260409 -0.156542 0.779000 9065034
0.260409 -0.152090 0.779000 8343117
0.260743 -0.147829 0.780000 7882312
0.262749 -0.144474 0.786000 7697033
0.263417 -0.140339 0.788000 6632754
0.265757 -0.137043 0.795000 7549761
0.267429 -0.133333 0.800000 10050647
0.268097 -0.129084 0.802000 9264195
0.269434 -0.125122 0.806000 8802372
0.295848 -0.277410 0.880000 4068927
0.295848 -0.272381 0.880000 6047818
0.294167 -0.265833 0.875000 6107716
0.292150 -0.259045 0.869000 8142404
0.290805 -0.252910 0.865000 8801860
0.288451 -0.245960 0.858000 8474702
0.287107 -0.239933 0.854000 8343119
0.284081 -0.232576 0.845000 8608345
0.282736 -0.226670 0.841000 9994628
0.280719 -0.220281 0.835000 9003366
0.280047 -0.214993 0.833000 8672343
0.278030 -0.208719 0.827000 8673627
0.276012 -0.202513 0.821000 8473166
0.273995 -0.196376 0.815000 8412249
0.272314 -0.190543 0.810000 8410715
0.270970 -0.184996 0.806000 8080979
0.268952 -0.179048 0.800000 8606545
0.267271 -0.173386 0.795000 8866647
0.265927 -0.167993 0.791000 10116178
0.264246 -0.162440 0.786000 9854554
0.261892 -0.156542 0.779000 9130058
0.261892 -0.152090 0.779000 8343629
0.262229 -0.147829 0.780000 7881037
0.264246 -0.144474 0.786000 7693453
0.264918 -0.140339 0.788000 6764853
0.267271 -0.137043 0.795000 7617094
0.268952 -0.133333 0.800000 10448992
0.269625 -0.129084 0.802000 9263946
0.271642 -0.125432 0.808000 9132103
0.297524 -0.277410 0.880000 3482969
0.297524 -0.272381 0.880000 6246985
0.296848 -0.266745 0.878000 5846350
0.293805 -0.259045 0.869000 8471105
0.292452 -0.252910 0.865000 8932939
0.290086 -0.245960 0.858000 8606030
0.288733 -0.239933 0.854000 8342356
0.285690 -0.232576 0.845000 9137528
0.283662 -0.226130 0.839000 9399671
0.282310 -0.220281 0.835000 8738911
0.280957 -0.214477 0.831000 8540244
0.279605 -0.208719 0.827000 8805970
0.277576 -0.202513 0.821000 8543326
0.275210 -0.196135 0.814000 7820897
0.273857 -0.190543 0.810000 8081505
0.272505 -0.184996 0.806000 8408654
0.270476 -0.179048 0.800000 9327953
0.268786 -0.173386 0.795000 9061458
0.267433 -0.167993 0.791000 10116947
0.265743 -0.162440 0.786000 9919832
0.263376 -0.156542 0.779000 9196109
0.263376 -0.152090 0.779000 8409169
0.263714 -0.147829 0.780000 7882322
0.265743 -0.144474 0.786000 7764104
0.266757 -0.140517 0.789000 6830392
0.268786 -0.137043 0.795000 7747140
0.270476 -0.133333 0.800000 10840923
0.271152 -0.129084 0.802000 9262665
0.273181 -0.125432 0.808000 9395276
0.299880 -0.273000 0.882000 7163975
0.298520 -0.266745 0.878000 6894935
0.295460 -0.259045 0.869000 8736318
0.294100 -0.252910 0.865000 9129553
0.291720 -0.245960 0.858000 8737614
0.290360 -0.239933 0.854000 8471386
0.287300 -0.232576 0.845000 9732246
0.285260 -0.226130 0.839000 9067370
0.283900 -0.220281 0.835000 8408919
0.282540 -0.214477 0.831000 8343121
0.281180 -0.208719 0.827000 8410952
0.279820 -0.203007 0.823000 8547694
0.276760 -0.196135 0.814000 8083304
0.275400 -0.190543 0.810000 8344423
0.273360 -0.184537 0.804000 8473929
0.272000 -0.179048 0.800000 9460304
0.270300 -0.173386 0.795000 9590349
0.268940 -0.167993 0.791000 10248021
0.267240 -0.162440 0.786000 9986390
0.265200 -0.156743 0.780000 9196369
0.265200 -0.152286 0.780000 8409940
0.265880 -0.148208 0.782000 7882840
0.267920 -0.144842 0.788000 7824259
0.267920 -0.140339 0.788000 7027771
0.271320 -0.137560 0.798000 8275009
0.272000 -0.133333 0.800000 10316375
0.272680 -0.129084 0.802000 9130824
0.274720 -0.125432 0.808000 9658962
0.302244 -0.278670 0.884000 5193589
0.301560 -0.273000 0.882000 8148559
0.300192 -0.266745 0.878000 7883859
0.297115 -0.259045 0.869000 9000515
0.295748 -0.252910 0.865000 9327183
0.293354 -0.245960 0.858000 8869461
0.291987 -0.239933 0.854000 8611435
0.289935 -0.233402 0.848000 10390672
0.286858 -0.226130 0.839000 8743016
0.285490 -0.220281 0.835000 8013390
0.284123 -0.214477 0.831000 8079948
0.282755 -0.208719 0.827000 8015436
0.281388 -0.203007 0.823000 8545384
0.278652 -0.196376 0.815000 8344933
0.277627 -0.191013 0.812000 8611172
0.274891 -0.184537 0.804000 8539472
0.273524 -0.179048 0.800000 9525596
0.271814 -0.173386 0.795000 10182223
0.270447 -0.167993 0.791000 10380117
0.268737 -0.162440 0.786000 10119511
0.266686 -0.156743 0.780000 9130833
0.266686 -0.152286 0.780000 8475478
0.267370 -0.148208 0.782000 7883097
0.268737 -0.144474 0.786000 7892611
0.270447 -0.140873 0.791000 7158844
0.273524 -0.137905 0.800000 8863301
0.274208 -0.133667 0.802000 9725016
0.274891 -0.129406 0.804000 8932664
0.276943 -0.125743 0.810000 9856601
0.303928 -0.278670 0.884000 6704502
0.303240 -0.273000 0.882000 8475991
0.301865 -0.266745 0.878000 8936016
0.298770 -0.259045 0.869000 9395015
0.296364 -0.252032 0.862000 9787470
0.294989 -0.245960 0.858000 9130588
0.292926 -0.239371 0.852000 9342333
0.291550 -0.233402 0.848000 9730697
0.289144 -0.226670 0.841000 9141093
0.287769 -0.220809 0.837000 7553605
0.285706 -0.214477 0.831000 7554888
0.284330 -0.208719 0.827000 7487568
0.282268 -0.202513 0.821000 8479585
0.280205 -0.196376 0.815000 8478306
0.278486 -0.190543 0.810000 8747617
0.276423 -0.184537 0.804000 8605783
0.274360 -0.178600 0.798000 9460329
0.272641 -0.172950 0.793000 10181968
0.271266 -0.167569 0.789000 10511958
0.270234 -0.162440 0.786000 10117975
0.267828 -0.156542 0.779000 9196112
0.267828 -0.152090 0.779000 8541784
0.268171 -0.147829 0.780000 7355995
0.269547 -0.144107 0.784000 7951491
0.271266 -0.140517 0.789000 7355965
0.274360 -0.137560 0.798000 9130056
0.275048 -0.133333 0.800000 9196890
0.276423 -0.129406 0.804000 8407079
0.278486 -0.125743 0.810000 10056032
0.304920 -0.273000 0.882000 8867676
0.303537 -0.266745 0.878000 9986389
0.300426 -0.259045 0.869000 9788751
0.299043 -0.252910 0.865000 10181461
0.296623 -0.245960 0.858000 9393001
0.294549 -0.239371 0.852000 10060411
0.292129 -0.232576 0.845000 9009002
0.290054 -0.226130 0.839000 9461589
0.288671 -0.220281 0.835000 7093833
0.286597 -0.213961 0.829000 7029834
0.285214 -0.208214 0.825000 6895429
0.283140 -0.202020 0.819000 8412525
0.281411 -0.196135 0.814000 8675682
0.280029 -0.190543 0.810000 8811625
0.278646 -0.184996 0.806000 8602214
0.275880 -0.178600 0.798000 9396067
0.274151 -0.172950 0.793000 10246991
0.272769 -0.167569 0.789000 10643548
0.271731 -0.162440 0.786000 10183004
0.269311 -0.156542 0.779000 9262166
0.269311 -0.152090 0.779000 8673369
0.269657 -0.147829 0.780000 6835569
0.271040 -0.144107 0.784000 8068720
0.272769 -0.140517 0.789000 7488067
0.275880 -0.137560 0.798000 9391444
0.277263 -0.133667 0.802000 8674145
0.278646 -0.129728 0.806000 7814470
0.280029 -0.125743 0.810000 10253150
0.305905 -0.272381 0.880000 9131872
0.303471 -0.265226 0.873000 10052699
0.302081 -0.259045 0.869000 9854806
0.299648 -0.252032 0.862000 9854045
0.297562 -0.245387 0.856000 9463926
0.295476 -0.238810 0.850000 10060664
0.293738 -0.232576 0.845000 8344650
0.291652 -0.226130 0.839000 8212548
0.289567 -0.219753 0.833000 6832205
0.288176 -0.213961 0.829000 6569804
0.286786 -0.208214 0.825000 6897466
0.284700 -0.202020 0.819000 8480633
0.282962 -0.196135 0.814000 8806498
0.281571 -0.190543 0.810000 8550513
0.280181 -0.184996 0.806000 8872053
0.277400 -0.178600 0.798000 8934750
0.275662 -0.172950 0.793000 10049102
0.274271 -0.167569 0.789000 10972002
0.273924 -0.162853 0.788000 10183008
0.270795 -0.156542 0.779000 9327965
0.270795 -0.152090 0.779000 8739929
0.271838 -0.148208 0.782000 7546504
0.273229 -0.144474 0.786000 7943005
0.274967 -0.140873 0.791000 7685194
0.277400 -0.137560 0.798000 9394272
0.278790 -0.133667 0.802000 8935528
0.280181 -0.129728 0.806000 8672101
0.280876 -0.125432 0.808000 10451036
0.306882 -0.271762 0.878000 9394524
0.305134 -0.265226 0.873000 10119007
0.303037 -0.258449 0.867000 9855318
0.301290 -0.252032 0.862000 9462110
0.299192 -0.245387 0.856000 9531245
0.297095 -0.238810 0.850000 10055785
0.295348 -0.232576 0.845000 7617100
0.293250 -0.226130 0.839000 6899784
0.291153 -0.219753 0.833000 6505037
0.289755 -0.213961 0.829000 6110021
0.287658 -0.207710 0.823000 6896733
0.285561 -0.201527 0.817000 8481141
0.284512 -0.196135 0.814000 9001051
0.282415 -0.190072 0.808000 8280677
0.281716 -0.184996 0.806000 9139832
0.278920 -0.178600 0.798000 8479080
0.276473 -0.172513 0.791000 9851216
0.275774 -0.167569 0.789000 11233884
0.274726 -0.162440 0.786000 10247776
0.272279 -0.156542 0.779000 9328478
0.272629 -0.152286 0.780000 8805466
0.274027 -0.148587 0.784000 8286087
0.274726 -0.144474 0.786000 7864652
0.276473 -0.140873 0.791000 7882318
0.278920 -0.137560 0.798000 9395798
0.280318 -0.133667 0.802000 9198947
0.281716 -0.129728 0.806000 9591138
0.283114 -0.125743 0.810000 10644059
0.308554 -0.271762 0.878000 9395288
0.306797 -0.265226 0.873000 10316899
0.304689 -0.258449 0.867000 9789270
0.302931 -0.252032 0.862000 9398879
0.300823 -0.245387 0.856000 9597539
0.298714 -0.238810 0.850000 9132378
0.296957 -0.232576 0.845000 7421774
0.295551 -0.226670 0.841000 6767949
0.293443 -0.220281 0.835000 6242125
0.291334 -0.213961 0.829000 5649214
0.289226 -0.207710 0.823000 7758720
0.287820 -0.202020 0.819000 8348786
0.286063 -0.196135 0.814000 8475731
0.283954 -0.190072 0.808000 7878233
0.283251 -0.184996 0.806000 9141115
0.280440 -0.178600 0.798000 8808563
0.277980 -0.172513 0.791000 9786194
0.277980 -0.167993 0.791000 10906455
0.276926 -0.162853 0.788000 10248799
0.273763 -0.156542 0.779000 9327967
0.274114 -0.152286 0.780000 8607578
0.275520 -0.148587 0.784000 10002822
0.276223 -0.144474 0.786000 7417915
0.277980 -0.140873 0.791000 7685715
0.281143 -0.137905 0.800000 9460812
0.282549 -0.134000 0.804000 9394783
0.283954 -0.130050 0.808000 9790047
0.285360 -0.126053 0.812000 9328218
0.308460 -0.270214 0.873000 9395294
0.308460 -0.265226 0.873000 10512745
0.307047 -0.259045 0.869000 9724248
0.304573 -0.252032 0.862000 9264218
0.302453 -0.245387 0.856000 9598049
0.299627 -0.238248 0.848000 8147289
0.298567 -0.232576 0.845000 7225413
0.296447 -0.226130 0.839000 6570566
0.295033 -0.220281 0.835000 6044491
0.293620 -0.214477 0.831000 5194066
0.290793 -0.207710 0.823000 8614781
0.288673 -0.201527 0.817000 8149097
0.287613 -0.196135 0.814000 8016466
0.285493 -0.190072 0.808000 7426139
0.284787 -0.184996 0.806000 9207416
0.281960 -0.178600 0.798000 9137771
0.279487 -0.172513 0.791000 9655633
0.279487 -0.167993 0.791000 10577500
0.277720 -0.162440 0.786000 10249055
0.275247 -0.156542 0.779000 9329504
0.276307 -0.152676 0.782000 8476255
0.277013 -0.148587 0.784000 11700106
0.278427 -0.144842 0.788000 7025981
0.280193 -0.141230 0.793000 7423828
0.282667 -0.137905 0.800000 9590864
0.284080 -0.134000 0.804000 9527135
0.286200 -0.130371 0.810000 9987680
0.287613 -0.126364 0.814000 8017241
0.309412 -0.269595 0.871000 9791588
0.309412 -0.264618 0.871000 10251886
0.308702 -0.259045 0.869000 9592153
0.307281 -0.252910 0.865000 9064532
0.304084 -0.245387 0.856000 9463902
0.301242 -0.238248 0.848000 7883353
0.300176 -0.232576 0.845000 6963260
0.298045 -0.226130 0.839000 6438976
0.296624 -0.220281 0.835000 5914184
0.295203 -0.214477 0.831000 7232871
0.292361 -0.207710 0.823000 8811129
0.290230 -0.201527 0.817000 7618913
0.289164 -0.196135 0.814000 7425360
0.287032 -0.190072 0.808000 7758430
0.286322 -0.184996 0.806000 8940149
0.283480 -0.178600 0.798000 9073508
0.281704 -0.172950 0.793000 9590096
0.280283 -0.167569 0.789000 10447457
0.279217 -0.162440 0.786000 10314590
0.276730 -0.156542 0.779000 9131361
0.277796 -0.152676 0.782000 8213091
0.279217 -0.148966 0.786000 11380878
0.280283 -0.145026 0.789000 6961983
0.282414 -0.141586 0.795000 7423318
0.284190 -0.137905 0.800000 9591380
0.286322 -0.134333 0.806000 9855072
0.287743 -0.130371 0.810000 9395297
0.289519 -0.126519 0.815000 8277592
0.311071 -0.269595 0.871000 10186621
0.311071 -0.264618 0.871000 9987938
0.310357 -0.259045 0.869000 9461591
0.308929 -0.252910 0.865000 8803412
0.305714 -0.245387 0.856000 9263711
0.302857 -0.238248 0.848000 7557461
0.301786 -0.232576 0.845000 6701123
0.299643 -0.226130 0.839000 6240323
0.298214 -0.220281 0.835000 5789545
0.296786 -0.214477 0.831000 9268854
0.293929 -0.207710 0.823000 9073281
0.291786 -0.201527 0.817000 7032160
0.290000 -0.195653 0.812000 6901577
0.288571 -0.190072 0.808000 8087410
0.287143 -0.184537 0.804000 8675696
0.285000 -0.178600 0.798000 8937306
0.283214 -0.172950 0.793000 9458510
0.281786 -0.167569 0.789000 10249307
0.280000 -0.162027 0.784000 10378333
0.278214 -0.156542 0.779000 8870762
0.280000 -0.153067 0.784000 8017515
0.281429 -0.149345 0.788000 11047320
0.282500 -0.145393 0.791000 6960706
0.283929 -0.141586 0.795000 7424342
0.287143 -0.138594 0.804000 9656916
0.287857 -0.134333 0.806000 10181725
0.290000 -0.130693 0.812000 8869724
0.291071 -0.126519 0.815000 8474968
0.312730 -0.264618 0.871000 9790295
0.312012 -0.259045 0.869000 9330261
0.310576 -0.252910 0.865000 8738132
0.307345 -0.245387 0.856000 8937056
0.304472 -0.238248 0.848000 7425106
0.303395 -0.232576 0.845000 6504778
0.301241 -0.226130 0.839000 6304327
0.299087 -0.219753 0.833000 7761545
0.298369 -0.214477 0.831000 9341318
0.296214 -0.208214 0.825000 8812169
0.294060 -0.202020 0.819000 7096414
0.292265 -0.196135 0.814000 7292737
0.290110 -0.190072 0.808000 8878726
0.288674 -0.184537 0.804000 8279659
0.286161 -0.178376 0.797000 8867409
0.284725 -0.172950 0.793000 9392716
0.283289 -0.167569 0.789000 10184021
0.281493 -0.162027 0.784000 10445404
0.280057 -0.156743 0.780000 8869747
0.281493 -0.153067 0.784000 7754099
0.282930 -0.149345 0.788000 11448995
0.284725 -0.145761 0.793000 6503748
0.286520 -0.142120 0.798000 7948631
0.288674 -0.138594 0.804000 8934740
0.290110 -0.134667 0.808000 9194841
0.292265 -0.131015 0.814000 8737367
0.313668 -0.264010 0.869000 9526105
0.313668 -0.259045 0.869000 9200209
0.312224 -0.252910 0.865000 8607821
0.308975 -0.245387 0.856000 8609901
0.306810 -0.238810 0.850000 7226959
0.305005 -0.232576 0.845000 6373444
0.302839 -0.226130 0.839000 6375500
0.300673 -0.219753 0.833000 9730949
0.299951 -0.214477 0.831000 9405317
0.297786 -0.208214 0.825000 8616050
0.294898 -0.201527 0.817000 7096405
0.293093 -0.195653 0.812000 7682906
0.291650 -0.190072 0.808000 9662835
0.290206 -0.184537 0.804000 7885148
0.287679 -0.178376 0.797000 8736593
0.286235 -0.172950 0.793000 9327183
0.284791 -0.167569 0.789000 10050900
0.282987 -0.162027 0.784000 10444917
0.281182 -0.156542 0.779000 8806259
0.282987 -0.153067 0.784000 7427170
0.284791 -0.149534 0.789000 11832738
0.286235 -0.145761 0.793000 6110791
0.288040 -0.142120 0.798000 8474197
0.290928 -0.138939 0.806000 8278610
0.291650 -0.134667 0.808000 8146516
0.294176 -0.131176 0.815000 8671319
0.315323 -0.264010 0.869000 9063771
0.314597 -0.258449 0.867000 9001804
0.313871 -0.252910 0.865000 8411462
0.310606 -0.245387 0.856000 8347770
0.308429 -0.238810 0.850000 7093837
0.306614 -0.232576 0.845000 6570302
0.305163 -0.226670 0.841000 7160657
0.302986 -0.220281 0.835000 9467520
0.301534 -0.214477 0.831000 9340548
0.299357 -0.208214 0.825000 7821146
0.297180 -0.202020 0.819000 7093837
0.295366 -0.196135 0.814000 7821171
0.293914 -0.190543 0.810000 9135969
0.291737 -0.184537 0.804000 8146765
0.289197 -0.178376 0.797000 8933458
0.287746 -0.172950 0.793000 9458513
0.286294 -0.167569 0.789000 10050387
0.284480 -0.162027 0.784000 10579086
0.282666 -0.156542 0.779000 8805747
0.284480 -0.153067 0.784000 8277073
0.286294 -0.149534 0.789000 10397345
0.287746 -0.145761 0.793000 6633545
0.290286 -0.142476 0.800000 8476244
0.292463 -0.138939 0.806000 8146512
0.294640 -0.135333 0.812000 8343374
0.295729 -0.131176 0.815000 8802646
0.316978 -0.264010 0.869000 8539230
0.316249 -0.258449 0.867000 8804942
0.315519 -0.252910 0.865000 8147273
0.312236 -0.245387 0.856000 8023391
0.310048 -0.238810 0.850000 6962765
0.308224 -0.232576 0.845000 6767427
0.306035 -0.226130 0.839000 7885909
0.304576 -0.220281 0.835000 9136238
0.303117 -0.214477 0.831000 9266047
0.301658 -0.208719 0.827000 7031897
0.298010 -0.201527 0.817000 7028816
0.296916 -0.196135 0.814000 7957117
0.295457 -0.190543 0.810000 8609639
0.293269 -0.184537 0.804000 8409171
0.290715 -0.178376 0.797000 9065042
0.289256 -0.172950 0.793000 9589842
0.287797 -0.167569 0.789000 10049363
0.285973 -0.162027 0.784000 10714781
0.285244 -0.157145 0.782000 8742513
0.286703 -0.153457 0.786000 9124183
0.288527 -0.149913 0.791000 8875159
0.289986 -0.146129 0.795000 7094609
0.292539 -0.142832 0.802000 8409940
0.294728 -0.139284 0.808000 8015186
0.296187 -0.135333 0.812000 8540243
0.297281 -0.131176 0.815000 8934494
0.318633 -0.264010 0.869000 8340321
0.317900 -0.258449 0.867000 8211791
0.316067 -0.252032 0.862000 7750476
0.313867 -0.245387 0.856000 7558212
0.311667 -0.238810 0.850000 6832460
0.309833 -0.232576 0.845000 6569288
0.307633 -0.226130 0.839000 8350042
0.306167 -0.220281 0.835000 9333084
0.304700 -0.214477 0.831000 9000826
0.303233 -0.208719 0.827000 6964823
0.299567 -0.201527 0.817000 7290708
0.298467 -0.196135 0.814000 8615047
0.297000 -0.190543 0.810000 8869997
0.294800 -0.184537 0.804000 8671576
0.292233 -0.178376 0.797000 9327698
0.290767 -0.172950 0.793000 9393491
0.289300 -0.167569 0.789000 9851987
0.287467 -0.162027 0.784000 10845100
0.286733 -0.157145 0.782000 8480879
0.288200 -0.153457 0.786000 9331037
0.290033 -0.149913 0.791000 7290765
0.292233 -0.146496 0.797000 7292505
0.294067 -0.142832 0.802000 8410196
0.296267 -0.139284 0.808000 8146516
0.298467 -0.135667 0.814000 8737880
0.298833 -0.131176 0.815000 8606822
0.319551 -0.263403 0.867000 8082026
0.318814 -0.257852 0.865000 7619646
0.317709 -0.252032 0.862000 7358540
0.315497 -0.245387 0.856000 7094346
0.313286 -0.238810 0.850000 6636101
0.311443 -0.232576 0.845000 6372172
0.309231 -0.226130 0.839000 8805976
0.307757 -0.220281 0.835000 9591669
0.306283 -0.214477 0.831000 8676472
0.304809 -0.208719 0.827000 6834776
0.301123 -0.201527 0.817000 7555669
0.300017 -0.196135 0.814000 9271692
0.298543 -0.190543 0.810000 9133934
0.296331 -0.184537 0.804000 9000025
0.293751 -0.178376 0.797000 9524815
0.292277 -0.172950 0.793000 9262933
0.290803 -0.167569 0.789000 9590614
0.288960 -0.162027 0.784000 11042215
0.288960 -0.157547 0.784000 8151143
0.289697 -0.153457 0.786000 9526141
0.291540 -0.149913 0.791000 5722237
0.293751 -0.146496 0.797000 7491157
0.296331 -0.143189 0.804000 8409429
0.297806 -0.139284 0.808000 8277845
0.300386 -0.135833 0.815000 8869208
0.321203 -0.263403 0.867000 8279156
0.320462 -0.257852 0.865000 7225388
0.319350 -0.252032 0.862000 7161933
0.317128 -0.245387 0.856000 6832720
0.314905 -0.238810 0.850000 6767423
0.313052 -0.232576 0.845000 6832464
0.311570 -0.226670 0.841000 8541270
0.309348 -0.220281 0.835000 9992589
0.307125 -0.213961 0.829000 9004406
0.306384 -0.208719 0.827000 7555929
0.302679 -0.201527 0.817000 8409943
0.301568 -0.196135 0.814000 9467793
0.300086 -0.190543 0.810000 9462382
0.297863 -0.184537 0.804000 9328473
0.295640 -0.178600 0.798000 9590860
0.293788 -0.172950 0.793000 9263190
0.291935 -0.167356 0.788000 9459033
0.290453 -0.162027 0.784000 10779297
0.290453 -0.157547 0.784000 7951200
0.291935 -0.153848 0.788000 9600669
0.293788 -0.150292 0.793000 5515118
0.295640 -0.146680 0.798000 7819089
0.297863 -0.143189 0.804000 8409430
0.300086 -0.139629 0.810000 8409174
0.304161 -0.136833 0.821000 9197399
0.322110 -0.257852 0.865000 6830643
0.320992 -0.252032 0.862000 6900817
0.318758 -0.245387 0.856000 6505807
0.316524 -0.238810 0.850000 6832968
0.314662 -0.232576 0.845000 7291984
0.312428 -0.226130 0.839000 8214366
0.310938 -0.220281 0.835000 10389120
0.308704 -0.213961 0.829000 9268078
0.307959 -0.208719 0.827000 8342615
0.304235 -0.201527 0.817000 9197407
0.303118 -0.196135 0.814000 9665412
0.300884 -0.190072 0.808000 9790829
0.299394 -0.184537 0.804000 9591640
0.297905 -0.179048 0.800000 9655890
0.295298 -0.172950 0.793000 9329243
0.293436 -0.167356 0.788000 9328481
0.291947 -0.162027 0.784000 10583678
0.291947 -0.157547 0.784000 7690588
0.293809 -0.154043 0.789000 9676206
0.296043 -0.150671 0.795000 5323355
0.297905 -0.147048 0.800000 8213330
0.300139 -0.143545 0.806000 8409430
0.303118 -0.140318 0.814000 8540505
0.306470 -0.137167 0.823000 9459549
0.323757 -0.257852 0.865000 7029562
0.322634 -0.252032 0.862000 7294805
0.320389 -0.245387 0.856000 7030862
0.318143 -0.238810 0.850000 7685201
0.316271 -0.232576 0.845000 8278095
0.314026 -0.226130 0.839000 9265511
0.312529 -0.220281 0.835000 10386803
0.310283 -0.213961 0.829000 9729638
0.308786 -0.208214 0.825000 9000020
0.306540 -0.202020 0.819000 9394535
0.304669 -0.196135 0.814000 9796214
0.302423 -0.190072 0.808000 9988203
0.301674 -0.184996 0.806000 9788758
0.299429 -0.179048 0.800000 9590360
0.297557 -0.173386 0.795000 9197920
0.294937 -0.167356 0.788000 9524073
0.293440 -0.162027 0.784000 9858907
0.294189 -0.157949 0.786000 7427161
0.296060 -0.154433 0.791000 9473215
0.298306 -0.151050 0.797000 6437449
0.300177 -0.147415 0.802000 8409939
0.301674 -0.143545 0.806000 8474967
0.305043 -0.140490 0.815000 8475483
0.324276 -0.256958 0.862000 7226453
0.323524 -0.251448 0.860000 7622227
0.322019 -0.245387 0.856000 7489358
0.319762 -0.238810 0.850000 8539726
0.317881 -0.232576 0.845000 9261903
0.315624 -0.226130 0.839000 10249572
0.313367 -0.219753 0.833000 10386288
0.311862 -0.213961 0.829000 10188901
0.309605 -0.207710 0.823000 9721438
0.308100 -0.202020 0.819000 9528421
0.305467 -0.195653 0.812000 9928825
0.303962 -0.190072 0.808000 10119533
0.302457 -0.184537 0.804000 9985113
0.300952 -0.179048 0.800000 9525080
0.298319 -0.172950 0.793000 9132122
0.295686 -0.166931 0.786000 9724525
0.294933 -0.162027 0.784000 9134417
0.295686 -0.157949 0.786000 7097183
0.297567 -0.154433 0.791000 9277372
0.300200 -0.151240 0.798000 7485259
0.302457 -0.147783 0.804000 8672340
0.304714 -0.144257 0.810000 8540502
0.308100 -0.141180 0.819000 8476761
0.325918 -0.256958 0.862000 8740464
0.325162 -0.251448 0.860000 7949393
0.323650 -0.245387 0.856000 8475470
0.322137 -0.239371 0.852000 9395276
0.319490 -0.232576 0.845000 9921359
0.317222 -0.226130 0.839000 10450273
0.314953 -0.219753 0.833000 10583149
0.313441 -0.213961 0.829000 10384484
0.311172 -0.207710 0.823000 8932967
0.309660 -0.202020 0.819000 9856868
0.307013 -0.195653 0.812000 9992827
0.305501 -0.190072 0.808000 10185582
0.303989 -0.184537 0.804000 9985372
0.302476 -0.179048 0.800000 9394521
0.299830 -0.172950 0.793000 9066067
0.298317 -0.167569 0.789000 10186097
0.297183 -0.162440 0.786000 7948614
0.297939 -0.158350 0.788000 6830182
0.300586 -0.155214 0.795000 9271992
0.302476 -0.151619 0.800000 7884878
0.304745 -0.148150 0.806000 8607061
0.307770 -0.144970 0.814000 8671829
0.309660 -0.141180 0.819000 8804694
0.327560 -0.256958 0.862000 10253195
0.326040 -0.250863 0.858000 8278355
0.325280 -0.245387 0.856000 9394258
0.323760 -0.239371 0.852000 10181970
0.320340 -0.232026 0.843000 10644310
0.318820 -0.226130 0.839000 10646886
0.316540 -0.219753 0.833000 10714994
0.315020 -0.213961 0.829000 10580583
0.312740 -0.207710 0.823000 8206419
0.311220 -0.202020 0.819000 10186345
0.308560 -0.195653 0.812000 10059640
0.307040 -0.190072 0.808000 10185325
0.305520 -0.184537 0.804000 10050653
0.304000 -0.179048 0.800000 9263191
0.302100 -0.173386 0.795000 9000021
0.299440 -0.167356 0.788000 10577513
0.298680 -0.162440 0.786000 6760299
0.299820 -0.158551 0.789000 6512785
0.302860 -0.155605 0.797000 9336449
0.304000 -0.151619 0.800000 8278866
0.307040 -0.148518 0.808000 8607832
0.309700 -0.145148 0.815000 8803932
0.311980 -0.141525 0.821000 9132897
0.326910 -0.250278 0.856000 8671061
0.326910 -0.245387 0.856000 9328213
0.325383 -0.239371 0.852000 10116184
0.321946 -0.232026 0.843000 10578268
0.320418 -0.226130 0.839000 10778475
0.318127 -0.219753 0.833000 10845302
0.315835 -0.213445 0.827000 10645866
0.314308 -0.207710 0.823000 8273982
0.312780 -0.202020 0.819000 10318445
0.310870 -0.196135 0.814000 10058356
0.308579 -0.190072 0.808000 10317676
0.307051 -0.184537 0.804000 9985373
0.305524 -0.179048 0.800000 9065813
0.302850 -0.172950 0.793000 8737110
0.301323 -0.167569 0.789000 9790049
0.300941 -0.162853 0.788000 8149135
0.302087 -0.158953 0.791000 9345981
0.304760 -0.155800 0.798000 8869961
0.307051 -0.152377 0.804000 8476246
0.309343 -0.148886 0.810000 8738650
0.312016 -0.145504 0.817000 8935779
0.313544 -0.141525 0.821000 9068651
0.328541 -0.250278 0.856000 9066337
0.328541 -0.245387 0.856000 9261893
0.327006 -0.239371 0.852000 10050900
0.323551 -0.232026 0.843000 10577500
0.322016 -0.226130 0.839000 10843234
0.320481 -0.220281 0.835000 10975598
0.317410 -0.213445 0.827000 10645354
0.315875 -0.207710 0.823000 8270158
0.314340 -0.202020 0.819000 10384493
0.311653 -0.195653 0.812000 10124664
0.310118 -0.190072 0.808000 10449513
0.308583 -0.184537 0.804000 9853788
0.306280 -0.178600 0.798000 8802643
0.304361 -0.172950 0.793000 8475219
0.302442 -0.167356 0.788000 9006462
0.302442 -0.162853 0.788000 9477552
0.304361 -0.159355 0.793000 12168115
0.307048 -0.156190 0.800000 8395601
0.309350 -0.152756 0.806000 8673372
0.312421 -0.149621 0.814000 8935004
0.313572 -0.145504 0.817000 9068641
0.315108 -0.141525 0.821000 9004905
0.330171 -0.245387 0.856000 9130037
0.328629 -0.239371 0.852000 9788240
0.325157 -0.232026 0.843000 10445915
0.323614 -0.226130 0.839000 10711642
0.321300 -0.219753 0.833000 10844006
0.318214 -0.212929 0.825000 10514282
0.317443 -0.207710 0.823000 9261661
0.315900 -0.202020 0.819000 10714477
0.313971 -0.196135 0.814000 10583932
0.311657 -0.190072 0.808000 10581351
0.310114 -0.184537 0.804000 9723738
0.307800 -0.178600 0.798000 8538450
0.305871 -0.172950 0.793000 8341071
0.304329 -0.167569 0.789000 10531483
0.304329 -0.163060 0.789000 10199761
0.305871 -0.159355 0.793000 11514794
0.310114 -0.156971 0.804000 8471128
0.312429 -0.153514 0.810000 8935777
0.313971 -0.149621 0.814000 9002334
0.315900 -0.145860 0.819000 9070688
0.316671 -0.141525 0.821000 8806247
0.331027 -0.244813 0.854000 8997961
0.329476 -0.238810 0.850000 9525331
0.327538 -0.232576 0.845000 10314584
0.325212 -0.226130 0.839000 10579287
0.323662 -0.220281 0.835000 10777695
0.320561 -0.213445 0.827000 10383464
0.319010 -0.207710 0.823000 10247008
0.317460 -0.202020 0.819000 10975855
0.315522 -0.196135 0.814000 11043204
0.313971 -0.190543 0.810000 10646120
0.311646 -0.184537 0.804000 9527638
0.309320 -0.178600 0.798000 8211794
0.306607 -0.172513 0.791000 8208202
0.306607 -0.167993 0.791000 12034466
0.306607 -0.163473 0.791000 10917564
0.308932 -0.160159 0.797000 10846612
0.314747 -0.158533 0.812000 8607842
0.314747 -0.153893 0.812000 9198436
0.315522 -0.149621 0.814000 9068657
0.318235 -0.146216 0.821000 9071220
0.332653 -0.244813 0.854000 9065052
0.331095 -0.238810 0.850000 9260887
0.329148 -0.232576 0.845000 10052692
0.326810 -0.226130 0.839000 10446676
0.325252 -0.220281 0.835000 10645848
0.322136 -0.213445 0.827000 10514534
0.320578 -0.207710 0.823000 10314850
0.319020 -0.202020 0.819000 11042418
0.317462 -0.196376 0.815000 11174796
0.315514 -0.190543 0.810000 10841194
0.313177 -0.184537 0.804000 9198161
0.310450 -0.178376 0.797000 7884114
0.308892 -0.172950 0.793000 8014405
0.308113 -0.167993 0.791000 10454185
0.308113 -0.163473 0.791000 10325671
0.310840 -0.160360 0.798000 10116991
0.317072 -0.158924 0.814000 8870764
0.317072 -0.154272 0.814000 9263975
0.316293 -0.149253 0.812000 9728900
0.319799 -0.146216 0.821000 9858695
0.331931 -0.243093 0.848000 9132124
0.332714 -0.238810 0.850000 8999243
0.329974 -0.232026 0.843000 9790799
0.328409 -0.226130 0.839000 10248531
0.326843 -0.220281 0.835000 10513756
0.323711 -0.213445 0.827000 10645349
0.322146 -0.207710 0.823000 10381670
0.320580 -0.202020 0.819000 11106929
0.319014 -0.196376 0.815000 11240832
0.317057 -0.190543 0.810000 10973026
0.313926 -0.184078 0.802000 8934486
0.311969 -0.178376 0.797000 7555923
0.310403 -0.172950 0.793000 7879531
0.310403 -0.168418 0.793000 8881072
0.310403 -0.163887 0.793000 9800104
0.312360 -0.160360 0.798000 9332856
0.318623 -0.158924 0.814000 9133933
0.318623 -0.154272 0.814000 9335157
0.317840 -0.149253 0.812000 10455702
0.333547 -0.243093 0.848000 9463388
0.333547 -0.238248 0.848000 8933440
0.331580 -0.232026 0.843000 9460553
0.330007 -0.226130 0.839000 10116691
0.329220 -0.220809 0.837000 10314848
0.325287 -0.213445 0.827000 10776676
0.323713 -0.207710 0.823000 10447721
0.322140 -0.202020 0.819000 11173488
0.320567 -0.196376 0.815000 11174516
0.318600 -0.190543 0.810000 9857626
0.316240 -0.184537 0.804000 8540251
0.313487 -0.178376 0.797000 6768468
0.311913 -0.172950 0.793000 8151952
0.311913 -0.168418 0.793000 9211064
0.311913 -0.163887 0.793000 9798312
0.316240 -0.161566 0.804000 9396593
0.320567 -0.159119 0.815000 9859438
0.320173 -0.154272 0.814000 10848900
0.335162 -0.243093 0.848000 9859207
0.333976 -0.237405 0.845000 8868690
0.332395 -0.231475 0.841000 9130317
0.331605 -0.226130 0.839000 9919828
0.330814 -0.220809 0.837000 10116954
0.326862 -0.213445 0.827000 10841437
0.325281 -0.207710 0.823000 10579045
0.323700 -0.202020 0.819000 11172203
0.322119 -0.196376 0.815000 11174770
0.320143 -0.190543 0.810000 8741214
0.316981 -0.184078 0.802000 8146262
0.315005 -0.178376 0.797000 5912403
0.313424 -0.172950 0.793000 8493730
0.314214 -0.168843 0.795000 9472944
0.313424 -0.163887 0.793000 9798043
0.317771 -0.161566 0.804000 9464699
0.322119 -0.159119 0.815000 10651015
0.321724 -0.154272 0.814000 12294294
0.335586 -0.237405 0.845000 9262692
0.333203 -0.230925 0.839000 8802384
0.333203 -0.226130 0.839000 9132374
0.331614 -0.220281 0.835000 9789268
0.328437 -0.213445 0.827000 10579286
0.326849 -0.207710 0.823000 10382433
0.325260 -0.202020 0.819000 10515046
0.323274 -0.196135 0.814000 10253424
0.321686 -0.190543 0.810000 8803425
0.316920 -0.183160 0.798000 7884625
0.315729 -0.177929 0.795000 6169937
0.314934 -0.172950 0.793000 9212595
0.316523 -0.169268 0.797000 9143975
0.323671 -0.159119 0.815000 11638687
0.337195 -0.237405 0.845000 9658999
0.334003 -0.230374 0.837000 8474706
0.333205 -0.225052 0.835000 8278860
0.331609 -0.219226 0.831000 9396308
0.329214 -0.212929 0.825000 10249809
0.327618 -0.207205 0.821000 10185313
0.326022 -0.201527 0.817000 9857888
0.324027 -0.195653 0.812000 9333614
0.321632 -0.189602 0.806000 8803167
0.318440 -0.183160 0.798000 7688278
0.317243 -0.177929 0.795000 6444911
0.316445 -0.172950 0.793000 9998762
0.318041 -0.169268 0.797000 8750240
0.338805 -0.237405 0.845000 9990795
0.335597 -0.230374 0.837000 8737108
0.333993 -0.224513 0.833000 8474434
0.333191 -0.219226 0.831000 8933459
0.330786 -0.212929 0.825000 9526348
0.329182 -0.207205 0.821000 9460832
0.327578 -0.201527 0.817000 9525339
0.325573 -0.195653 0.812000 9463915
0.323168 -0.189602 0.806000 8934749
0.319960 -0.183160 0.798000 7554395
0.319559 -0.178376 0.797000 8621452
0.319559 -0.173822 0.797000 9536673
0.319559 -0.169268 0.797000 10257561
0.337191 -0.230374 0.837000 8999275
0.336386 -0.225052 0.835000 8606023
0.334774 -0.219226 0.831000 8472660
0.331551 -0.212412 0.823000 8738639
0.329940 -0.206700 0.819000 8673119
0.328329 -0.201033 0.815000 9134430
0.326314 -0.195171 0.810000 9660006
0.324703 -0.189602 0.806000 9000541
0.321480 -0.183160 0.798000 7420755
0.321077 -0.178376 0.797000 10782355
0.321480 -0.174040 0.798000 9137300
0.321077 -0.169268 0.797000 11769511
0.337976 -0.225052 0.835000 8671821
0.336357 -0.219226 0.831000 8868949
0.333119 -0.212412 0.823000 9199186
0.331500 -0.206700 0.819000 9263966
0.329881 -0.201033 0.815000 9859426
0.327048 -0.194690 0.808000 9923681
0.325429 -0.189131 0.804000 8605533
0.323000 -0.183160 0.798000 8082506
0.323000 -0.178600 0.798000 9993881
0.323000 -0.174040 0.798000 9993862
0.338753 -0.224513 0.833000 8672871
0.337940 -0.219226 0.831000 9329241
0.334687 -0.212412 0.823000 9593175
0.333060 -0.206700 0.819000 9854307
0.331027 -0.200787 0.814000 10579814
0.327773 -0.194208 0.806000 10187360
0.326960 -0.189131 0.804000 8212830
0.324520 -0.183160 0.798000 8737381
0.324520 -0.178600 0.798000 9140885
0.324520 -0.174040 0.798000 10916760
0.340340 -0.224513 0.833000 9266049
0.338706 -0.218698 0.829000 9328733
0.336254 -0.212412 0.823000 9724253
0.334620 -0.206700 0.819000 10052199
0.332577 -0.200787 0.814000 10579307
0.329309 -0.194208 0.806000 9987934
0.328491 -0.189131 0.804000 8474463
0.326040 -0.183160 0.798000 9334144
0.328491 -0.179943 0.804000 10061968
0.328491 -0.175349 0.804000 11771306
0.339464 -0.218170 0.827000 9329534
0.337001 -0.211896 0.821000 9855342
0.336180 -0.206700 0.819000 10248553
0.334128 -0.200787 0.814000 10578802
0.331665 -0.194690 0.808000 9789039
0.330023 -0.189131 0.804000 8743293
0.327560 -0.183160 0.798000 9929622
0.330023 -0.179943 0.804000 10917019
0.330023 -0.175349 0.804000 12690088
0.341039 -0.218170 0.827000 10583710
0.338565 -0.211896 0.821000 10578816
0.337740 -0.206700 0.819000 10381675
0.335678 -0.200787 0.814000 10776186
0.333204 -0.194690 0.808000 10780288
0.331554 -0.189131 0.804000 10521755
0.329080 -0.183160 0.798000 11246251
0.331554 -0.179943 0.804000 11705255
0.342614 -0.218170 0.827000 11837349
0.340129 -0.211896 0.821000 11243161
0.339300 -0.206700 0.819000 10583183
0.337229 -0.200787 0.814000 10913426
0.335571 -0.195171 0.810000 11837333
0.333086 -0.189131 0.804000 12295327
0.341692 -0.211896 0.821000 11904945
0.340860 -0.206700 0.819000 11573170
0.337114 -0.195171 0.810000 12165289
0.148248 -0.185924 0.860000 6965318
0.146923 -0.191883 0.843000 7885391
0.149189 -0.185059 0.856000 7029562
0.149886 -0.181010 0.860000 6832438
0.148176 -0.220262 0.841000 8936034
0.149410 -0.217250 0.848000 8938596
0.148176 -0.201039 0.841000 7949908
0.148881 -0.197167 0.845000 7226943
0.148529 -0.191883 0.843000 6832455
0.150114 -0.189063 0.852000 6831675
0.150819 -0.185059 0.856000 6831662
0.151524 -0.181010 0.860000 6700335
0.149778 -0.225068 0.841000 8410724
0.149422 -0.219738 0.839000 7428189
0.150134 -0.215969 0.843000 7885662
0.149066 -0.209649 0.837000 8347225
0.149422 -0.205355 0.839000 7822681
0.149778 -0.201039 0.841000 7425359
0.149778 -0.196233 0.841000 6372418
0.150134 -0.191883 0.843000 5781816
0.151025 -0.188175 0.848000 6502708
0.151737 -0.184194 0.852000 6634029
0.152450 -0.180168 0.856000 6567720
0.153162 -0.176095 0.860000 6305322
0.153720 -0.238307 0.854000 10249046
0.152100 -0.230967 0.845000 9327181
0.151380 -0.225068 0.841000 8738381
0.151020 -0.219738 0.839000 8149337
0.151020 -0.214944 0.839000 8016471
0.150660 -0.209649 0.837000 7949397
0.150300 -0.204376 0.835000 7557720
0.151020 -0.200561 0.839000 7229514
0.151380 -0.196233 0.841000 6306372
0.151740 -0.191883 0.843000 5649962
0.152640 -0.188175 0.848000 6304812
0.153000 -0.183762 0.850000 6436652
0.153720 -0.179747 0.854000 6370337
0.154080 -0.175276 0.856000 6239012
0.154080 -0.170385 0.856000 5779753
0.156074 -0.244326 0.858000 10250342
0.155347 -0.238307 0.854000 8921417
0.153710 -0.230967 0.845000 9327695
0.152618 -0.224532 0.839000 9067341
0.152254 -0.219214 0.837000 8804179
0.151890 -0.213919 0.835000 8146772
0.151527 -0.208647 0.833000 7555150
0.151527 -0.203887 0.833000 7358286
0.152254 -0.200083 0.837000 7032646
0.152618 -0.195767 0.839000 6307411
0.152982 -0.191428 0.841000 5518900
0.153710 -0.187510 0.845000 6107436
0.154255 -0.183330 0.848000 6173737
0.154619 -0.178905 0.850000 6172452
0.154983 -0.174457 0.852000 6172452
0.154983 -0.169589 0.852000 5713190
0.158444 -0.250390 0.862000 10711172
0.157709 -0.244326 0.858000 9515578
0.156973 -0.238307 0.854000 9323324
0.155870 -0.231787 0.848000 9656657
0.154584 -0.225068 0.841000 9591884
0.153849 -0.219214 0.837000 9328205
0.153113 -0.213407 0.833000 8144976
0.152746 -0.208146 0.831000 7423047
0.152746 -0.203397 0.831000 7028803
0.153481 -0.199605 0.835000 6899266
0.153849 -0.195300 0.837000 6441058
0.154216 -0.190972 0.839000 5847615
0.154951 -0.187066 0.843000 6041900
0.154951 -0.182249 0.843000 5976614
0.155319 -0.177852 0.845000 5646887
0.155870 -0.173638 0.848000 6040612
0.155870 -0.168792 0.848000 5844002
0.159714 -0.249810 0.860000 9185623
0.158600 -0.243187 0.854000 8796989
0.158229 -0.237749 0.852000 9785921
0.156929 -0.230967 0.845000 9984082
0.155814 -0.224532 0.839000 10181458
0.154700 -0.218167 0.833000 9786960
0.154329 -0.212894 0.831000 8207955
0.153586 -0.207144 0.827000 7225411
0.153586 -0.202418 0.827000 6765373
0.153957 -0.198170 0.829000 6700347
0.154700 -0.194367 0.833000 6573648
0.155071 -0.190062 0.835000 6176315
0.155443 -0.185734 0.837000 5976111
0.155814 -0.181384 0.839000 5778727
0.156186 -0.177010 0.841000 5186340
0.156557 -0.172614 0.843000 5843492
0.156929 -0.168195 0.845000 5974820
0.157857 -0.164333 0.850000 5055773
0.161728 -0.250390 0.862000 8795690
0.160227 -0.243187 0.854000 9127745
0.159476 -0.237190 0.850000 9851205
0.158538 -0.230967 0.845000 10180691
0.157412 -0.224532 0.839000 10246488
0.156287 -0.218167 0.833000 9787475
0.155536 -0.212382 0.829000 8341590
0.154786 -0.206643 0.825000 7290432
0.154035 -0.200950 0.821000 6634039
0.154410 -0.196736 0.823000 6437429
0.155161 -0.192967 0.827000 6308157
0.155536 -0.188696 0.829000 6636343
0.156662 -0.185290 0.835000 5976369
0.157037 -0.180951 0.837000 5712423
0.157037 -0.176169 0.837000 5383713
0.157788 -0.172205 0.841000 5843491
0.158163 -0.167797 0.843000 5909541
0.159101 -0.163947 0.848000 5186846
0.163938 -0.256205 0.865000 8079963
0.163370 -0.250390 0.862000 8472373
0.162232 -0.243756 0.856000 9390920
0.161095 -0.237190 0.850000 9917000
0.160148 -0.230967 0.845000 10312281
0.159390 -0.225068 0.841000 10377303
0.157873 -0.218167 0.833000 9721175
0.157115 -0.212382 0.829000 8473943
0.156357 -0.206643 0.825000 7356997
0.155599 -0.200950 0.821000 6502714
0.155599 -0.196258 0.821000 6109233
0.155978 -0.192033 0.823000 6107704
0.156357 -0.187786 0.825000 7030314
0.156736 -0.183515 0.827000 6041651
0.157494 -0.179654 0.831000 5581353
0.158252 -0.175748 0.835000 5580574
0.158631 -0.171386 0.837000 5843230
0.158631 -0.166603 0.837000 5909280
0.159769 -0.162980 0.843000 5318431
0.160148 -0.158538 0.845000 4726039
0.166351 -0.262355 0.869000 11372978
0.165969 -0.256797 0.867000 8399408
0.165011 -0.250390 0.862000 8798784
0.164246 -0.244326 0.858000 9456975
0.162714 -0.237190 0.850000 10114378
0.161757 -0.230967 0.845000 10510176
0.160991 -0.225068 0.841000 10509910
0.159077 -0.217643 0.831000 9721692
0.158694 -0.212382 0.829000 8605528
0.157929 -0.206643 0.825000 7489610
0.157163 -0.200950 0.821000 6174524
0.156397 -0.195302 0.817000 5977645
0.157163 -0.191567 0.821000 5779250
0.157546 -0.187330 0.823000 6571806
0.157546 -0.182628 0.823000 6044725
0.158311 -0.178790 0.827000 5581098
0.159460 -0.175327 0.833000 5449498
0.159460 -0.170567 0.833000 5777945
0.159843 -0.166205 0.835000 5974298
0.160226 -0.161820 0.837000 5450272
0.160991 -0.157788 0.841000 4726548
0.168007 -0.262355 0.869000 10056296
0.167620 -0.256797 0.867000 8662063
0.166653 -0.250390 0.862000 9127009
0.165880 -0.244326 0.858000 9524067
0.164720 -0.237749 0.852000 10311756
0.163367 -0.230967 0.845000 10706262
0.162980 -0.225603 0.843000 10642259
0.160660 -0.217643 0.831000 9657697
0.160273 -0.212382 0.829000 8737110
0.159500 -0.206643 0.825000 7620176
0.158340 -0.200460 0.819000 5846342
0.157953 -0.195302 0.817000 5846071
0.158340 -0.191100 0.819000 5386291
0.158340 -0.186420 0.819000 6043435
0.158727 -0.182184 0.821000 6113333
0.159887 -0.178790 0.827000 5516333
0.160273 -0.174485 0.829000 5384221
0.160660 -0.170157 0.831000 5711898
0.161047 -0.165807 0.833000 6039321
0.161433 -0.161433 0.835000 5580575
0.161820 -0.157037 0.837000 4726296
0.170052 -0.262959 0.871000 9390366
0.169271 -0.256797 0.867000 8797742
0.168295 -0.250390 0.862000 10123138
0.167514 -0.244326 0.858000 9064056
0.165952 -0.237190 0.850000 8866125
0.165562 -0.231787 0.848000 9392204
0.164586 -0.225603 0.843000 9984847
0.162243 -0.217643 0.831000 9660774
0.161852 -0.212382 0.829000 8738388
0.161071 -0.206643 0.825000 7751254
0.159900 -0.200460 0.819000 6306383
0.159119 -0.194824 0.815000 5911361
