# .PCD v.7 - Point Cloud Data file format
VERSION .7
FIELDS x y z rgb
SIZE 4 4 4 4
TYPE F F F I
COUNT 1 1 1 1
WIDTH 1318
HEIGHT 1
POINTS 1318
DATA ascii
0.138740 -0.240671 0.991000 9065560
0.137200 -0.232400 0.980000 9131597
0.134540 -0.222403 0.961000 8344158
0.132720 -0.213977 0.948000 9987163
0.130900 -0.205700 0.935000 9196634
0.129500 -0.198214 0.925000 7819082
0.127120 -0.189383 0.908000 6179668
0.125440 -0.181760 0.896000 9518407
0.123480 -0.173880 0.882000 8544623
0.121660 -0.166351 0.869000 9468549
0.121380 -0.161014 0.867000 8079172
0.121660 -0.156420 0.869000 8145989
0.121940 -0.151803 0.871000 7228988
0.122220 -0.147163 0.873000 5709347
0.123200 -0.143314 0.880000 6169122
0.123480 -0.138600 0.882000 7418672
0.123480 -0.133560 0.882000 8208939
0.124180 -0.129249 0.887000 7547943
0.124460 -0.124460 0.889000 6631455
0.142756 -0.255811 1.006000 10247293
0.142330 -0.249317 1.003000 9722470
0.140202 -0.239943 0.988000 9330008
0.139067 -0.232400 0.980000 8868422
0.136370 -0.222403 0.961000 7951454
0.134526 -0.213977 0.948000 10184026
0.132255 -0.205040 0.932000 7814239
0.131262 -0.198214 0.925000 7950156
0.128850 -0.189383 0.908000 6835795
0.127147 -0.181760 0.896000 9260356
0.125160 -0.173880 0.882000 9074043
0.123883 -0.167117 0.873000 9991560
0.123031 -0.161014 0.867000 8078659
0.123599 -0.156780 0.871000 8080196
0.123599 -0.151803 0.871000 7557182
0.123883 -0.147163 0.873000 5709105
0.124592 -0.142989 0.878000 6102820
0.125160 -0.138600 0.882000 7417145
0.125160 -0.133560 0.882000 8738864
0.125870 -0.129249 0.887000 7614766
0.126153 -0.124460 0.889000 6960676
0.144672 -0.255811 1.006000 10452877
0.144241 -0.249317 1.003000 9786464
0.142084 -0.239943 0.988000 9527390
0.140933 -0.232400 0.980000 8670546
0.138201 -0.222403 0.961000 7492198
0.136331 -0.213977 0.948000 10378586
0.134462 -0.205700 0.935000 6442590
0.133024 -0.198214 0.925000 8080728
0.130579 -0.189383 0.908000 7426645
0.128853 -0.181760 0.896000 8996683
0.127128 -0.174274 0.884000 9597566
0.126265 -0.168074 0.878000 10585227
0.124683 -0.161014 0.867000 8079175
0.124970 -0.156420 0.869000 8080452
0.125258 -0.151803 0.871000 7884610
0.125546 -0.147163 0.873000 5773094
0.126265 -0.142989 0.878000 5973028
0.126552 -0.138286 0.880000 7414070
0.126840 -0.133560 0.882000 9261103
0.127559 -0.129249 0.887000 7680812
0.127847 -0.124460 0.889000 7222820
0.146589 -0.255811 1.006000 12561052
0.146151 -0.249317 1.003000 9787737
0.143529 -0.239214 0.985000 9396836
0.142800 -0.232400 0.980000 8933470
0.140031 -0.222403 0.961000 7819374
0.138137 -0.213977 0.948000 10248281
0.135806 -0.205040 0.932000 8081502
0.134786 -0.198214 0.925000 9463907
0.132600 -0.189800 0.910000 7031383
0.130269 -0.181354 0.894000 8671314
0.128811 -0.174274 0.884000 9729922
0.128229 -0.168457 0.880000 10715021
0.126334 -0.161014 0.867000 8079434
0.126626 -0.156420 0.869000 8079939
0.126917 -0.151803 0.871000 8016454
0.127209 -0.147163 0.873000 5707803
0.127937 -0.142989 0.878000 6103589
0.128229 -0.138286 0.880000 7483955
0.128520 -0.133560 0.882000 8733999
0.128811 -0.128811 0.884000 7681834
0.129540 -0.124460 0.889000 7551269
0.148505 -0.255811 1.006000 14586526
0.147619 -0.248571 1.000000 9854818
0.145848 -0.239943 0.988000 9265241
0.144224 -0.231689 0.977000 9260375
0.142157 -0.222866 0.963000 8081763
0.139943 -0.213977 0.948000 10182746
0.137581 -0.205040 0.932000 9659233
0.136548 -0.198214 0.925000 10843997
0.134333 -0.189800 0.910000 6639969
0.131529 -0.180746 0.891000 8405862
0.130495 -0.174274 0.884000 9795203
0.129905 -0.168457 0.880000 10913424
0.127986 -0.161014 0.867000 8079944
0.127986 -0.156060 0.867000 8079937
0.128576 -0.151803 0.871000 8082506
0.128871 -0.147163 0.873000 5706776
0.129610 -0.142989 0.878000 6170147
0.129905 -0.138286 0.880000 7616051
0.130200 -0.133560 0.882000 8208696
0.130495 -0.128811 0.884000 7681577
0.131233 -0.124460 0.889000 7814179
0.150720 -0.256320 1.008000 14000544
0.149524 -0.248571 1.000000 9723242
0.147281 -0.239214 0.985000 9266255
0.145636 -0.230977 0.974000 8932687
0.143991 -0.222866 0.963000 7947863
0.142048 -0.214429 0.950000 10183770
0.139356 -0.205040 0.932000 10384485
0.138609 -0.198643 0.927000 10579030
0.136067 -0.189800 0.910000 8611946
0.133674 -0.181354 0.894000 9331322
0.132179 -0.174274 0.884000 9661828
0.131581 -0.168457 0.880000 11043730
0.129637 -0.161014 0.867000 8078663
0.129936 -0.156420 0.869000 8144702
0.130235 -0.151803 0.871000 8348494
0.130534 -0.147163 0.873000 5576724
0.131282 -0.142989 0.878000 6301473
0.131581 -0.138286 0.880000 7813939
0.131880 -0.133560 0.882000 8076866
0.132179 -0.128811 0.884000 7484199
0.152337 -0.255811 1.006000 13404062
0.151429 -0.248571 1.000000 9590375
0.149611 -0.239943 0.988000 9197905
0.147491 -0.230977 0.974000 8604755
0.145523 -0.222403 0.961000 7752280
0.144311 -0.215106 0.953000 10250072
0.141131 -0.205040 0.932000 11038304
0.140071 -0.198214 0.925000 10380888
0.137800 -0.189800 0.910000 10512995
0.135377 -0.181354 0.894000 10321007
0.133863 -0.174274 0.884000 9463427
0.133257 -0.168457 0.880000 11178393
0.131289 -0.161014 0.867000 8014414
0.131289 -0.156060 0.867000 8143936
0.131894 -0.151803 0.871000 8543049
0.132197 -0.147163 0.873000 5510415
0.133257 -0.143314 0.880000 6367265
0.133257 -0.138286 0.880000 8008495
0.133560 -0.133560 0.882000 7880242
0.133863 -0.128811 0.884000 7286043
0.154253 -0.255811 1.006000 11883933
0.153333 -0.248571 1.000000 9524068
0.151493 -0.239943 0.988000 9657427
0.149347 -0.230977 0.974000 8605783
0.147353 -0.222403 0.961000 7621721
0.145667 -0.214429 0.950000 10446422
0.142907 -0.205040 0.932000 11037275
0.141833 -0.198214 0.925000 10446938
0.139533 -0.189800 0.910000 10380892
0.137080 -0.181354 0.894000 10910820
0.135547 -0.174274 0.884000 9132674
0.134933 -0.168457 0.880000 11308192
0.132940 -0.161014 0.867000 8013654
0.132940 -0.156060 0.867000 8143681
0.133553 -0.151803 0.871000 8742724
0.133860 -0.147163 0.873000 5510922
0.134627 -0.142989 0.878000 6301473
0.134933 -0.138286 0.880000 7944490
0.135240 -0.133560 0.882000 7483683
0.135547 -0.128811 0.884000 6694415
0.156170 -0.255811 1.006000 10385040
0.155704 -0.249317 1.003000 9453676
0.153375 -0.239943 0.988000 10051688
0.151202 -0.230977 0.974000 8605006
0.149184 -0.222403 0.961000 7425368
0.147476 -0.214429 0.950000 10708565
0.144682 -0.205040 0.932000 11038048
0.143595 -0.198214 0.925000 10447456
0.140956 -0.189383 0.908000 10249566
0.138783 -0.181354 0.894000 11565411
0.137230 -0.174274 0.884000 8808837
0.136610 -0.168457 0.880000 11507884
0.134591 -0.161014 0.867000 8013906
0.134591 -0.156060 0.867000 8144191
0.135212 -0.151803 0.871000 8871242
0.135523 -0.147163 0.873000 5509389
0.136299 -0.142989 0.878000 6235937
0.136610 -0.138286 0.880000 7876905
0.136920 -0.133560 0.882000 7028009
0.137230 -0.128811 0.884000 6105632
0.158871 -0.257083 1.011000 10179460
0.157614 -0.249317 1.003000 9657459
0.155729 -0.240671 0.991000 9724542
0.153057 -0.230977 0.974000 8735813
0.151014 -0.222403 0.961000 7884119
0.149286 -0.214429 0.950000 10774867
0.146457 -0.205040 0.932000 11169893
0.145357 -0.198214 0.925000 11169381
0.142686 -0.189383 0.908000 9854304
0.140486 -0.181354 0.894000 11698018
0.138914 -0.174274 0.884000 8803975
0.137971 -0.168074 0.878000 11638456
0.135929 -0.160643 0.865000 8013903
0.135929 -0.155700 0.865000 8209468
0.136557 -0.151454 0.869000 8874832
0.137186 -0.147163 0.873000 5445392
0.137971 -0.142989 0.878000 6104098
0.138286 -0.138286 0.880000 7615784
0.138600 -0.133560 0.882000 7356207
0.138914 -0.128811 0.884000 6697520
0.160797 -0.257083 1.011000 9987200
0.159525 -0.249317 1.003000 9917799
0.157616 -0.240671 0.991000 9396579
0.154912 -0.230977 0.974000 8928570
0.152845 -0.222403 0.961000 8344663
0.150777 -0.213977 0.948000 10840918
0.147914 -0.204600 0.930000 11234913
0.147119 -0.198214 0.925000 11890525
0.143938 -0.188757 0.905000 9395290
0.142189 -0.181354 0.894000 11762012
0.141075 -0.174866 0.887000 8742021
0.139167 -0.167500 0.875000 11774898
0.137576 -0.160643 0.865000 7948881
0.137576 -0.155700 0.865000 8209981
0.138212 -0.151454 0.869000 8806473
0.138849 -0.147163 0.873000 5444882
0.139644 -0.142989 0.878000 5973281
0.139644 -0.137971 0.878000 7417640
0.139962 -0.133257 0.880000 7617326
0.140280 -0.128520 0.882000 7288370
0.162723 -0.257083 1.011000 9786237
0.161435 -0.249317 1.003000 9656155
0.159987 -0.241400 0.994000 9527368
0.157250 -0.231689 0.977000 8471855
0.154675 -0.222403 0.961000 8079703
0.152583 -0.213977 0.948000 10775384
0.150008 -0.205040 0.932000 10906717
0.148881 -0.198214 0.925000 10969172
0.145340 -0.188340 0.903000 8667220
0.143891 -0.181354 0.894000 11697238
0.142765 -0.174866 0.887000 8799618
0.140511 -0.167117 0.873000 11770283
0.139224 -0.160643 0.865000 8014932
0.139224 -0.155700 0.865000 8144190
0.140190 -0.151803 0.871000 8809283
0.140511 -0.147163 0.873000 5313811
0.141316 -0.142989 0.878000 5840928
0.141638 -0.138286 0.880000 7286567
0.141960 -0.133560 0.882000 7617068
0.142282 -0.128811 0.884000 7289140
0.164649 -0.257083 1.011000 9527675
0.163346 -0.249317 1.003000 9395802
0.161391 -0.240671 0.991000 9657682
0.159600 -0.232400 0.980000 8077646
0.156506 -0.222403 0.961000 7819097
0.154714 -0.214429 0.950000 10643031
0.151783 -0.205040 0.932000 10574415
0.150154 -0.197571 0.922000 10112856
0.147060 -0.188340 0.903000 7887963
0.145594 -0.181354 0.894000 11565913
0.144454 -0.174866 0.887000 8806785
0.141849 -0.166734 0.871000 11836584
0.140871 -0.160643 0.865000 8079959
0.140871 -0.155700 0.865000 8079168
0.141523 -0.151454 0.869000 8806987
0.142174 -0.147163 0.873000 5180687
0.142989 -0.142989 0.878000 5709854
0.143314 -0.138286 0.880000 7220772
0.143640 -0.133560 0.882000 7616550
0.143966 -0.128811 0.884000 7223338
0.166080 -0.256320 1.008000 9459321
0.165256 -0.249317 1.003000 9131608
0.163279 -0.240671 0.991000 9395037
0.160972 -0.231689 0.977000 8412012
0.158666 -0.222866 0.963000 8212315
0.156524 -0.214429 0.950000 9590614
0.154052 -0.205700 0.935000 10439234
0.152405 -0.198214 0.925000 10575452
0.148780 -0.188340 0.903000 9660514
0.147297 -0.181354 0.894000 11631452
0.146144 -0.174866 0.887000 8933759
0.143837 -0.167117 0.873000 11901349
0.142519 -0.160643 0.865000 8144731
0.142519 -0.155700 0.865000 8209730
0.143508 -0.151803 0.871000 9007186
0.143837 -0.147163 0.873000 4985354
0.144167 -0.142500 0.875000 5642780
0.144990 -0.138286 0.880000 7089696
0.145320 -0.133560 0.882000 7682593
0.145650 -0.128811 0.884000 7748896
0.168000 -0.256320 1.008000 9331831
0.167167 -0.249317 1.003000 8869461
0.165167 -0.240671 0.991000 9132382
0.162833 -0.231689 0.977000 8744572
0.160500 -0.222866 0.963000 8607312
0.158000 -0.213977 0.948000 8544593
0.156167 -0.206140 0.937000 10312788
0.154167 -0.198214 0.925000 11098455
0.150500 -0.188340 0.903000 11366503
0.149333 -0.181760 0.896000 11695971
0.147833 -0.174866 0.887000 9069951
0.145500 -0.167117 0.873000 12034470
0.144167 -0.160643 0.865000 8146269
0.144167 -0.155700 0.865000 8275527
0.144833 -0.151454 0.869000 9200469
0.145500 -0.147163 0.873000 4852236
0.145833 -0.142500 0.875000 5578528
0.146667 -0.138286 0.880000 6959140
0.147000 -0.133560 0.882000 7746595
0.147333 -0.128811 0.884000 8209700
0.169077 -0.249317 1.003000 8539985
0.168066 -0.242129 0.997000 9264478
0.164694 -0.231689 0.977000 9004683
0.162334 -0.222866 0.963000 8803142
0.160143 -0.214429 0.950000 8475724
0.157951 -0.206140 0.937000 11703399
0.155929 -0.198214 0.925000 10903889
0.152220 -0.188340 0.903000 11365484
0.150703 -0.181354 0.894000 11894377
0.149523 -0.174866 0.887000 9063806
0.146826 -0.166734 0.871000 12032679
0.145309 -0.160086 0.862000 8211807
0.145309 -0.155160 0.862000 8275020
0.146489 -0.151454 0.869000 8938328
0.146826 -0.146826 0.871000 4722702
0.147163 -0.142174 0.873000 5643044
0.148006 -0.137971 0.878000 6827815
0.148343 -0.133257 0.880000 7089701
0.148680 -0.128520 0.882000 7484199
0.149523 -0.124180 0.887000 7221799
0.170988 -0.249317 1.003000 8212307
0.169453 -0.241400 0.994000 9329495
0.166044 -0.230977 0.974000 9333620
0.164169 -0.222866 0.963000 8933197
0.161611 -0.213977 0.948000 8411469
0.159395 -0.205700 0.935000 13010025
0.157690 -0.198214 0.925000 10770240
0.153599 -0.187923 0.901000 11366245
0.151894 -0.180746 0.891000 12023138
0.150701 -0.174274 0.884000 9001852
0.148485 -0.166734 0.871000 12033961
0.146950 -0.160086 0.862000 8211807
0.146950 -0.155160 0.862000 8209742
0.148144 -0.151454 0.869000 8608853
0.148144 -0.146489 0.869000 4655372
0.148826 -0.142174 0.873000 5644324
0.149678 -0.137971 0.878000 6762279
0.150019 -0.133257 0.880000 6367270
0.150360 -0.128520 0.882000 6694693
0.151212 -0.124180 0.887000 6827304
0.171864 -0.247826 0.997000 7947349
0.170830 -0.240671 0.991000 9003344
0.167554 -0.230503 0.972000 8474972
0.165658 -0.222403 0.961000 8864852
0.163417 -0.213977 0.948000 8408142
0.161176 -0.205700 0.935000 13014890
0.159797 -0.198643 0.927000 10574638
0.154798 -0.187297 0.898000 11236191
0.153591 -0.180746 0.891000 11498842
0.152385 -0.174274 0.884000 9255546
0.150489 -0.167117 0.873000 12031659
0.149110 -0.160643 0.865000 8408928
0.148592 -0.155160 0.862000 8144463
0.149799 -0.151454 0.869000 8676178
0.149799 -0.146489 0.869000 4591369
0.150833 -0.142500 0.875000 5840932
0.151350 -0.137971 0.878000 6827303
0.151695 -0.133257 0.880000 6168872
0.152040 -0.128520 0.882000 6629154
0.152902 -0.124180 0.887000 6892330
0.173763 -0.247826 0.997000 7682636
0.172194 -0.239943 0.988000 8672079
0.169406 -0.230503 0.972000 7683415
0.167489 -0.222403 0.961000 8736346
0.165571 -0.214429 0.950000 8407360
0.162957 -0.205700 0.935000 12946540
0.161563 -0.198643 0.927000 10438706
0.156509 -0.187297 0.898000 11103578
0.155289 -0.180746 0.891000 10903131
0.153720 -0.173880 0.882000 9524345
0.151803 -0.166734 0.871000 12032419
0.150757 -0.160643 0.865000 8541531
0.150757 -0.155700 0.865000 8145487
0.151454 -0.151454 0.869000 8740176
0.151803 -0.146826 0.871000 4590606
0.152500 -0.142500 0.875000 5973029
0.153023 -0.137971 0.878000 6892843
0.153371 -0.133257 0.880000 5908007
0.153720 -0.128520 0.882000 6564388
0.154591 -0.124180 0.887000 6893097
0.175662 -0.247826 0.997000 7288387
0.174076 -0.239943 0.988000 7883853
0.171257 -0.230503 0.972000 8213073
0.169319 -0.222403 0.961000 8668512
0.167381 -0.214429 0.950000 8207665
0.164738 -0.205700 0.935000 13147246
0.163329 -0.198643 0.927000 9652790
0.158219 -0.187297 0.898000 11231318
0.156986 -0.180746 0.891000 10248027
0.155400 -0.173880 0.882000 9783673
0.153462 -0.166734 0.871000 11965338
0.152405 -0.160643 0.865000 8475734
0.152405 -0.155700 0.865000 8145230
0.153110 -0.151454 0.869000 8874831
0.153462 -0.146826 0.871000 4460818
0.154167 -0.142500 0.875000 6104870
0.154695 -0.137971 0.878000 6696239
0.155048 -0.133257 0.880000 5908263
0.155400 -0.128520 0.882000 6630182
0.156281 -0.124180 0.887000 6959400
0.177561 -0.247826 0.997000 6897230
0.175958 -0.239943 0.988000 7094340
0.173109 -0.230503 0.972000 8808793
0.171150 -0.222403 0.961000 8605280
0.168834 -0.213977 0.948000 8071708
0.165985 -0.205040 0.932000 13276273
0.165094 -0.198643 0.927000 8926001
0.159930 -0.187297 0.898000 11361880
0.158683 -0.180746 0.891000 9526362
0.157080 -0.173880 0.882000 10052978
0.155121 -0.166734 0.871000 11901597
0.154052 -0.160643 0.865000 8410706
0.154052 -0.155700 0.865000 8210767
0.154765 -0.151454 0.869000 8935512
0.155121 -0.146826 0.871000 4396824
0.156368 -0.142989 0.878000 6170917
0.156368 -0.137971 0.878000 6499371
0.156724 -0.133257 0.880000 5908001
0.157436 -0.128811 0.884000 6695972
0.157970 -0.124180 0.887000 7024425
0.178920 -0.247080 0.994000 6699353
0.177840 -0.239943 0.988000 6766139
0.174960 -0.230503 0.972000 8937824
0.172980 -0.222403 0.961000 8733791
0.171000 -0.214429 0.950000 6824711
0.168300 -0.205700 0.935000 13215091
0.166860 -0.198643 0.927000 9128235
0.161640 -0.187297 0.898000 9328731
0.160380 -0.180746 0.891000 9002072
0.159120 -0.174274 0.884000 10174572
0.156780 -0.166734 0.871000 11833760
0.155700 -0.160643 0.865000 8408141
0.156060 -0.156060 0.867000 8143952
0.156420 -0.151454 0.869000 8744034
0.156780 -0.146826 0.871000 4594206
0.158040 -0.142989 0.878000 6301733
0.158400 -0.138286 0.880000 6499879
0.158400 -0.133257 0.880000 5644572
0.159120 -0.128811 0.884000 6761506
0.159660 -0.124180 0.887000 7155242
0.180813 -0.247080 0.994000 6508365
0.179722 -0.239943 0.988000 6438206
0.176811 -0.230503 0.972000 9071204
0.174810 -0.222403 0.961000 8801114
0.172446 -0.213977 0.948000 5579569
0.170081 -0.205700 0.935000 13074288
0.168626 -0.198643 0.927000 9323079
0.163350 -0.187297 0.898000 7291979
0.162077 -0.180746 0.891000 8480867
0.160804 -0.174274 0.884000 10250868
0.158439 -0.166734 0.871000 11835300
0.157348 -0.160643 0.865000 8407369
0.157711 -0.156060 0.867000 8142420
0.158439 -0.151803 0.871000 8541280
0.158439 -0.146826 0.871000 4792616
0.159712 -0.142989 0.878000 6367528
0.160076 -0.138286 0.880000 6565423
0.160076 -0.133257 0.880000 5383460
0.160804 -0.128811 0.884000 6827556
0.161350 -0.124180 0.887000 7220780
0.182707 -0.247080 0.994000 6504256
0.181052 -0.239214 0.985000 6634560
0.178663 -0.230503 0.972000 9198696
0.176641 -0.222403 0.961000 8669012
0.174251 -0.213977 0.948000 6896730
0.171310 -0.205040 0.932000 12354412
0.170391 -0.198643 0.927000 9986915
0.165061 -0.187297 0.898000 7353658
0.163407 -0.180340 0.889000 8479342
0.162488 -0.174274 0.884000 10709116
0.160098 -0.166734 0.871000 11898536
0.159363 -0.161014 0.867000 8731717
0.159363 -0.156060 0.867000 8341591
0.160098 -0.151803 0.871000 8354654
0.160466 -0.147163 0.873000 5119793
0.161385 -0.142989 0.878000 6563116
0.161752 -0.138286 0.880000 6631478
0.161752 -0.133257 0.880000 5907757
0.162488 -0.128811 0.884000 6893093
0.163039 -0.124180 0.887000 7286318
0.184043 -0.246334 0.991000 6505792
0.182929 -0.239214 0.985000 6765638
0.180514 -0.230503 0.972000 9330028
0.178471 -0.222403 0.961000 8471635
0.176057 -0.213977 0.948000 8213846
0.173086 -0.205040 0.932000 11628391
0.171786 -0.198214 0.925000 10711145
0.166771 -0.187297 0.898000 7423562
0.165100 -0.180340 0.889000 8548755
0.164171 -0.174274 0.884000 11170690
0.161757 -0.166734 0.871000 12031401
0.160643 -0.160643 0.865000 9073277
0.161014 -0.156060 0.867000 8616057
0.161757 -0.151803 0.871000 8083814
0.162129 -0.147163 0.873000 5515568
0.163057 -0.142989 0.878000 6695466
0.163429 -0.138286 0.880000 6697011
0.163800 -0.133560 0.882000 6433325
0.164729 -0.129249 0.887000 6959145
0.185368 -0.245589 0.988000 7029311
0.184805 -0.239214 0.985000 6632780
0.182366 -0.230503 0.972000 9460591
0.180302 -0.222403 0.961000 8667474
0.177863 -0.213977 0.948000 9068369
0.175424 -0.205700 0.935000 10577763
0.173548 -0.198214 0.925000 10316142
0.169420 -0.188340 0.903000 8869466
0.166793 -0.180340 0.889000 9206455
0.165855 -0.174274 0.884000 11505544
0.163791 -0.167117 0.873000 12035753
0.162666 -0.161014 0.867000 9608630
0.163041 -0.156420 0.869000 9077147
0.163416 -0.151803 0.871000 7432558
0.164167 -0.147500 0.875000 5842478
0.164730 -0.142989 0.878000 6695721
0.165105 -0.138286 0.880000 6893615
0.165480 -0.133560 0.882000 6499117
0.166418 -0.129249 0.887000 7090220
0.187250 -0.245589 0.988000 7553086
0.186681 -0.239214 0.985000 6438223
0.184217 -0.230503 0.972000 9591159
0.182132 -0.222403 0.961000 8864336
0.179669 -0.213977 0.948000 9922657
0.176636 -0.205040 0.932000 9526093
0.174741 -0.197571 0.922000 9925740
0.171519 -0.188757 0.905000 10246490
0.168866 -0.180746 0.891000 9873329
0.167539 -0.174274 0.884000 11759990
0.165454 -0.167117 0.873000 12100517
0.164317 -0.161014 0.867000 10055562
0.164696 -0.156420 0.869000 9602438
0.165075 -0.151803 0.871000 6706528
0.165833 -0.147500 0.875000 6237742
0.166402 -0.142989 0.878000 6695981
0.166781 -0.138286 0.880000 7089709
0.167160 -0.133560 0.882000 6565165
0.168108 -0.129249 0.887000 7156019
0.189706 -0.246334 0.991000 7355196
0.188174 -0.238729 0.983000 7159378
0.186451 -0.230977 0.974000 9791103
0.184346 -0.222866 0.963000 9192015
0.181474 -0.213977 0.948000 9396593
0.178029 -0.204600 0.930000 9129271
0.176497 -0.197571 0.922000 10317161
0.173243 -0.188757 0.905000 10444378
0.170563 -0.180746 0.891000 9467818
0.169223 -0.174274 0.884000 11567717
0.167117 -0.167117 0.873000 10852513
0.165969 -0.161014 0.867000 8273502
0.166351 -0.156420 0.869000 9204080
0.167117 -0.152151 0.873000 6245458
0.167500 -0.147500 0.875000 6236717
0.168074 -0.142989 0.878000 6827056
0.168457 -0.138286 0.880000 6893610
0.169223 -0.133863 0.884000 6630701
0.169797 -0.129249 0.887000 7156025
0.191593 -0.246334 0.991000 7219756
0.190047 -0.238729 0.983000 7816529
0.187920 -0.230503 0.972000 9989742
0.185793 -0.222403 0.961000 9455952
0.183280 -0.213977 0.948000 8941667
0.179800 -0.204600 0.930000 8668999
0.177867 -0.197143 0.920000 10711917
0.174580 -0.188340 0.903000 10642016
0.172260 -0.180746 0.891000 9142436
0.170907 -0.174274 0.884000 11364714
0.168780 -0.167117 0.873000 9671333
0.168007 -0.161386 0.869000 6436688
0.168393 -0.156780 0.871000 8810362
0.168780 -0.152151 0.873000 5782345
0.169167 -0.147500 0.875000 6236716
0.169747 -0.142989 0.878000 6958385
0.170133 -0.138286 0.880000 6697005
0.170907 -0.133863 0.884000 6696233
0.171487 -0.129249 0.887000 7089717
0.193481 -0.246334 0.991000 7023644
0.192310 -0.239214 0.985000 8471121
0.190162 -0.230977 0.974000 10051676
0.187624 -0.222403 0.961000 9653842
0.185476 -0.214429 0.950000 9200213
0.180986 -0.203940 0.927000 8737112
0.179033 -0.196500 0.917000 10776432
0.176300 -0.188340 0.903000 11100774
0.174543 -0.181354 0.894000 9198237
0.172200 -0.173880 0.882000 11494256
0.170052 -0.166734 0.871000 9600680
0.169662 -0.161386 0.869000 6307651
0.170052 -0.156780 0.871000 9204100
0.170443 -0.152151 0.873000 5049407
0.171419 -0.148006 0.878000 6105387
0.171419 -0.142989 0.878000 6958385
0.171810 -0.138286 0.880000 6369071
0.172590 -0.133863 0.884000 6695460
0.173176 -0.129249 0.887000 7024945
0.193791 -0.238729 0.983000 9062226
0.192017 -0.230977 0.974000 10116707
0.189454 -0.222403 0.961000 9852501
0.187877 -0.215106 0.953000 9463893
0.182357 -0.203500 0.925000 8737113
0.180780 -0.196500 0.917000 10907237
0.178414 -0.188757 0.905000 11561310
0.176246 -0.181354 0.894000 9190037
0.173880 -0.173880 0.882000 11630453
0.172106 -0.167117 0.873000 9605296
0.171317 -0.161386 0.869000 6115430
0.171711 -0.156780 0.871000 9665415
0.172106 -0.152151 0.873000 4334158
0.173091 -0.148006 0.878000 5973809
0.173486 -0.143314 0.880000 6894129
0.173880 -0.138600 0.882000 6106417
0.174866 -0.134317 0.887000 6696490
0.175260 -0.129540 0.889000 6960431
0.195664 -0.238729 0.983000 9259091
0.193474 -0.230503 0.972000 9985641
0.190688 -0.221709 0.958000 9457752
0.189692 -0.215106 0.953000 10054741
0.184119 -0.203500 0.925000 9064539
0.182527 -0.196500 0.917000 10905946
0.180735 -0.189383 0.908000 11036759
0.178347 -0.181760 0.896000 9259660
0.175560 -0.173880 0.882000 11962489
0.173769 -0.167117 0.873000 9867192
0.172972 -0.161386 0.869000 7237513
0.173370 -0.156780 0.871000 9667465
0.173769 -0.152151 0.873000 5048670
0.174764 -0.148006 0.878000 6368822
0.175162 -0.143314 0.880000 7091761
0.175560 -0.138600 0.882000 6566194
0.176555 -0.134317 0.887000 7090480
0.176953 -0.129540 0.889000 6960684
0.197536 -0.238729 0.983000 9392206
0.194120 -0.229080 0.966000 9788508
0.191910 -0.221014 0.955000 8997196
0.191508 -0.215106 0.953000 10646627
0.186283 -0.203940 0.927000 9328476
0.184273 -0.196500 0.917000 10907235
0.181862 -0.188757 0.905000 10446177
0.180053 -0.181760 0.896000 9332338
0.177240 -0.173880 0.882000 12293241
0.175431 -0.167117 0.873000 10125748
0.174628 -0.161386 0.869000 8349825
0.175030 -0.156780 0.871000 9666961
0.175833 -0.152500 0.875000 5712732
0.176436 -0.148006 0.878000 6829109
0.176838 -0.143314 0.880000 7223091
0.177240 -0.138600 0.882000 7025969
0.178245 -0.134317 0.887000 7419700
0.178647 -0.129540 0.889000 7026480
0.199814 -0.239214 0.985000 9459784
0.196569 -0.229791 0.969000 9788238
0.193729 -0.221014 0.955000 8334145
0.192714 -0.214429 0.950000 10710896
0.188049 -0.203940 0.927000 9263198
0.186020 -0.196500 0.917000 10776684
0.183586 -0.188757 0.905000 10576748
0.181760 -0.181760 0.896000 9455960
0.179326 -0.174274 0.884000 12295288
0.176689 -0.166734 0.871000 9074608
0.176689 -0.161757 0.871000 7492985
0.176689 -0.156780 0.871000 9666712
0.177500 -0.152500 0.875000 6170971
0.178109 -0.148006 0.878000 7157555
0.178514 -0.143314 0.880000 7288886
0.179326 -0.138914 0.884000 7288111
0.179934 -0.134317 0.887000 7551801
0.180746 -0.129831 0.891000 6763828
0.201690 -0.239214 0.985000 9456715
0.197800 -0.229080 0.966000 9789013
0.195548 -0.221014 0.955000 7620166
0.195138 -0.215106 0.953000 10774403
0.189814 -0.203940 0.927000 9195856
0.187767 -0.196500 0.917000 10647662
0.185310 -0.188757 0.905000 10711924
0.183467 -0.181760 0.896000 9634102
0.181010 -0.174274 0.884000 12291982
0.178348 -0.166734 0.871000 8085933
0.178348 -0.161757 0.871000 6643330
0.178348 -0.156780 0.871000 9733529
0.179167 -0.152500 0.875000 6567257
0.179781 -0.148006 0.878000 7551799
0.180600 -0.143640 0.882000 7288631
0.181010 -0.138914 0.884000 7550770
0.182033 -0.134620 0.889000 7682868
0.182443 -0.129831 0.891000 6565941
0.203567 -0.239214 0.985000 9458765
0.199020 -0.228369 0.963000 9656667
0.197367 -0.221014 0.955000 8408652
0.196953 -0.215106 0.953000 11040149
0.191580 -0.203940 0.927000 8404035
0.189513 -0.196500 0.917000 10709616
0.187653 -0.189383 0.908000 11238780
0.185173 -0.181760 0.896000 9318676
0.183313 -0.174866 0.887000 12224163
0.180420 -0.167117 0.873000 9074601
0.180007 -0.161757 0.871000 8024715
0.180420 -0.157140 0.873000 9601434
0.180833 -0.152500 0.875000 6690392
0.181867 -0.148343 0.880000 7748922
0.182280 -0.143640 0.882000 7419448
0.183313 -0.139386 0.887000 7812661
0.183727 -0.134620 0.889000 7617071
0.184760 -0.130269 0.894000 6303285
0.205443 -0.239214 0.985000 9391169
0.200854 -0.228369 0.963000 9524054
0.199186 -0.221014 0.955000 9129539
0.198143 -0.214429 0.950000 11242382
0.193971 -0.204600 0.930000 7554893
0.191260 -0.196500 0.917000 10773114
0.188757 -0.188757 0.905000 11697783
0.186463 -0.181354 0.894000 8985901
0.184377 -0.174274 0.884000 12093345
0.182083 -0.167117 0.873000 10063527
0.181666 -0.161757 0.871000 9335681
0.182083 -0.157140 0.873000 9470141
0.183126 -0.153023 0.878000 6828369
0.183543 -0.148343 0.880000 7946041
0.184377 -0.143966 0.884000 7485244
0.185003 -0.139386 0.887000 8074809
0.185420 -0.134620 0.889000 7485494
0.186463 -0.130269 0.894000 6106168
0.207319 -0.239214 0.985000 9130549
0.201636 -0.227183 0.958000 9195856
0.200584 -0.220551 0.953000 9194555
0.199531 -0.213977 0.948000 10976391
0.196164 -0.205040 0.932000 7949655
0.193638 -0.197143 0.920000 10446980
0.191112 -0.189383 0.908000 10780530
0.187534 -0.180746 0.891000 9260358
0.186692 -0.174866 0.887000 11758751
0.183746 -0.167117 0.873000 9138596
0.183746 -0.162129 0.873000 8871543
0.184167 -0.157500 0.875000 9671136
0.184798 -0.153023 0.878000 7549514
0.185219 -0.148343 0.880000 8077368
0.186692 -0.144454 0.887000 7550529
0.187113 -0.139700 0.889000 7942973
0.187534 -0.134923 0.891000 7878461
0.188587 -0.130560 0.896000 7288634
0.208133 -0.238000 0.980000 8864318
0.203461 -0.227183 0.958000 8933457
0.202399 -0.220551 0.953000 9194048
0.200700 -0.213300 0.945000 10783110
0.197939 -0.205040 0.932000 8281709
0.194753 -0.196500 0.917000 10128517
0.192842 -0.189383 0.908000 9859446
0.189231 -0.180746 0.891000 9589608
0.188382 -0.174866 0.887000 11434650
0.185409 -0.167117 0.873000 8214448
0.185409 -0.162129 0.873000 8421269
0.185833 -0.157500 0.875000 9882576
0.186470 -0.153023 0.878000 8269629
0.187320 -0.148680 0.882000 8207931
0.188382 -0.144454 0.887000 7551040
0.188807 -0.139700 0.889000 7810616
0.189869 -0.135377 0.894000 8207672
0.190293 -0.130560 0.896000 8470076
0.210000 -0.238000 0.980000 8664648
0.204643 -0.226471 0.955000 9130066
0.204643 -0.221014 0.955000 9126982
0.203143 -0.213977 0.948000 11041924
0.199714 -0.205040 0.932000 9859203
0.197143 -0.197143 0.920000 10518149
0.194571 -0.189383 0.908000 9731451
0.190929 -0.180746 0.891000 9790346
0.190071 -0.174866 0.887000 11563414
0.187071 -0.167117 0.873000 10327996
0.187500 -0.162500 0.875000 9807539
0.188143 -0.158040 0.878000 10001600
0.188571 -0.153371 0.880000 8864048
0.189429 -0.149017 0.884000 8273982
0.190500 -0.144780 0.889000 7354686
0.190500 -0.139700 0.889000 8009266
0.191571 -0.135377 0.894000 8800563
0.211867 -0.238000 0.980000 8402009
0.206462 -0.226471 0.955000 9261137
0.206462 -0.221014 0.955000 8996928
0.204300 -0.213300 0.945000 11296634
0.201490 -0.205040 0.932000 11369098
0.198895 -0.197143 0.920000 10853000
0.195652 -0.188757 0.905000 9590383
0.193274 -0.181354 0.894000 9934493
0.191761 -0.174866 0.887000 11630723
0.189167 -0.167500 0.875000 12357260
0.189167 -0.162500 0.875000 11169152
0.189815 -0.158040 0.878000 10134717
0.190248 -0.153371 0.880000 9452852
0.191112 -0.149017 0.884000 8405059
0.192193 -0.144780 0.889000 7093310
0.192626 -0.140014 0.891000 8272698
0.193274 -0.135377 0.894000 9390650
0.212425 -0.230977 0.974000 9392720
0.207845 -0.220551 0.953000 8931898
0.206754 -0.213977 0.948000 10579824
0.203265 -0.205040 0.932000 11244945
0.200648 -0.197143 0.920000 11047563
0.198030 -0.189383 0.908000 8466275
0.193887 -0.180340 0.889000 10520496
0.192360 -0.173880 0.882000 11425648
0.190833 -0.167500 0.875000 10970204
0.190397 -0.162129 0.873000 9776716
0.190833 -0.157500 0.875000 10191801
0.191488 -0.153023 0.878000 9324599
0.192796 -0.149017 0.884000 8536647
0.193450 -0.144454 0.887000 7684414
0.193887 -0.139700 0.889000 8405569
0.194977 -0.135377 0.894000 9194048
0.214280 -0.230977 0.974000 9589849
0.209660 -0.220551 0.953000 8799810
0.207240 -0.212623 0.942000 9927993
0.204600 -0.204600 0.930000 11040410
0.201740 -0.196500 0.917000 11249052
0.198660 -0.188340 0.903000 7357031
0.195580 -0.180340 0.889000 11112870
0.193600 -0.173486 0.880000 11234174
0.192500 -0.167500 0.875000 9595745
0.192500 -0.162500 0.875000 8405110
0.193160 -0.158040 0.878000 10259391
0.193600 -0.153371 0.880000 9127227
0.194480 -0.149017 0.884000 8733513
0.195580 -0.144780 0.889000 8275010
0.196020 -0.140014 0.891000 8537157
0.197120 -0.135680 0.896000 8931909
0.216135 -0.230977 0.974000 9392482
0.210810 -0.219857 0.950000 8340298
0.209034 -0.212623 0.942000 9789954
0.206815 -0.205040 0.932000 11245987
0.203487 -0.196500 0.917000 10852525
0.200380 -0.188340 0.903000 8075884
0.198383 -0.181354 0.894000 10845339
0.195276 -0.173486 0.880000 11770764
0.194167 -0.167500 0.875000 10514021
0.194832 -0.163057 0.878000 8799647
0.195276 -0.158400 0.880000 10516164
0.195720 -0.153720 0.882000 9260608
0.196830 -0.149523 0.887000 8735050
0.197273 -0.144780 0.889000 8142663
0.198383 -0.140486 0.894000 8276040
0.198827 -0.135680 0.896000 8866122
0.217543 -0.230503 0.972000 9195351
0.213290 -0.220551 0.953000 7881027
0.210829 -0.212623 0.942000 9653791
0.208590 -0.205040 0.932000 11374994
0.204338 -0.195643 0.913000 10530189
0.202100 -0.188340 0.903000 8797275
0.199414 -0.180746 0.891000 10583168
0.196952 -0.173486 0.880000 12222094
0.196505 -0.168074 0.878000 11363720
0.196505 -0.163057 0.878000 9132177
0.196952 -0.158400 0.880000 10777995
0.197848 -0.154069 0.884000 9391175
0.198519 -0.149523 0.887000 8801870
0.200086 -0.145594 0.894000 7949139
0.200533 -0.140800 0.896000 7951454
0.201652 -0.136437 0.901000 8800591
0.219394 -0.236057 0.972000 8670833
0.218717 -0.229791 0.969000 8867148
0.215106 -0.220551 0.953000 7420733
0.212623 -0.212623 0.942000 9063996
0.209914 -0.204600 0.930000 11382145
0.206529 -0.196071 0.915000 9789805
0.203820 -0.188340 0.903000 9458250
0.201111 -0.180746 0.891000 10576997
0.198629 -0.173486 0.880000 11968911
0.198177 -0.168074 0.878000 10646442
0.198629 -0.163429 0.880000 10159235
0.199531 -0.159120 0.884000 10311761
0.200209 -0.154591 0.887000 9654863
0.200660 -0.149860 0.889000 8867409
0.201789 -0.145594 0.894000 8479071
0.202691 -0.141114 0.898000 8281716
0.203820 -0.136740 0.903000 8932437
0.220563 -0.235329 0.969000 9136770
0.220563 -0.229791 0.969000 8604231
0.217376 -0.221014 0.955000 6963789
0.213962 -0.212171 0.940000 8538438
0.211003 -0.203940 0.927000 11363417
0.207816 -0.195643 0.913000 9112156
0.205540 -0.188340 0.903000 10048851
0.202809 -0.180746 0.891000 10639971
0.200305 -0.173486 0.880000 11691380
0.199850 -0.168074 0.878000 9861236
0.200760 -0.163800 0.882000 11165317
0.201898 -0.159660 0.887000 9830703
0.202353 -0.154940 0.889000 9917520
0.202809 -0.150197 0.891000 8932690
0.203947 -0.145920 0.896000 8939370
0.205085 -0.141586 0.901000 8613476
0.205540 -0.136740 0.903000 9063506
0.223097 -0.236057 0.972000 10125460
0.222409 -0.229791 0.969000 8275009
0.220572 -0.222403 0.961000 7486045
0.215752 -0.212171 0.940000 8275023
0.212769 -0.203940 0.927000 9248304
0.209555 -0.195643 0.913000 8989515
0.207260 -0.188340 0.903000 9984093
0.203588 -0.179934 0.887000 10772577
0.201981 -0.173486 0.880000 10301785
0.201522 -0.168074 0.878000 9325374
0.202440 -0.163800 0.882000 12033159
0.204506 -0.160380 0.891000 9384973
0.204506 -0.155289 0.891000 9392978
0.205194 -0.150703 0.894000 8538963
0.206801 -0.146734 0.901000 9399926
0.207260 -0.141900 0.903000 8607315
0.207719 -0.137043 0.905000 8932176
0.224949 -0.236057 0.972000 11111324
0.223560 -0.229080 0.966000 7879996
0.222403 -0.222403 0.961000 8014676
0.216849 -0.211494 0.937000 8077907
0.215229 -0.204600 0.930000 7091514
0.211757 -0.196071 0.915000 8864590
0.208980 -0.188340 0.903000 9918813
0.205277 -0.179934 0.887000 10969451
0.204120 -0.173880 0.882000 8870254
0.203657 -0.168457 0.880000 8802909
0.204583 -0.164171 0.884000 12882318
0.206897 -0.160920 0.894000 8928040
0.206897 -0.155811 0.894000 8802389
0.207360 -0.151040 0.896000 8144451
0.208517 -0.146734 0.901000 9792878
0.208980 -0.141900 0.903000 8598348
0.209443 -0.137043 0.905000 8801619
0.226800 -0.236057 0.972000 12102053
0.225400 -0.229080 0.966000 7025462
0.224233 -0.222403 0.961000 7821643
0.219333 -0.212171 0.940000 8275542
0.216300 -0.203940 0.927000 8013893
0.213967 -0.196500 0.917000 9524304
0.210700 -0.188340 0.903000 10115165
0.207433 -0.180340 0.889000 11235189
0.206267 -0.174274 0.884000 9465732
0.205800 -0.168840 0.882000 9130107
0.206967 -0.164729 0.887000 12891030
0.208600 -0.160920 0.894000 8931395
0.208600 -0.155811 0.894000 8670553
0.209067 -0.151040 0.896000 8406323
0.210700 -0.147060 0.903000 9137767
0.211167 -0.142214 0.905000 8340037
0.211867 -0.137497 0.908000 8997973
0.227240 -0.234600 0.966000 13016488
0.226534 -0.228369 0.963000 6168919
0.225358 -0.221709 0.958000 7555148
0.221124 -0.212171 0.940000 8473423
0.218066 -0.203940 0.927000 8866897
0.215713 -0.196500 0.917000 10249052
0.212420 -0.188340 0.903000 10313838
0.209127 -0.180340 0.889000 11493759
0.208656 -0.174866 0.887000 10056828
0.207950 -0.169223 0.884000 9524837
0.208656 -0.164729 0.887000 12813195
0.210303 -0.160920 0.894000 8934483
0.210773 -0.156160 0.896000 8539228
0.211950 -0.151883 0.901000 8604745
0.212890 -0.147386 0.905000 8478569
0.212890 -0.142214 0.905000 8014929
0.229080 -0.234600 0.966000 13149098
0.228369 -0.228369 0.963000 6963320
0.227183 -0.221709 0.958000 7158605
0.224100 -0.213300 0.945000 8935751
0.219831 -0.203940 0.927000 9130846
0.217460 -0.196500 0.917000 10578535
0.214614 -0.188757 0.905000 10577280
0.212006 -0.181354 0.894000 11366793
0.210346 -0.174866 0.887000 10052980
0.210346 -0.169797 0.887000 10511182
0.212006 -0.166029 0.894000 11035520
0.212480 -0.161280 0.896000 9265507
0.212954 -0.156509 0.898000 8735839
0.214140 -0.152220 0.903000 8869983
0.214614 -0.147386 0.905000 8410476
0.215326 -0.142686 0.908000 8146012
0.229725 -0.227894 0.961000 7816596
0.228290 -0.221014 0.955000 6698809
0.225900 -0.213300 0.945000 9398092
0.222314 -0.204600 0.930000 9327714
0.219207 -0.196500 0.917000 10906470
0.216338 -0.188757 0.905000 10839671
0.212991 -0.180746 0.891000 11240589
0.212513 -0.175260 0.889000 9986676
0.212991 -0.170563 0.891000 11554652
0.214665 -0.166771 0.898000 9204100
0.215860 -0.162540 0.903000 9594980
0.215860 -0.157380 0.903000 8936291
0.216338 -0.152557 0.905000 9132640
0.217055 -0.147874 0.908000 8279398
0.218250 -0.143471 0.913000 8277081
0.230110 -0.226471 0.955000 8677808
0.229628 -0.220551 0.953000 6894117
0.227700 -0.213300 0.945000 8672080
0.224086 -0.204600 0.930000 9197671
0.220471 -0.196071 0.915000 10643301
0.218062 -0.188757 0.905000 10904430
0.215411 -0.181354 0.894000 11173520
0.214689 -0.175654 0.891000 10315123
0.214689 -0.170563 0.891000 11366505
0.217098 -0.167329 0.901000 10449800
0.217580 -0.162540 0.903000 10056293
0.218062 -0.157729 0.905000 8935015
0.219267 -0.153400 0.910000 8738912
0.219990 -0.148689 0.913000 8277855
0.220471 -0.143786 0.915000 9067862
0.231929 -0.226471 0.955000 9603763
0.231443 -0.220551 0.953000 7091778
0.229500 -0.213300 0.945000 8013133
0.225129 -0.203940 0.927000 9066329
0.222214 -0.196071 0.915000 10445923
0.219786 -0.188757 0.905000 10904679
0.217114 -0.181354 0.894000 11175042
0.216386 -0.175654 0.891000 10577264
0.217114 -0.171137 0.894000 11173005
0.219300 -0.167700 0.903000 11631483
0.219786 -0.162900 0.905000 10517354
0.220514 -0.158251 0.908000 8936808
0.221000 -0.153400 0.910000 8410719
0.222214 -0.149014 0.915000 8277864
0.222700 -0.144100 0.917000 9855587
0.233748 -0.226471 0.955000 10851765
0.232524 -0.219857 0.950000 7158624
0.231300 -0.213300 0.945000 7685193
0.227629 -0.204600 0.930000 8800587
0.223957 -0.196071 0.915000 10576993
0.221020 -0.188340 0.903000 11035233
0.219307 -0.181760 0.896000 11171700
0.218817 -0.176246 0.894000 10839662
0.219307 -0.171520 0.896000 11306673
0.221510 -0.168071 0.905000 11434351
0.222244 -0.163440 0.908000 10120047
0.222733 -0.158600 0.910000 8937577
0.223468 -0.153906 0.913000 8870494
0.223957 -0.149014 0.915000 9458290
0.224447 -0.144100 0.917000 9857903
0.234333 -0.219857 0.950000 7165039
0.232360 -0.212623 0.942000 7356746
0.229400 -0.204600 0.930000 8539731
0.225207 -0.195643 0.913000 10775904
0.222740 -0.188340 0.903000 11101287
0.221507 -0.182166 0.898000 11235700
0.221013 -0.176640 0.896000 11037304
0.221013 -0.171520 0.896000 11507606
0.223233 -0.168071 0.905000 11170924
0.223973 -0.163440 0.908000 9725816
0.225207 -0.159123 0.913000 8875135
0.225207 -0.153906 0.913000 9331320
0.226193 -0.144100 0.917000 9924240
0.236143 -0.219857 0.950000 8873854
0.233657 -0.212171 0.940000 7420747
0.231171 -0.204600 0.930000 9198171
0.226200 -0.195000 0.910000 11169630
0.224460 -0.188340 0.903000 11428717
0.223217 -0.182166 0.898000 11499892
0.222720 -0.176640 0.896000 10776963
0.223217 -0.171903 0.898000 10908539
0.224957 -0.168071 0.905000 11104874
0.225703 -0.163440 0.908000 10647168
0.226946 -0.159123 0.913000 10785173
0.226946 -0.153906 0.913000 11241874
0.237952 -0.219857 0.950000 10585240
0.234696 -0.211494 0.937000 7418721
0.232191 -0.203940 0.927000 9786454
0.227432 -0.194571 0.908000 11563868
0.226180 -0.188340 0.903000 11694200
0.225679 -0.182774 0.901000 11763325
0.224928 -0.177034 0.898000 10452363
0.225679 -0.172477 0.901000 10314641
0.226681 -0.168071 0.905000 10978443
0.227933 -0.163800 0.910000 11573142
0.236481 -0.211494 0.937000 8606583
0.233957 -0.203940 0.927000 9458258
0.229162 -0.194571 0.908000 11562586
0.227900 -0.188340 0.903000 11568515
0.227395 -0.182774 0.901000 11238022
0.226638 -0.177034 0.898000 11767699
0.227395 -0.172477 0.901000 11834023
0.228405 -0.168071 0.905000 12165292
0.230129 -0.193929 0.905000 11563134
0.229620 -0.188340 0.903000 11437971
0.229111 -0.182774 0.901000 10713492
0.228349 -0.177034 0.898000 13081501
0.229111 -0.172477 0.901000 13411239
0.231852 -0.193929 0.905000 12555170
0.231340 -0.188340 0.903000 12292516
0.231340 -0.183180 0.903000 12031393
0.046143 -0.207190 0.950000 13415322
0.046289 -0.169725 0.953000 10450026
0.048104 -0.213290 0.953000 11897987
0.047952 -0.207190 0.950000 11633791
0.047195 -0.198576 0.935000 10641008
0.047195 -0.193233 0.935000 10646867
0.047549 -0.173149 0.942000 9923423
0.047952 -0.169190 0.950000 8806740
0.047700 -0.162900 0.945000 8345687
0.049762 -0.212619 0.950000 10314605
0.049500 -0.206100 0.945000 9783901
0.048819 -0.197939 0.932000 8673117
0.048714 -0.192200 0.930000 8013402
0.049343 -0.173149 0.942000 8270406
0.049500 -0.168300 0.945000 7162694
0.049500 -0.162900 0.945000 6503491
0.051843 -0.219195 0.955000 10970196
0.051571 -0.212619 0.950000 10510422
0.051137 -0.205446 0.942000 9387578
0.050594 -0.197939 0.932000 8408139
0.050323 -0.191580 0.927000 8278112
0.051137 -0.173149 0.942000 7682604
0.051137 -0.167766 0.942000 7158585
0.051137 -0.162383 0.942000 6436911
0.053999 -0.220572 0.961000 10047064
0.053550 -0.213290 0.953000 10642011
0.052931 -0.205446 0.942000 8933964
0.052370 -0.197939 0.932000 8146768
0.051976 -0.191167 0.925000 8476251
0.051976 -0.185881 0.925000 6573385
0.052819 -0.172781 0.940000 7093811
0.052819 -0.167410 0.940000 7159610
0.052819 -0.162038 0.940000 6435634
0.056585 -0.229122 0.974000 10374510
0.055655 -0.219884 0.958000 10376284
0.055190 -0.212619 0.950000 10905440
0.054726 -0.205446 0.942000 9393246
0.054029 -0.197514 0.930000 9461333
0.053564 -0.190547 0.922000 8541781
0.053564 -0.185278 0.922000 7755340
0.053738 -0.180595 0.925000 7557986
0.053854 -0.175689 0.927000 6631500
0.054145 -0.171310 0.932000 6895417
0.054319 -0.166519 0.935000 7554364
0.054319 -0.161176 0.935000 7094580
0.054726 -0.157000 0.942000 6240304
0.058440 -0.229122 0.974000 8737886
0.057780 -0.221031 0.963000 10640239
0.057180 -0.213290 0.953000 11169910
0.056400 -0.205010 0.940000 9786473
0.055620 -0.196877 0.927000 10708054
0.055200 -0.190133 0.920000 8606540
0.055020 -0.184273 0.917000 8933705
0.055200 -0.179619 0.920000 7623760
0.055500 -0.175310 0.925000 6304074
0.055620 -0.170391 0.927000 6762808
0.055920 -0.165985 0.932000 7948343
0.056100 -0.161176 0.935000 7817782
0.056100 -0.155833 0.935000 6830898
0.060481 -0.235410 0.977000 11766953
0.060295 -0.229122 0.974000 9392462
0.059614 -0.221031 0.963000 11302785
0.058995 -0.213290 0.953000 11238796
0.058190 -0.205010 0.940000 9986164
0.057386 -0.196877 0.927000 10974808
0.056952 -0.190133 0.920000 8473411
0.056643 -0.183871 0.915000 8340807
0.056767 -0.179033 0.917000 7620926
0.057076 -0.174741 0.922000 5975624
0.057262 -0.170024 0.925000 6041654
0.057571 -0.165629 0.930000 8279347
0.057695 -0.160659 0.932000 7949367
0.057881 -0.155833 0.935000 6568756
0.062150 -0.234688 0.974000 11176854
0.062150 -0.229122 0.974000 9985125
0.061449 -0.221031 0.963000 11963265
0.060810 -0.213290 0.953000 11299183
0.059981 -0.205010 0.940000 10117212
0.059151 -0.196877 0.927000 11237219
0.058513 -0.189513 0.917000 8341056
0.058386 -0.183871 0.915000 7685191
0.058386 -0.178643 0.915000 7617347
0.058705 -0.174362 0.920000 5652039
0.058832 -0.169472 0.922000 5320230
0.059151 -0.165094 0.927000 8540209
0.059343 -0.160314 0.930000 8080450
0.059470 -0.155333 0.932000 6307632
0.064006 -0.234688 0.974000 10973314
0.064203 -0.229828 0.977000 11171965
0.063283 -0.221031 0.963000 11433856
0.062626 -0.213290 0.953000 9457235
0.061574 -0.204355 0.937000 8996932
0.061246 -0.197939 0.932000 11499629
0.060129 -0.189100 0.915000 7552828
0.059997 -0.183470 0.913000 7030599
0.060129 -0.178643 0.915000 6830663
0.060260 -0.173793 0.917000 6048071
0.060589 -0.169472 0.922000 5581077
0.060786 -0.164738 0.925000 8671792
0.060917 -0.159797 0.927000 8474444
0.060917 -0.154500 0.927000 6963499
0.061246 -0.150008 0.932000 7223080
0.066605 -0.237338 0.985000 10834039
0.066064 -0.229828 0.977000 12352633
0.065320 -0.221720 0.966000 10904951
0.064576 -0.213738 0.955000 7620939
0.063359 -0.204355 0.937000 7876939
0.063021 -0.197939 0.932000 11759719
0.061736 -0.188687 0.913000 6766403
0.061533 -0.182867 0.910000 6371383
0.061736 -0.178252 0.913000 5978177
0.061871 -0.173414 0.915000 6375482
0.062210 -0.169105 0.920000 5843494
0.062345 -0.164204 0.922000 8731949
0.062548 -0.159452 0.925000 8802871
0.062683 -0.154500 0.927000 7619376
0.062886 -0.149686 0.930000 7092778
0.068898 -0.238784 0.991000 11099756
0.068133 -0.230533 0.980000 11897462
0.066951 -0.221031 0.963000 10774382
0.066256 -0.213290 0.953000 7683140
0.065144 -0.204355 0.937000 8536402
0.064796 -0.197939 0.932000 11301984
0.062919 -0.187033 0.905000 6765641
0.062919 -0.181862 0.905000 6043431
0.063128 -0.177276 0.908000 5846842
0.063267 -0.172467 0.910000 6576942
0.063614 -0.168186 0.915000 6237750
0.063962 -0.163848 0.920000 7611947
0.064101 -0.158935 0.922000 7815457
0.064310 -0.154167 0.925000 7815478
0.064449 -0.149203 0.927000 7225131
0.070786 -0.238784 0.991000 11361897
0.070214 -0.231239 0.983000 11433850
0.068786 -0.221031 0.963000 10645356
0.068071 -0.213290 0.953000 7685964
0.066929 -0.204355 0.937000 9194582
0.066571 -0.197939 0.932000 10774879
0.064500 -0.186620 0.903000 6832966
0.064357 -0.181058 0.901000 5648947
0.064500 -0.176300 0.903000 5649728
0.064643 -0.171519 0.905000 6703160
0.065000 -0.167267 0.910000 6632760
0.065214 -0.162601 0.913000 6499113
0.065357 -0.157729 0.915000 6895382
0.065500 -0.152833 0.917000 7947056
0.066071 -0.148881 0.925000 7422770
0.073553 -0.247407 1.003000 12424853
0.072673 -0.238784 0.991000 11628133
0.072087 -0.231239 0.983000 11299454
0.070473 -0.220572 0.961000 10316394
0.069667 -0.212619 0.950000 8014933
0.068567 -0.203919 0.935000 9524825
0.068200 -0.197514 0.930000 10643039
0.066073 -0.186207 0.901000 7489603
0.066073 -0.181058 0.901000 6696768
0.066073 -0.175910 0.901000 6634821
0.066220 -0.171140 0.903000 7029314
0.066587 -0.166899 0.908000 6963001
0.066733 -0.162067 0.910000 6630696
0.066953 -0.157384 0.913000 6828555
0.067100 -0.152500 0.915000 8343594
0.067467 -0.148076 0.920000 7685432
0.067467 -0.142819 0.920000 7160109
0.074787 -0.245187 0.994000 12093842
0.074335 -0.238061 0.988000 11956338
0.073733 -0.230533 0.980000 11104633
0.072304 -0.220572 0.961000 10056549
0.071476 -0.212619 0.950000 8343636
0.070348 -0.203919 0.935000 9788249
0.069971 -0.197514 0.930000 10445912
0.067940 -0.186620 0.903000 8145228
0.067564 -0.180455 0.898000 7750465
0.067564 -0.175324 0.898000 7620675
0.067940 -0.171140 0.903000 7292483
0.068090 -0.166348 0.905000 7356988
0.068316 -0.161710 0.908000 6697516
0.068467 -0.156867 0.910000 6761246
0.068692 -0.152167 0.913000 8737072
0.068993 -0.147593 0.917000 7948348
0.069219 -0.142819 0.920000 7422518
0.076911 -0.245927 0.997000 11827855
0.076217 -0.238061 0.988000 11695999
0.075831 -0.231239 0.983000 11103860
0.074134 -0.220572 0.961000 9789792
0.072900 -0.211500 0.945000 8476243
0.071897 -0.203265 0.932000 10050648
0.071511 -0.196877 0.927000 10576978
0.069660 -0.186620 0.903000 8407636
0.069120 -0.180053 0.896000 8937027
0.069120 -0.174933 0.896000 7883841
0.069506 -0.170761 0.901000 7554373
0.069660 -0.165980 0.903000 7555134
0.070046 -0.161710 0.908000 7025201
0.070200 -0.156867 0.910000 7422513
0.070431 -0.152167 0.913000 8539958
0.070586 -0.147271 0.915000 7949120
0.070740 -0.142353 0.917000 7816511
0.078810 -0.245927 0.997000 11499654
0.078099 -0.238061 0.988000 11437191
0.077467 -0.230533 0.980000 11104887
0.075728 -0.219884 0.958000 9525335
0.074937 -0.212171 0.948000 8604757
0.073672 -0.203265 0.932000 10313050
0.073277 -0.196877 0.927000 10640728
0.071380 -0.186620 0.903000 8666956
0.070827 -0.180053 0.896000 10118225
0.070669 -0.174543 0.894000 8147014
0.070985 -0.170192 0.898000 7818309
0.071380 -0.165980 0.903000 7755082
0.071538 -0.161176 0.905000 7287091
0.071775 -0.156522 0.908000 8082473
0.071933 -0.151667 0.910000 8277819
0.072170 -0.146950 0.913000 7949113
0.072329 -0.142043 0.915000 8144177
0.080467 -0.245187 0.994000 11298942
0.079981 -0.238061 0.988000 11566990
0.079333 -0.230533 0.980000 11237243
0.077310 -0.219195 0.955000 8933454
0.076743 -0.212171 0.948000 8865880
0.075448 -0.203265 0.932000 10313564
0.074881 -0.196452 0.925000 9522782
0.073505 -0.187653 0.908000 8142660
0.072371 -0.179651 0.894000 10975840
0.072371 -0.174543 0.894000 8278346
0.072533 -0.169813 0.896000 8015686
0.072938 -0.165612 0.901000 7687509
0.073100 -0.160820 0.903000 7352886
0.073262 -0.156005 0.905000 8343073
0.073505 -0.151333 0.908000 8343617
0.073667 -0.146467 0.910000 7751986
0.074071 -0.142043 0.915000 7684900
0.082360 -0.245187 0.994000 11106686
