# .PCD v.7 - Point Cloud Data file format
VERSION .7
FIELDS x y z rgb
SIZE 4 4 4 4
TYPE F F F I
COUNT 1 1 1 1
WIDTH 1322
HEIGHT 1
POINTS 1322
DATA ascii
0.266117 -0.016929 0.711000 8415636
0.267989 -0.012956 0.716000 6368326
0.269111 -0.008902 0.719000 7353384
0.270234 -0.004813 0.722000 10054998
0.271357 -0.000690 0.725000 9593677
0.272854 0.003471 0.729000 8933199
0.274726 0.007690 0.734000 8865336
0.303962 -0.153135 0.808000 13808566
0.303210 -0.148150 0.806000 10585757
0.301705 -0.142832 0.802000 6299209
0.299824 -0.137388 0.797000 9807276
0.297567 -0.131833 0.791000 4074332
0.296814 -0.126991 0.789000 3866922
0.294933 -0.121707 0.784000 7553616
0.293052 -0.116479 0.779000 10184544
0.291548 -0.111452 0.775000 7159105
0.289667 -0.106333 0.770000 11902045
0.288538 -0.101536 0.767000 12821146
0.287033 -0.096647 0.763000 6161216
0.285905 -0.091924 0.760000 8537156
0.284024 -0.087005 0.755000 4988975
0.282895 -0.082362 0.752000 9464690
0.281014 -0.077546 0.747000 8470327
0.279510 -0.072885 0.743000 8867401
0.278381 -0.068362 0.740000 9323851
0.276876 -0.063787 0.736000 10253693
0.274995 -0.059176 0.731000 7357259
0.273867 -0.054773 0.728000 6569028
0.272738 -0.050405 0.725000 6897207
0.270481 -0.045879 0.719000 7817280
0.269729 -0.041654 0.717000 7357000
0.268600 -0.037400 0.714000 5978695
0.267095 -0.033133 0.710000 6048844
0.265214 -0.028871 0.705000 6176064
0.265214 -0.024843 0.705000 5980742
0.265967 -0.020873 0.707000 6438203
0.267095 -0.016905 0.710000 8166219
0.268600 -0.012920 0.714000 6106965
0.270481 -0.008902 0.719000 7612963
0.271610 -0.004813 0.722000 9923924
0.272738 -0.000690 0.725000 9922374
0.273867 0.003467 0.728000 8869449
0.275371 0.007669 0.732000 7675945
0.304745 -0.152756 0.806000 13876150
0.304745 -0.148150 0.806000 10385808
0.302476 -0.142476 0.800000 6299460
0.301342 -0.137388 0.797000 10198460
0.299073 -0.131833 0.791000 4399971
0.298317 -0.126991 0.789000 6567231
0.297183 -0.122017 0.786000 8016468
0.294536 -0.116479 0.779000 8869217
0.293024 -0.111452 0.775000 6754858
0.291133 -0.106333 0.770000 11438686
0.290377 -0.101669 0.768000 12821156
0.288487 -0.096647 0.763000 7424628
0.287352 -0.091924 0.760000 6957125
0.285840 -0.087120 0.756000 4989484
0.283571 -0.082143 0.750000 10265464
0.282437 -0.077546 0.747000 8275249
0.280925 -0.072885 0.743000 8933450
0.279790 -0.068362 0.740000 9327183
0.278278 -0.063787 0.736000 9927801
0.276766 -0.059257 0.732000 6963019
0.275253 -0.054773 0.728000 6372417
0.274119 -0.050405 0.725000 7028019
0.272229 -0.045943 0.720000 7884097
0.271094 -0.041654 0.717000 7160130
0.269960 -0.037400 0.714000 5781310
0.268448 -0.033133 0.710000 5850699
0.266557 -0.028871 0.705000 6441532
0.266557 -0.024843 0.705000 6308173
0.267313 -0.020873 0.707000 6899015
0.268448 -0.016905 0.710000 8481025
0.269960 -0.012920 0.714000 6369892
0.271094 -0.008877 0.717000 7616542
0.272229 -0.004800 0.720000 9923411
0.273363 -0.000689 0.723000 9460542
0.275253 0.003467 0.728000 9264707
0.276388 0.007658 0.731000 7877913
0.306280 -0.152756 0.806000 13874871
0.306280 -0.148150 0.806000 10186651
0.304000 -0.142476 0.800000 6303557
0.302860 -0.137388 0.797000 10598583
0.300580 -0.131833 0.791000 4666970
0.299820 -0.126991 0.789000 9262926
0.297920 -0.121707 0.784000 8479061
0.296020 -0.116479 0.779000 7556448
0.294500 -0.111452 0.775000 6370621
0.293360 -0.106610 0.772000 10980685
0.291840 -0.101669 0.768000 12755612
0.289940 -0.096647 0.763000 8741747
0.288040 -0.091682 0.758000 5325141
0.287280 -0.087120 0.756000 4927044
0.285760 -0.082362 0.752000 10975605
0.284240 -0.077650 0.748000 8077104
0.282340 -0.072885 0.743000 8933450
0.281200 -0.068362 0.740000 9257304
0.279680 -0.063787 0.736000 9529979
0.278160 -0.059257 0.732000 6634828
0.276640 -0.054773 0.728000 6176062
0.275500 -0.050405 0.725000 7093041
0.273600 -0.045943 0.720000 7883585
0.272460 -0.041654 0.717000 6897218
0.270940 -0.037348 0.713000 5584194
0.269800 -0.033133 0.710000 5721423
0.267900 -0.028871 0.705000 6702657
0.267900 -0.024843 0.705000 6701383
0.267900 -0.020814 0.705000 7359047
0.269040 -0.016857 0.708000 8801052
0.270940 -0.012902 0.713000 6637156
0.272080 -0.008865 0.716000 7679783
0.273220 -0.004793 0.719000 9856588
0.274740 -0.000689 0.723000 8930597
0.276640 0.003467 0.728000 9660231
0.277780 0.007658 0.731000 8005939
0.307815 -0.152756 0.806000 13878456
0.307815 -0.148150 0.806000 10256038
0.305524 -0.142476 0.800000 6367558
0.304378 -0.137388 0.797000 10327217
0.302850 -0.132167 0.793000 6637650
0.301323 -0.126991 0.789000 9856093
0.299413 -0.121707 0.784000 9462614
0.297886 -0.116629 0.780000 8080990
0.295976 -0.111452 0.775000 7620944
0.294830 -0.106610 0.772000 10778427
0.293303 -0.101669 0.768000 12558228
0.291393 -0.096647 0.763000 9137265
0.289484 -0.091682 0.758000 7166565
0.288338 -0.087005 0.755000 6109276
0.287192 -0.082362 0.752000 10846577
0.285665 -0.077650 0.748000 8209455
0.283755 -0.072885 0.743000 8933963
0.282228 -0.068270 0.739000 9462881
0.281082 -0.063787 0.736000 9269118
0.279554 -0.059257 0.732000 6634317
0.278409 -0.054849 0.729000 6306620
0.276881 -0.050405 0.725000 7224879
0.274971 -0.045943 0.720000 7686721
0.273826 -0.041654 0.717000 6634817
0.272680 -0.037400 0.714000 5845830
0.271152 -0.033133 0.710000 6114898
0.268861 -0.028830 0.704000 6896710
0.269243 -0.024843 0.705000 7688001
0.269243 -0.020814 0.705000 7687240
0.270389 -0.016857 0.708000 8935990
0.272298 -0.012902 0.713000 6957924
0.273444 -0.008865 0.716000 7617839
0.274590 -0.004793 0.719000 10184262
0.276117 -0.000689 0.723000 8141323
0.277263 0.003457 0.726000 10187339
0.279172 0.007658 0.731000 8472908
0.310118 -0.153135 0.808000 13809584
0.309350 -0.148150 0.806000 10322592
0.307048 -0.142476 0.800000 6371660
0.305896 -0.137388 0.797000 10133939
0.304361 -0.132167 0.793000 8606550
0.302826 -0.126991 0.789000 10514782
0.300907 -0.121707 0.784000 10380886
0.299371 -0.116629 0.780000 8605789
0.297452 -0.111452 0.775000 8867669
0.296301 -0.106610 0.772000 10647352
0.294766 -0.101669 0.768000 12360849
0.292079 -0.096393 0.761000 9592445
0.290928 -0.091682 0.758000 9003876
0.289776 -0.087005 0.755000 7354463
0.287857 -0.082143 0.750000 10644319
0.287090 -0.077650 0.748000 8405054
0.285938 -0.073081 0.745000 8933190
0.284019 -0.068362 0.740000 9597823
0.282484 -0.063787 0.736000 8935511
0.280949 -0.059257 0.732000 6568515
0.279797 -0.054849 0.729000 6437437
0.278262 -0.050405 0.725000 7294028
0.276343 -0.045943 0.720000 7492183
0.275191 -0.041654 0.717000 6372161
0.274040 -0.037400 0.714000 6042949
0.272505 -0.033133 0.710000 6511697
0.270202 -0.028830 0.704000 7095368
0.270202 -0.024808 0.704000 8737865
0.270586 -0.020814 0.705000 7949899
0.271353 -0.016833 0.707000 9124918
0.272889 -0.012866 0.711000 7229806
0.274040 -0.008840 0.714000 7616057
0.275959 -0.004793 0.719000 10511175
0.277494 -0.000689 0.723000 7349041
0.278646 0.003457 0.726000 10709321
0.279797 0.007637 0.729000 8996932
0.311657 -0.153135 0.808000 13744297
0.310886 -0.148150 0.806000 10323097
0.308571 -0.142476 0.800000 6304339
0.307414 -0.137388 0.797000 10390965
0.305871 -0.132167 0.793000 9725786
0.304329 -0.126991 0.789000 10646111
0.302400 -0.121707 0.784000 10581846
0.300857 -0.116629 0.780000 9265755
0.298929 -0.111452 0.775000 9000795
0.297771 -0.106610 0.772000 10646581
0.296229 -0.101669 0.768000 12228750
0.294300 -0.096647 0.763000 9133960
0.292371 -0.091682 0.758000 9467492
0.291214 -0.087005 0.755000 7751266
0.289286 -0.082143 0.750000 10181453
0.288514 -0.077650 0.748000 8603469
0.286586 -0.072885 0.743000 9064001
0.285429 -0.068362 0.740000 9404317
0.283114 -0.063613 0.734000 7343152
0.282343 -0.059257 0.732000 6108216
0.281186 -0.054849 0.729000 6371902
0.279643 -0.050405 0.725000 8417641
0.277714 -0.045943 0.720000 7692141
0.276557 -0.041654 0.717000 6371905
0.275014 -0.037348 0.713000 6239812
0.274243 -0.033180 0.711000 7032400
0.271543 -0.028830 0.704000 7620938
0.271543 -0.024808 0.704000 8936784
0.271543 -0.020785 0.704000 8015694
0.271929 -0.016786 0.705000 8800309
0.273857 -0.012848 0.710000 7957368
0.275014 -0.008828 0.713000 6894403
0.276557 -0.004780 0.717000 10708295
0.278486 -0.000688 0.722000 7746903
0.279643 0.003452 0.725000 10251846
0.281186 0.007637 0.729000 8338236
0.312421 -0.152756 0.806000 13676202
0.312421 -0.148150 0.806000 10324629
0.310870 -0.142832 0.802000 6175828
0.308932 -0.137388 0.797000 10656441
0.306607 -0.131833 0.791000 10774364
0.305831 -0.126991 0.789000 10843239
0.303893 -0.121707 0.784000 10712147
0.302343 -0.116629 0.780000 9993066
0.300405 -0.111452 0.775000 9131870
0.299242 -0.106610 0.772000 10711363
0.297691 -0.101669 0.768000 12032653
0.295753 -0.096647 0.763000 8739986
0.293815 -0.091682 0.758000 9918805
0.292652 -0.087005 0.755000 8211294
0.290714 -0.082143 0.750000 9723218
0.289939 -0.077650 0.748000 8867152
0.288001 -0.072885 0.743000 9128516
0.286838 -0.068362 0.740000 9281680
0.284512 -0.063613 0.734000 5713745
0.283350 -0.059176 0.731000 5714546
0.282574 -0.054849 0.729000 6305082
0.281024 -0.050405 0.725000 9541474
0.279086 -0.045943 0.720000 7821157
0.277923 -0.041654 0.717000 6437701
0.276760 -0.037400 0.714000 6371909
0.275597 -0.033180 0.711000 7619410
0.272884 -0.028830 0.704000 8080978
0.272884 -0.024808 0.704000 9070414
0.272884 -0.020785 0.704000 8081231
0.273271 -0.016786 0.705000 8469572
0.275210 -0.012848 0.710000 8680806
0.276372 -0.008828 0.713000 6239803
0.277923 -0.004780 0.717000 10836797
0.279086 -0.000686 0.720000 8212815
0.280249 0.003443 0.723000 9788222
0.282187 0.007627 0.728000 7681853
0.313956 -0.152756 0.806000 13614251
0.313956 -0.148150 0.806000 10256528
0.311619 -0.142476 0.800000 6238294
0.310450 -0.137388 0.797000 10917053
0.308113 -0.131833 0.791000 10840671
0.307334 -0.126991 0.789000 11040622
0.305387 -0.121707 0.784000 10447184
0.303439 -0.116479 0.779000 10584440
0.301881 -0.111452 0.775000 8869218
0.300712 -0.106610 0.772000 10710352
0.298765 -0.101536 0.767000 12163468
0.296428 -0.096393 0.761000 9003164
0.295259 -0.091682 0.758000 9462599
0.294090 -0.087005 0.755000 8672601
0.292143 -0.082143 0.750000 9921366
0.291364 -0.077650 0.748000 8998482
0.289416 -0.072885 0.743000 9062470
0.287858 -0.068270 0.739000 8878979
0.285910 -0.063613 0.734000 8159859
0.284742 -0.059176 0.731000 7303083
0.283573 -0.054773 0.728000 6698550
0.282405 -0.050405 0.725000 9336155
0.280457 -0.045943 0.720000 7357789
0.279289 -0.041654 0.717000 6569544
0.277730 -0.037348 0.713000 6634053
0.276951 -0.033180 0.711000 7752020
0.274225 -0.028830 0.704000 8473690
0.273835 -0.024772 0.703000 9334348
0.273835 -0.020755 0.703000 8277584
0.274225 -0.016762 0.704000 7946579
0.275783 -0.012811 0.708000 10003027
0.276951 -0.008803 0.711000 6237234
0.279289 -0.004780 0.717000 9525810
0.280457 -0.000686 0.720000 8870471
0.281626 0.003443 0.723000 9657142
0.282794 0.007606 0.726000 8011326
0.315491 -0.152756 0.806000 13543593
0.314709 -0.147783 0.804000 10188942
0.313143 -0.142476 0.800000 6242647
0.311969 -0.137388 0.797000 11245495
0.309620 -0.131833 0.791000 10842202
0.308837 -0.126991 0.789000 11302245
0.306880 -0.121707 0.784000 10119767
0.305314 -0.116629 0.780000 11110506
0.303357 -0.111452 0.775000 8544364
0.302183 -0.106610 0.772000 10705996
0.300226 -0.101536 0.767000 12294534
0.297877 -0.096393 0.761000 9264785
0.296703 -0.091682 0.758000 8932935
0.295529 -0.087005 0.755000 9132638
0.293571 -0.082143 0.750000 10053720
0.292789 -0.077650 0.748000 9129044
0.290831 -0.072885 0.743000 8931650
0.289266 -0.068270 0.739000 8487281
0.288091 -0.063787 0.736000 10581871
0.286134 -0.059176 0.731000 8891800
0.284960 -0.054773 0.728000 7091512
0.283786 -0.050405 0.725000 9146725
0.281829 -0.045943 0.720000 6835034
0.280654 -0.041654 0.717000 6766661
0.279089 -0.037348 0.713000 6897476
0.278306 -0.033180 0.711000 7947091
0.275957 -0.028871 0.705000 8867926
0.275566 -0.024808 0.704000 9534285
0.275174 -0.020755 0.703000 8409166
0.275566 -0.016762 0.704000 7425358
0.276740 -0.012793 0.707000 11301981
0.277914 -0.008790 0.710000 6238256
0.280263 -0.004773 0.716000 8209972
0.281829 -0.000686 0.720000 9591103
0.283003 0.003443 0.723000 9459004
0.284177 0.007606 0.726000 8405053
0.317027 -0.152756 0.806000 13547176
0.316240 -0.147783 0.804000 10190732
0.314667 -0.142476 0.800000 6367065
0.313487 -0.137388 0.797000 10980272
0.311127 -0.131833 0.791000 11039318
0.309947 -0.126830 0.788000 11171163
0.308373 -0.121707 0.784000 10515039
0.306407 -0.116479 0.779000 11238748
0.304833 -0.111452 0.775000 9067894
0.302867 -0.106333 0.770000 10708039
0.301687 -0.101536 0.767000 12491392
0.300113 -0.096647 0.763000 7552902
0.298933 -0.091924 0.760000 8673096
0.296967 -0.087005 0.755000 9396322
0.295787 -0.082362 0.752000 10318681
0.294213 -0.077650 0.748000 9196630
0.292247 -0.072885 0.743000 8669758
0.290673 -0.068270 0.739000 8283742
0.289493 -0.063787 0.736000 9598828
0.287527 -0.059176 0.731000 8554116
0.286347 -0.054773 0.728000 7419962
0.284380 -0.050266 0.723000 9470574
0.283200 -0.045943 0.720000 7359576
0.282020 -0.041654 0.717000 7095618
0.280840 -0.037400 0.714000 7225923
0.279660 -0.033180 0.711000 8277329
0.277300 -0.028871 0.705000 8998738
0.276907 -0.024808 0.704000 9395533
0.275727 -0.020696 0.701000 8474956
0.276907 -0.016762 0.704000 7556425
0.278087 -0.012793 0.707000 10911592
0.279267 -0.008790 0.710000 6434861
0.281627 -0.004773 0.716000 7680822
0.282807 -0.000685 0.719000 9195830
0.284380 0.003443 0.723000 9656642
0.285167 0.007595 0.725000 8603451
0.318562 -0.152756 0.806000 13544359
0.318562 -0.148150 0.806000 10192526
0.316190 -0.142476 0.800000 6505047
0.315005 -0.137388 0.797000 10782381
0.312633 -0.131833 0.791000 11169887
0.311448 -0.126830 0.788000 11105630
0.309867 -0.121707 0.784000 10906709
0.308286 -0.116629 0.780000 11432285
0.306310 -0.111452 0.775000 9529449
0.305124 -0.106610 0.772000 10774095
0.303148 -0.101536 0.767000 12682849
0.302357 -0.096900 0.765000 5898579
0.300776 -0.092045 0.761000 8339528
0.298405 -0.087005 0.755000 9592683
0.296429 -0.082143 0.750000 10581864
0.295638 -0.077650 0.748000 9327184
0.293662 -0.072885 0.743000 8408130
0.292081 -0.068270 0.739000 8028976
0.290895 -0.063787 0.736000 8611707
0.288919 -0.059176 0.731000 8161408
0.288129 -0.054849 0.729000 7746618
0.285757 -0.050266 0.723000 9864815
0.284571 -0.045943 0.720000 7887193
0.283386 -0.041654 0.717000 7424577
0.282200 -0.037400 0.714000 7554886
0.281014 -0.033180 0.711000 8606288
0.278643 -0.028871 0.705000 9131856
0.277852 -0.024772 0.703000 9261132
0.277062 -0.020696 0.701000 8475465
0.278248 -0.016762 0.704000 7753803
0.279433 -0.012793 0.707000 10450529
0.279829 -0.008766 0.708000 6695725
0.282200 -0.004760 0.714000 7157557
0.284176 -0.000685 0.719000 8866362
0.285757 0.003443 0.723000 9855308
0.286548 0.007595 0.725000 8801347
0.320097 -0.152756 0.806000 13415591
0.320097 -0.148150 0.806000 10190992
0.317714 -0.142476 0.800000 6959446
0.316523 -0.137388 0.797000 10781353
0.313346 -0.131500 0.789000 11369319
0.312949 -0.126830 0.788000 10383457
0.311360 -0.121707 0.784000 9261899
0.308580 -0.116180 0.777000 11368286
0.307786 -0.111452 0.775000 9525851
0.306594 -0.106610 0.772000 9393239
0.305006 -0.101669 0.768000 10707778
0.303814 -0.096900 0.765000 5708831
0.302226 -0.092045 0.761000 7288393
0.299843 -0.087005 0.755000 9791603
0.297857 -0.082143 0.750000 10910327
0.297063 -0.077650 0.748000 9263178
0.295077 -0.072885 0.743000 8212038
0.293489 -0.068270 0.739000 8018689
0.292297 -0.063787 0.736000 9274763
0.290311 -0.059176 0.731000 8416380
0.289517 -0.054849 0.729000 7947577
0.287134 -0.050266 0.723000 9665391
0.285943 -0.045943 0.720000 7878235
0.284751 -0.041654 0.717000 7620927
0.283560 -0.037400 0.714000 7882057
0.282369 -0.033180 0.711000 8868174
0.279986 -0.028871 0.705000 9329999
0.279191 -0.024772 0.703000 9261643
0.278397 -0.020696 0.701000 8541510
0.279589 -0.016762 0.704000 7884109
0.280780 -0.012793 0.707000 10719578
0.281177 -0.008766 0.708000 6697516
0.283560 -0.004760 0.714000 7157557
0.285546 -0.000685 0.719000 8734014
0.286737 0.003438 0.722000 10319703
0.287929 0.007595 0.725000 8933706
0.321632 -0.152756 0.806000 13282215
0.320834 -0.147783 0.804000 10190742
0.319238 -0.142476 0.800000 7358295
0.318440 -0.137560 0.798000 10781602
0.315647 -0.131833 0.791000 11564124
0.314450 -0.126830 0.788000 9729123
0.312055 -0.121396 0.782000 7618634
0.310858 -0.116479 0.779000 11366241
0.309262 -0.111452 0.775000 9528669
0.308065 -0.106610 0.772000 8008274
0.306070 -0.101536 0.767000 8672586
0.305271 -0.096900 0.765000 5594441
0.303675 -0.092045 0.761000 6245462
0.301281 -0.087005 0.755000 9987687
0.299286 -0.082143 0.750000 11237995
0.298488 -0.077650 0.748000 9129543
0.296492 -0.072885 0.743000 8013635
0.294896 -0.068270 0.739000 8080454
0.293699 -0.063787 0.736000 9862757
0.291704 -0.059176 0.731000 8607580
0.290507 -0.054773 0.728000 8143422
0.289310 -0.050405 0.725000 9473145
0.287314 -0.045943 0.720000 7884657
0.286117 -0.041654 0.717000 7882814
0.284920 -0.037400 0.714000 8144969
0.284521 -0.033273 0.713000 9130318
0.281329 -0.028871 0.705000 9460560
0.280530 -0.024772 0.703000 9326923
0.279732 -0.020696 0.701000 8606282
0.280530 -0.016738 0.703000 8081230
0.281329 -0.012757 0.705000 10905439
0.282526 -0.008766 0.708000 6763062
0.284521 -0.004753 0.713000 7092793
0.286915 -0.000685 0.719000 8599366
0.288112 0.003438 0.722000 10709842
0.289310 0.007595 0.725000 9132612
0.290906 0.011803 0.729000 9066062
0.322366 -0.152377 0.804000 13088422
0.322366 -0.147783 0.804000 10192284
0.320762 -0.142476 0.800000 7352921
0.319960 -0.137560 0.798000 10716314
0.317153 -0.131833 0.791000 11168849
0.315149 -0.126509 0.786000 9923429
0.313545 -0.121396 0.782000 6757961
0.312342 -0.116479 0.779000 11433316
0.310738 -0.111452 0.775000 9986911
0.309535 -0.106610 0.772000 8276044
0.307530 -0.101536 0.767000 9458514
0.305927 -0.096647 0.763000 8617843
0.304724 -0.091924 0.760000 8483170
0.302719 -0.087005 0.755000 10117722
0.301516 -0.082362 0.752000 11434335
0.299912 -0.077650 0.748000 8473412
0.297908 -0.072885 0.743000 7879489
0.296304 -0.068270 0.739000 8020107
0.295101 -0.063787 0.736000 8087615
0.293096 -0.059176 0.731000 7881788
0.291893 -0.054773 0.728000 8274243
0.290690 -0.050405 0.725000 9866371
0.288686 -0.045943 0.720000 8422278
0.287483 -0.041654 0.717000 7948605
0.286280 -0.037400 0.714000 8406858
0.285077 -0.033180 0.711000 9327182
0.282671 -0.028871 0.705000 9657936
0.282270 -0.024808 0.704000 9458251
0.281068 -0.020696 0.701000 8671566
0.281068 -0.016690 0.701000 8212302
0.282671 -0.012757 0.705000 9526373
0.283473 -0.008753 0.707000 7028032
0.285879 -0.004753 0.713000 7092797
0.287483 -0.000683 0.717000 8602190
0.289488 0.003438 0.722000 10314317
0.290690 0.007595 0.725000 9065790
0.292294 0.011803 0.729000 9263955
0.323897 -0.152377 0.804000 12822436
0.323897 -0.147783 0.804000 10194336
0.322286 -0.142476 0.800000 7293530
0.321077 -0.137388 0.797000 10654127
0.319466 -0.132167 0.793000 10776673
0.317854 -0.126991 0.789000 10186081
0.315034 -0.121396 0.782000 5915218
0.313826 -0.116479 0.779000 11433054
0.312214 -0.111452 0.775000 10382690
0.310200 -0.106333 0.770000 8547162
0.308991 -0.101536 0.767000 10184024
0.307380 -0.096647 0.763000 11697770
0.306574 -0.092045 0.761000 10649708
0.304157 -0.087005 0.755000 10184544
0.302143 -0.082143 0.750000 11564644
0.301337 -0.077650 0.748000 7878715
0.300129 -0.073081 0.745000 7754334
0.298114 -0.068362 0.740000 8028818
0.296503 -0.063787 0.736000 6242113
0.294489 -0.059176 0.731000 7159874
0.293280 -0.054773 0.728000 8340546
0.292071 -0.050405 0.725000 10195849
0.290057 -0.045943 0.720000 8937572
0.288849 -0.041654 0.717000 8079685
0.287640 -0.037400 0.714000 8604490
0.286431 -0.033180 0.711000 9589582
0.284014 -0.028871 0.705000 9789520
0.283209 -0.024772 0.703000 9524038
0.282403 -0.020696 0.701000 8737359
0.282403 -0.016690 0.701000 8409942
0.284014 -0.012757 0.705000 8082273
0.284820 -0.008753 0.707000 7287123
0.286431 -0.004740 0.711000 7027513
0.288849 -0.000683 0.717000 8600647
0.290863 0.003438 0.722000 9855831
0.292071 0.007595 0.725000 9064260
0.293280 0.011787 0.728000 9461073
0.325429 -0.152377 0.804000 12628129
0.325429 -0.147783 0.804000 10193572
0.323810 -0.142476 0.800000 7353947
0.322595 -0.137388 0.797000 10982596
0.320976 -0.132167 0.793000 10776176
0.318952 -0.126830 0.788000 10447964
0.317333 -0.121707 0.784000 6638683
0.315310 -0.116479 0.779000 11367511
0.313690 -0.111452 0.775000 10710628
0.312476 -0.106610 0.772000 9927016
0.310452 -0.101536 0.767000 10513759
0.308833 -0.096647 0.763000 11368544
0.307619 -0.091924 0.760000 11243639
0.305595 -0.087005 0.755000 10250597
0.303571 -0.082143 0.750000 11304041
0.302762 -0.077650 0.748000 7815729
0.301548 -0.073081 0.745000 8945019
0.299524 -0.068362 0.740000 8224409
0.297905 -0.063787 0.736000 6304323
0.295881 -0.059176 0.731000 7488583
0.295071 -0.054849 0.729000 8340290
0.292643 -0.050266 0.723000 9532558
0.291024 -0.045879 0.719000 8468035
0.289810 -0.041596 0.716000 8209996
0.288595 -0.037348 0.713000 8867146
0.287381 -0.033133 0.710000 9721166
0.284952 -0.028830 0.704000 9920849
0.283738 -0.024702 0.701000 9589824
0.283333 -0.020667 0.700000 8802385
0.283333 -0.016667 0.700000 8410973
0.284548 -0.012721 0.703000 7412061
0.285357 -0.008729 0.705000 7554917
0.287381 -0.004733 0.710000 7026997
0.289000 -0.000680 0.714000 8669247
0.291024 0.003424 0.719000 10053217
0.292238 0.007564 0.722000 8604745
0.293857 0.011754 0.726000 9789518
0.326960 -0.152377 0.804000 12359826
0.327773 -0.148150 0.806000 10256531
0.326147 -0.142832 0.802000 7360341
0.324113 -0.137388 0.797000 11309750
0.321673 -0.131833 0.791000 10776689
0.320453 -0.126830 0.788000 10643037
0.318827 -0.121707 0.784000 7362910
0.317200 -0.116629 0.780000 11300698
0.315167 -0.111452 0.775000 11039069
0.313947 -0.106610 0.772000 11370599
0.311913 -0.101536 0.767000 10776935
0.310287 -0.096647 0.763000 11040097
0.307440 -0.091440 0.756000 11829873
0.306220 -0.086774 0.753000 10316388
0.304187 -0.081924 0.748000 10973799
0.303780 -0.077546 0.747000 7749689
0.301747 -0.072787 0.742000 10120030
0.300527 -0.068270 0.739000 8419727
0.298493 -0.063613 0.734000 6305603
0.296460 -0.059014 0.729000 7882567
0.295240 -0.054623 0.726000 8275520
0.294020 -0.050266 0.723000 8880266
0.292393 -0.045879 0.719000 7950703
0.291173 -0.041596 0.716000 8339781
0.289953 -0.037348 0.713000 9129803
0.288733 -0.033133 0.710000 9918030
0.286293 -0.028830 0.704000 10051411
0.285073 -0.024702 0.701000 9655367
0.284667 -0.020667 0.700000 8802893
0.284667 -0.016667 0.700000 8476760
0.285887 -0.012721 0.703000 6701147
0.286700 -0.008729 0.705000 7813228
0.287920 -0.004720 0.708000 7027258
0.290360 -0.000680 0.714000 8732476
0.292393 0.003424 0.719000 10250841
0.294020 0.007574 0.723000 8143431
0.295240 0.011754 0.726000 10051921
0.329309 -0.152756 0.806000 12095363
0.329309 -0.148150 0.806000 10122881
0.327674 -0.142832 0.802000 7093584
0.325631 -0.137388 0.797000 10980520
0.323180 -0.131833 0.791000 10711155
0.321137 -0.126509 0.786000 10909021
0.318686 -0.121086 0.780000 8477536
0.318277 -0.116479 0.779000 11237212
0.315826 -0.111165 0.773000 10578007
0.314600 -0.106333 0.770000 10776933
0.312557 -0.101271 0.765000 10645103
0.310514 -0.096267 0.760000 10974306
0.308880 -0.091440 0.756000 11634795
0.307654 -0.086774 0.753000 10184547
0.305611 -0.081924 0.748000 10646630
0.305203 -0.077546 0.747000 7619905
0.303160 -0.072787 0.742000 8070210
0.301934 -0.068270 0.739000 8284549
0.299891 -0.063613 0.734000 6699843
0.297849 -0.059014 0.729000 8145223
0.296623 -0.054623 0.726000 8472381
0.295397 -0.050266 0.723000 9538437
0.293763 -0.045879 0.719000 9069723
0.292537 -0.041596 0.716000 8539198
0.290494 -0.037243 0.711000 9195597
0.290086 -0.033133 0.710000 9983822
0.287634 -0.028830 0.704000 10117717
0.286409 -0.024702 0.701000 9721678
0.285183 -0.020608 0.698000 8933705
0.285183 -0.016619 0.698000 8475986
0.286409 -0.012685 0.701000 7092826
0.287634 -0.008716 0.704000 8083059
0.289269 -0.004720 0.708000 7092542
0.291720 -0.000680 0.714000 8602168
0.293763 0.003424 0.719000 10187857
0.294989 0.007564 0.722000 7485253
0.296623 0.011754 0.726000 10119763
0.330844 -0.152756 0.806000 11766137
0.330023 -0.147783 0.804000 10057861
0.328381 -0.142476 0.800000 6835537
0.326329 -0.137043 0.795000 10651814
0.323866 -0.131500 0.789000 10580085
0.323455 -0.126830 0.788000 11175012
0.320171 -0.121086 0.780000 9592157
0.319761 -0.116479 0.779000 11239273
0.317298 -0.111165 0.773000 10052440
0.316067 -0.106333 0.770000 10118249
0.314014 -0.101271 0.765000 10514793
0.311962 -0.096267 0.760000 10973798
0.309910 -0.091319 0.755000 11369328
0.309089 -0.086774 0.753000 10117477
0.307036 -0.081924 0.748000 10251617
0.306626 -0.077546 0.747000 7554890
0.304573 -0.072787 0.742000 6047055
0.303342 -0.068270 0.739000 8159080
0.300469 -0.063440 0.732000 7093580
0.299237 -0.059014 0.729000 8408134
0.298006 -0.054623 0.726000 8602944
0.296774 -0.050266 0.723000 10262911
0.295132 -0.045879 0.719000 10128781
0.293901 -0.041596 0.716000 8801863
0.292670 -0.037348 0.713000 9195853
0.291438 -0.033133 0.710000 10049871
0.288975 -0.028830 0.704000 10183000
0.287744 -0.024702 0.701000 9787217
0.286512 -0.020608 0.698000 9065037
0.286512 -0.016619 0.698000 8475477
0.287744 -0.012685 0.701000 7423833
0.288975 -0.008716 0.704000 8352120
0.291438 -0.004733 0.710000 7158331
0.293080 -0.000680 0.714000 8533824
0.294311 0.003414 0.717000 10119753
0.296364 0.007564 0.722000 6898251
0.298006 0.011754 0.726000 10181710
0.332379 -0.152756 0.806000 11636336
0.331554 -0.147783 0.804000 10057096
0.329905 -0.142476 0.800000 7091283
0.327843 -0.137043 0.795000 10519971
0.325369 -0.131500 0.789000 9594744
0.324956 -0.126830 0.788000 10712426
0.321657 -0.121086 0.780000 9986138
0.321245 -0.116479 0.779000 10581622
0.318770 -0.111165 0.773000 9787482
0.317533 -0.106333 0.770000 10250348
0.315471 -0.101271 0.765000 10644835
0.313410 -0.096267 0.760000 10975337
0.311348 -0.091319 0.755000 10517365
0.310523 -0.086774 0.753000 9722470
0.308461 -0.081924 0.748000 10646109
0.308049 -0.077546 0.747000 7554131
0.306399 -0.072885 0.743000 6970972
0.304750 -0.068270 0.739000 7889227
0.301863 -0.063440 0.732000 7357524
0.300626 -0.059014 0.729000 8670789
0.299389 -0.054623 0.726000 8471874
0.298151 -0.050266 0.723000 9996152
0.296502 -0.045879 0.719000 10001023
0.295265 -0.041596 0.716000 8473680
0.294028 -0.037348 0.713000 8802382
0.292790 -0.033133 0.710000 10115920
0.290729 -0.028871 0.705000 10249562
0.289079 -0.024702 0.701000 9853523
0.287842 -0.020608 0.698000 9393233
0.287842 -0.016619 0.698000 8672344
0.289079 -0.012685 0.701000 7751512
0.290316 -0.008716 0.704000 8086908
0.291553 -0.004713 0.707000 7159352
0.294028 -0.000679 0.713000 8469576
0.295677 0.003414 0.717000 10252866
0.297739 0.007564 0.722000 7161424
0.298976 0.011738 0.725000 10118729
0.334743 -0.153135 0.808000 11502962
0.333086 -0.147783 0.804000 10122891
0.331429 -0.142476 0.800000 7358799
0.329357 -0.137043 0.795000 10389926
0.326871 -0.131500 0.789000 8606834
0.326457 -0.126830 0.788000 10317405
0.323143 -0.121086 0.780000 10379346
0.322729 -0.116479 0.779000 9928808
0.321071 -0.111452 0.775000 9459800
0.319000 -0.106333 0.770000 10315638
0.316929 -0.101271 0.765000 10710116
0.314857 -0.096267 0.760000 11041903
0.313200 -0.091440 0.756000 9597296
0.311957 -0.086774 0.753000 9326428
0.309886 -0.081924 0.748000 11040105
0.309471 -0.077546 0.747000 7554381
0.307814 -0.072885 0.743000 7887715
0.306157 -0.068270 0.739000 7694670
0.303257 -0.063440 0.732000 7621202
0.302014 -0.059014 0.729000 8933189
0.300771 -0.054623 0.726000 8340040
0.299529 -0.050266 0.723000 9804935
0.297871 -0.045879 0.719000 9788763
0.296629 -0.041596 0.716000 8141135
0.295386 -0.037348 0.713000 8339530
0.294143 -0.033133 0.710000 10116178
0.291657 -0.028830 0.704000 10249823
0.290000 -0.024667 0.700000 9984342
0.289171 -0.020608 0.698000 9655887
0.289171 -0.016619 0.698000 8868438
0.290414 -0.012685 0.701000 8013641
0.291657 -0.008716 0.704000 7829887
0.292900 -0.004713 0.707000 7159094
0.295386 -0.000679 0.713000 8469061
0.297043 0.003414 0.717000 10315584
0.299114 0.007564 0.722000 7491407
0.300357 0.011738 0.725000 10051413
0.336282 -0.153135 0.808000 11437172
0.334617 -0.147783 0.804000 10253453
0.332952 -0.142476 0.800000 7419468
0.330871 -0.137043 0.795000 10589096
0.329207 -0.131833 0.791000 7162988
0.327958 -0.126830 0.788000 7746895
0.324629 -0.121086 0.780000 8471371
0.323380 -0.116180 0.777000 8937305
0.321715 -0.111165 0.773000 9329238
0.320467 -0.106333 0.770000 10712192
0.318386 -0.101271 0.765000 10775141
0.316721 -0.096393 0.761000 11305588
0.314224 -0.091319 0.755000 9266027
0.313391 -0.086774 0.753000 9459282
0.311310 -0.081924 0.748000 11504758
0.310894 -0.077546 0.747000 7291206
0.308813 -0.072787 0.742000 7957867
0.307981 -0.068362 0.740000 7689809
0.305484 -0.063613 0.734000 7882832
0.303403 -0.059014 0.729000 8867909
0.302987 -0.054773 0.728000 8076877
0.300906 -0.050266 0.723000 9536405
0.299241 -0.045879 0.719000 8532536
0.297160 -0.041480 0.714000 7749198
0.295911 -0.037243 0.711000 7678534
0.295495 -0.033133 0.710000 9984595
0.293414 -0.028871 0.705000 10380645
0.291333 -0.024667 0.700000 10051161
0.290501 -0.020608 0.698000 9787981
0.290501 -0.016619 0.698000 8868947
0.291333 -0.012667 0.700000 7814714
0.292998 -0.008716 0.704000 7891073
0.294247 -0.004713 0.707000 7160373
0.295911 -0.000677 0.711000 8340034
0.298409 0.003414 0.717000 10053182
0.300490 0.007564 0.722000 8475981
0.301738 0.011738 0.725000 10054753
0.337821 -0.153135 0.808000 11303544
0.336149 -0.147783 0.804000 10386061
0.333640 -0.142120 0.798000 7423824
0.332386 -0.137043 0.795000 10789037
0.330713 -0.131833 0.791000 5655405
0.329459 -0.126830 0.788000 5182016
0.326114 -0.121086 0.780000 6504005
0.324024 -0.115881 0.775000 7885397
0.323188 -0.111165 0.773000 9201249
0.321933 -0.106333 0.770000 11173234
0.320679 -0.101536 0.767000 10839903
0.318170 -0.096393 0.761000 11634010
0.316080 -0.091440 0.756000 8935523
0.314826 -0.086774 0.753000 9655389
0.312735 -0.081924 0.748000 11959148
0.311481 -0.077338 0.745000 7093317
0.310227 -0.072787 0.742000 7951451
0.308972 -0.068270 0.739000 7614810
0.306046 -0.063440 0.732000 8079944
0.304791 -0.059014 0.729000 8867914
0.304373 -0.054773 0.728000 7816004
0.302283 -0.050266 0.723000 9272477
0.300610 -0.045879 0.719000 7291715
0.299356 -0.041596 0.716000 7358536
0.297266 -0.037243 0.711000 7026507
0.296011 -0.033040 0.708000 9853524
0.294757 -0.028871 0.705000 10446431
0.293085 -0.024702 0.701000 10116954
0.291412 -0.020578 0.697000 9853007
0.291412 -0.016595 0.697000 8868692
0.292667 -0.012667 0.700000 7620675
0.294339 -0.008716 0.704000 7960964
0.295593 -0.004713 0.707000 7159345
0.297266 -0.000677 0.711000 8209213
0.299356 0.003410 0.716000 9789506
0.301029 0.007543 0.720000 9459782
0.303119 0.011738 0.725000 10055001
0.338520 -0.152756 0.806000 11237245
0.336840 -0.147415 0.802000 10256269
0.334740 -0.141942 0.797000 7289171
0.333900 -0.137043 0.795000 10457521
0.332220 -0.131833 0.791000 6115437
0.330960 -0.126830 0.788000 5843505
0.327600 -0.121086 0.780000 5779776
0.325500 -0.115881 0.775000 7884113
0.324240 -0.111021 0.772000 9400684
0.323400 -0.106333 0.770000 10515811
0.322140 -0.101536 0.767000 9393242
0.319620 -0.096393 0.761000 10117695
0.317520 -0.091440 0.756000 9189211
0.316260 -0.086774 0.753000 9065575
0.314160 -0.081924 0.748000 11962467
0.312900 -0.077338 0.745000 6961475
0.311640 -0.072787 0.742000 7941195
0.310380 -0.068270 0.739000 7554403
0.307440 -0.063440 0.732000 8210241
0.306180 -0.059014 0.729000 8802638
0.305760 -0.054773 0.728000 7551291
0.303660 -0.050266 0.723000 9208228
0.302400 -0.045943 0.720000 7356495
0.300720 -0.041596 0.716000 8080193
0.298620 -0.037243 0.711000 8341840
0.297360 -0.033040 0.708000 10116692
0.296100 -0.028871 0.705000 10577754
0.294000 -0.024667 0.700000 10117978
0.292740 -0.020578 0.697000 9918544
0.292740 -0.016595 0.697000 8869204
0.294000 -0.012667 0.700000 7882828
0.295260 -0.008704 0.703000 8022662
0.297360 -0.004720 0.708000 7159854
0.298620 -0.000677 0.711000 7946040
0.300720 0.003410 0.716000 9790791
0.302400 0.007543 0.720000 8999230
0.304500 0.011738 0.725000 9792336
0.339211 -0.152377 0.804000 11171195
0.338368 -0.147415 0.802000 10131610
0.336680 -0.142120 0.798000 7158352
0.335414 -0.137043 0.795000 10196909
0.333727 -0.131833 0.791000 6508652
0.332461 -0.126830 0.788000 6501437
0.329086 -0.121086 0.780000 5060936
0.326976 -0.115881 0.775000 7816530
0.325710 -0.111021 0.772000 9591636
0.324867 -0.106333 0.770000 9926758
0.323601 -0.101536 0.767000 7948375
0.321070 -0.096393 0.761000 8662063
0.318960 -0.091440 0.756000 9395038
0.317694 -0.086774 0.753000 8474214
0.315585 -0.081924 0.748000 11892580
0.315163 -0.077546 0.747000 6830656
0.313053 -0.072787 0.742000 7884373
0.311788 -0.068270 0.739000 7555194
0.309678 -0.063613 0.734000 8276560
0.307569 -0.059014 0.729000 8736844
0.307147 -0.054773 0.728000 7292748
0.305037 -0.050266 0.723000 9149065
0.303350 -0.045879 0.719000 7422281
0.302084 -0.041596 0.716000 8801603
0.299974 -0.037243 0.711000 9589836
0.298709 -0.033040 0.708000 10313809
0.297443 -0.028871 0.705000 10643807
0.295755 -0.024702 0.701000 10117725
0.294068 -0.020578 0.697000 9918805
0.294068 -0.016595 0.697000 8934743
0.294490 -0.012630 0.698000 8146255
0.296599 -0.008704 0.703000 8092042
0.298287 -0.004713 0.707000 7093558
0.299552 -0.000676 0.710000 7749692
0.302084 0.003410 0.716000 9786952
0.303771 0.007543 0.720000 8538945
0.305881 0.011738 0.725000 9462095
0.340743 -0.152377 0.804000 11039610
0.339895 -0.147415 0.802000 9932198
0.338200 -0.142120 0.798000 6694990
0.336929 -0.137043 0.795000 10062760
0.335233 -0.131833 0.791000 6703210
0.333962 -0.126830 0.788000 6963528
0.330571 -0.121086 0.780000 5719375
0.328452 -0.115881 0.775000 7489875
0.327181 -0.111021 0.772000 7745852
0.326333 -0.106333 0.770000 9265256
0.325062 -0.101536 0.767000 7748948
0.322519 -0.096393 0.761000 8140318
0.320400 -0.091440 0.756000 10055777
0.319129 -0.086774 0.753000 9463653
0.317010 -0.081924 0.748000 11045478
0.315738 -0.077338 0.745000 6240061
0.314467 -0.072787 0.742000 8215392
0.313195 -0.068270 0.739000 8550288
0.311924 -0.063787 0.736000 8672350
0.309805 -0.059176 0.731000 8671305
0.308533 -0.054773 0.728000 7821660
0.306414 -0.050266 0.723000 9008749
0.304719 -0.045879 0.719000 7685956
0.303448 -0.041596 0.716000 8932933
0.301329 -0.037243 0.711000 9723208
0.300057 -0.033040 0.708000 10378830
0.298786 -0.028871 0.705000 10840932
0.297938 -0.024772 0.703000 10184031
0.295395 -0.020578 0.697000 9919578
0.294548 -0.016548 0.695000 8935002
0.295819 -0.012630 0.698000 8146770
0.297090 -0.008679 0.701000 7958157
0.299633 -0.004713 0.707000 7094077
0.300905 -0.000676 0.710000 7552575
0.303448 0.003410 0.716000 9784905
0.305143 0.007543 0.720000 9265476
0.307262 0.011738 0.725000 9724239
0.342274 -0.152377 0.804000 10908286
0.341423 -0.147415 0.802000 9739412
0.339720 -0.142120 0.798000 6171741
0.338443 -0.137043 0.795000 10001061
0.336740 -0.131833 0.791000 6836593
0.335463 -0.126830 0.788000 7423037
0.332057 -0.121086 0.780000 6373964
0.329929 -0.115881 0.775000 7097931
0.328651 -0.111021 0.772000 5915202
0.327800 -0.106333 0.770000 8608858
0.326523 -0.101536 0.767000 7490894
0.323969 -0.096393 0.761000 7619897
0.321840 -0.091440 0.756000 10645342
0.320563 -0.086774 0.753000 10385789
0.318434 -0.081924 0.748000 10115164
0.318009 -0.077546 0.747000 5717304
0.315880 -0.072787 0.742000 8546407
0.314603 -0.068270 0.739000 9539700
0.312474 -0.063613 0.734000 9002069
0.310346 -0.059014 0.729000 8670798
0.309069 -0.054623 0.726000 8342860
0.307791 -0.050266 0.723000 8871801
0.306089 -0.045879 0.719000 7948094
0.303960 -0.041480 0.714000 9129794
0.302683 -0.037243 0.711000 9787461
0.301406 -0.033040 0.708000 10378571
0.299703 -0.028830 0.704000 10971485
0.298426 -0.024702 0.701000 10250846
0.296723 -0.020578 0.697000 9918810
0.295871 -0.016548 0.695000 8935515
0.297149 -0.012630 0.698000 8147533
0.298426 -0.008679 0.701000 7832711
0.300980 -0.004713 0.707000 7027522
0.302257 -0.000676 0.710000 7356230
0.304811 0.003410 0.716000 9785162
0.306514 0.007543 0.720000 9989194
0.308643 0.011738 0.725000 9919057
0.342950 -0.147415 0.802000 10523010
0.340812 -0.141942 0.797000 6632044
0.339957 -0.137043 0.795000 10064033
0.338247 -0.131833 0.791000 7030135
0.336964 -0.126830 0.788000 7620145
0.334398 -0.121396 0.782000 5583944
0.332260 -0.116180 0.777000 6702402
0.330122 -0.111021 0.772000 6836809
0.329267 -0.106333 0.770000 8280139
0.327984 -0.101536 0.767000 7559240
0.325418 -0.096393 0.761000 8147539
0.323280 -0.091440 0.756000 10712155
0.321997 -0.086774 0.753000 10779541
0.319859 -0.081924 0.748000 8932690
0.319431 -0.077546 0.747000 6109490
0.317293 -0.072787 0.742000 8555118
0.316010 -0.068270 0.739000 8937815
0.314728 -0.063787 0.736000 8867404
0.312590 -0.059176 0.731000 8539475
0.310451 -0.054623 0.726000 7476028
0.309169 -0.050266 0.723000 8808324
0.306603 -0.045751 0.717000 8013881
0.305320 -0.041480 0.714000 9063742
0.304037 -0.037243 0.711000 9655617
0.302754 -0.033040 0.708000 10246727
0.301471 -0.028871 0.705000 10774870
0.300616 -0.024772 0.703000 10250076
0.297195 -0.020519 0.695000 9985114
0.297195 -0.016548 0.695000 8935259
0.298478 -0.012630 0.698000 8148553
0.299761 -0.008679 0.701000 7695744
0.302327 -0.004713 0.707000 6829639
0.303610 -0.000676 0.710000 7289932
0.306175 0.003410 0.716000 9326668
0.307886 0.007543 0.720000 9197391
0.310024 0.011738 0.725000 8998996
0.344478 -0.147415 0.802000 11308164
0.342330 -0.141942 0.797000 7031407
0.341471 -0.137043 0.795000 10130332
0.338894 -0.131500 0.789000 7165051
0.338465 -0.126830 0.788000 7815491
0.335888 -0.121396 0.782000 4734540
0.334599 -0.116479 0.779000 6310985
0.332022 -0.111165 0.773000 7690838
0.330733 -0.106333 0.770000 7951683
0.329445 -0.101536 0.767000 7620940
0.326868 -0.096393 0.761000 8738910
0.324720 -0.091440 0.756000 10709847
0.323431 -0.086774 0.753000 11177088
0.321284 -0.081924 0.748000 7752786
0.320854 -0.077546 0.747000 6568504
0.318707 -0.072787 0.742000 8479836
0.316559 -0.068085 0.737000 8407626
0.315270 -0.063613 0.734000 8735814
0.313123 -0.059014 0.729000 8342606
0.311834 -0.054623 0.726000 6574940
0.310116 -0.050196 0.722000 8749182
0.307969 -0.045751 0.717000 8013375
0.306680 -0.041480 0.714000 8997954
0.305391 -0.037243 0.711000 9523791
0.304103 -0.033040 0.708000 10180166
0.302814 -0.028871 0.705000 10576978
0.301096 -0.024702 0.701000 10317402
0.299378 -0.020578 0.697000 9984345
0.298519 -0.016548 0.695000 8935003
0.299808 -0.012630 0.698000 8082260
0.301096 -0.008679 0.701000 7574649
0.303673 -0.004713 0.707000 6565702
0.304962 -0.000676 0.710000 7288652
0.307539 0.003410 0.716000 8802381
0.309257 0.007543 0.720000 8473161
0.311405 0.011738 0.725000 8015188
0.345143 -0.147048 0.800000 11373446
0.343849 -0.141942 0.797000 7820145
0.342986 -0.137043 0.795000 9995927
0.340397 -0.131500 0.789000 7625086
0.339103 -0.126509 0.786000 7750740
0.337377 -0.121396 0.782000 6179409
0.336514 -0.116629 0.780000 6307152
0.333494 -0.111165 0.773000 9138531
0.332200 -0.106333 0.770000 6897978
0.330043 -0.101271 0.765000 6894928
0.328317 -0.096393 0.761000 8411497
0.326160 -0.091440 0.756000 10510932
0.324866 -0.086774 0.753000 11042667
0.322709 -0.081924 0.748000 7094610
0.322277 -0.077546 0.747000 6767677
0.320120 -0.072787 0.742000 8013129
0.317963 -0.068085 0.737000 8472892
0.316669 -0.063613 0.734000 8670528
0.314511 -0.059014 0.729000 8276296
0.313217 -0.054623 0.726000 8091772
0.311923 -0.050266 0.723000 8480888
0.310197 -0.045879 0.719000 8079942
0.308040 -0.041480 0.714000 9131077
0.306746 -0.037243 0.711000 9129308
0.305451 -0.033040 0.708000 9785925
0.304157 -0.028871 0.705000 10510670
0.303294 -0.024772 0.703000 10315352
0.300706 -0.020578 0.697000 9984857
0.299843 -0.016548 0.695000 8935259
0.301137 -0.012630 0.698000 8215391
0.302431 -0.008679 0.701000 7434353
0.305020 -0.004713 0.707000 6170950
0.306314 -0.000676 0.710000 7289932
0.308903 0.003410 0.716000 8540239
0.310629 0.007543 0.720000 8013891
0.312786 0.011738 0.725000 8146004
0.346667 -0.147048 0.800000 11502718
0.345367 -0.141942 0.797000 8543862
0.344500 -0.137043 0.795000 9868423
0.341900 -0.131500 0.789000 8087179
0.340600 -0.126509 0.786000 7750991
0.338867 -0.121396 0.782000 7556433
0.338000 -0.116629 0.780000 6304323
0.334967 -0.111165 0.773000 10514523
0.332800 -0.106057 0.768000 5911902
0.332367 -0.101536 0.767000 6107712
0.329767 -0.096393 0.761000 8087140
0.327167 -0.091319 0.755000 10243655
0.326300 -0.086774 0.753000 10977401
0.324133 -0.081924 0.748000 6438224
0.323700 -0.077546 0.747000 6895422
0.321533 -0.072787 0.742000 7489869
0.319367 -0.068085 0.737000 8474464
0.318067 -0.063613 0.734000 8605269
0.315900 -0.059014 0.729000 8145231
0.314167 -0.054548 0.725000 9530210
0.312867 -0.050196 0.722000 8279134
0.310700 -0.045751 0.717000 8145222
0.309400 -0.041480 0.714000 9258828
0.308100 -0.037243 0.711000 8674656
0.306800 -0.033040 0.708000 9391931
0.305500 -0.028871 0.705000 10377801
0.304633 -0.024772 0.703000 10314838
0.302033 -0.020578 0.697000 9918806
0.301167 -0.016548 0.695000 9000539
0.302467 -0.012630 0.698000 8279646
0.303767 -0.008679 0.701000 7313010
0.306367 -0.004713 0.707000 5777487
0.307667 -0.000676 0.710000 7288400
0.310267 0.003410 0.716000 8212052
0.312000 0.007543 0.720000 7554124
0.313300 0.011706 0.723000 8277332
0.348190 -0.147048 0.800000 11635829
0.346885 -0.141942 0.797000 8741499
0.346014 -0.137043 0.795000 9466486
0.342968 -0.131333 0.788000 8614808
0.342097 -0.126509 0.786000 7948873
0.340356 -0.121396 0.782000 7689810
0.339050 -0.116479 0.779000 6568246
0.336004 -0.111021 0.772000 10516562
0.334263 -0.106057 0.768000 7233409
0.333828 -0.101536 0.767000 6106415
0.331216 -0.096393 0.761000 7493471
0.329040 -0.091440 0.756000 10242106
0.327299 -0.086659 0.752000 10979462
0.325558 -0.081924 0.748000 6238798
0.325123 -0.077546 0.747000 6701375
0.322947 -0.072787 0.742000 7555152
0.320770 -0.068085 0.737000 8810883
0.319465 -0.063613 0.734000 8736875
0.317289 -0.059014 0.729000 8144726
0.315548 -0.054548 0.725000 9072969
0.314677 -0.050266 0.723000 7881027
0.312066 -0.045751 0.717000 8210758
0.310760 -0.041480 0.714000 8866643
0.309454 -0.037243 0.711000 8741476
0.309019 -0.033133 0.710000 8931889
0.306843 -0.028871 0.705000 10114116
0.305972 -0.024772 0.703000 10248531
0.303361 -0.020578 0.697000 9984340
0.302490 -0.016548 0.695000 9001050
0.303361 -0.012612 0.697000 8018781
0.305972 -0.008704 0.703000 7302514
0.307713 -0.004713 0.707000 5775961
0.309019 -0.000676 0.710000 7421779
0.311630 0.003410 0.716000 8146265
0.313371 0.007543 0.720000 7685717
0.314677 0.011706 0.723000 8277588
0.349714 -0.147048 0.800000 11832178
0.348403 -0.141942 0.797000 8877454
0.347529 -0.137043 0.795000 9075799
0.344469 -0.131333 0.788000 9140635
0.342720 -0.126187 0.784000 8144237
0.341846 -0.121396 0.782000 7752779
0.340971 -0.116629 0.780000 6831429
0.337911 -0.111165 0.773000 10516059
0.335726 -0.106057 0.768000 8554882
0.334414 -0.101271 0.765000 6105393
0.332666 -0.096393 0.761000 6839126
0.330480 -0.091440 0.756000 10182217
0.328731 -0.086659 0.752000 10985599
0.326983 -0.081924 0.748000 5976143
0.326546 -0.077546 0.747000 6436933
0.324360 -0.072787 0.742000 7556434
0.322174 -0.068085 0.737000 9206622
0.320863 -0.063613 0.734000 8806759
0.318677 -0.059014 0.729000 8211031
0.316929 -0.054548 0.725000 8544843
0.315617 -0.050196 0.722000 7553124
0.313431 -0.045751 0.717000 8277601
0.312120 -0.041480 0.714000 8403303
0.310809 -0.037243 0.711000 8810356
0.309497 -0.033040 0.708000 8472893
0.307749 -0.028830 0.704000 9851976
0.307311 -0.024772 0.703000 10247506
0.304689 -0.020578 0.697000 9984084
0.303814 -0.016548 0.695000 9000796
0.304689 -0.012612 0.697000 7755867
0.307311 -0.008704 0.703000 7377018
0.309060 -0.004713 0.707000 5712726
0.310371 -0.000676 0.710000 7486036
0.312994 0.003410 0.716000 8080727
0.314743 0.007543 0.720000 7817304
0.316054 0.011706 0.723000 8278102
0.351238 -0.147048 0.800000 12031087
0.350360 -0.142120 0.798000 9735329
0.347287 -0.136353 0.791000 9003831
0.345970 -0.131333 0.788000 9271709
0.344213 -0.126187 0.784000 8411281
0.343335 -0.121396 0.782000 8015171
0.342018 -0.116479 0.779000 7752019
0.340262 -0.111452 0.775000 10451045
0.337189 -0.106057 0.768000 8484738
0.335871 -0.101271 0.765000 5384500
0.334115 -0.096393 0.761000 7558220
0.331920 -0.091440 0.756000 10646616
0.330603 -0.086774 0.753000 10783864
0.328408 -0.081924 0.748000 6107472
0.327969 -0.077546 0.747000 6634570
0.325773 -0.072787 0.742000 7753299
0.323139 -0.067992 0.736000 8804152
0.322261 -0.063613 0.734000 8745059
0.320066 -0.059014 0.729000 8080216
0.319627 -0.054773 0.728000 8345932
0.316992 -0.050196 0.722000 8216708
0.314797 -0.045751 0.717000 8806525
0.313041 -0.041422 0.713000 8478586
0.312163 -0.037243 0.711000 9275525
0.310846 -0.033040 0.708000 9134153
0.309090 -0.028830 0.704000 9720396
0.308650 -0.024772 0.703000 10115920
0.306455 -0.020608 0.698000 9919316
0.305138 -0.016548 0.695000 9001310
0.306016 -0.012612 0.697000 7822169
0.307772 -0.008679 0.701000 7499906
0.310407 -0.004713 0.707000 5514067
0.311724 -0.000676 0.710000 7685460
0.314358 0.003410 0.716000 8080726
0.316114 0.007543 0.720000 7817818
0.318310 0.011738 0.725000 8409944
0.351880 -0.146680 0.798000 12227442
0.351439 -0.141942 0.797000 10588852
0.350557 -0.137043 0.795000 8928819
0.347470 -0.131333 0.788000 9338784
0.345707 -0.126187 0.784000 8678029
0.344825 -0.121396 0.782000 8277060
0.343943 -0.116629 0.780000 8669795
0.340856 -0.111165 0.773000 10384229
0.338651 -0.106057 0.768000 8423295
0.337329 -0.101271 0.765000 4662845
0.335565 -0.096393 0.761000 8279115
0.333360 -0.091440 0.756000 11039068
0.332037 -0.086774 0.753000 10589302
0.329832 -0.081924 0.748000 6172744
0.328510 -0.077338 0.745000 6895943
0.327187 -0.072787 0.742000 7885914
0.324982 -0.068085 0.737000 8471647
0.323659 -0.063613 0.734000 8612453
0.321454 -0.059014 0.729000 7948370
0.321013 -0.054773 0.728000 8148289
0.318368 -0.050196 0.722000 8943225
0.316163 -0.045751 0.717000 9268587
0.314840 -0.041480 0.714000 8550005
0.313517 -0.037243 0.711000 9666675
0.312194 -0.033040 0.708000 9796173
0.310871 -0.028871 0.705000 9589323
0.309990 -0.024772 0.703000 10049872
0.307785 -0.020608 0.698000 9853011
0.306462 -0.016548 0.695000 9066328
0.307344 -0.012612 0.697000 7822436
0.308667 -0.008667 0.700000 7705229
0.311753 -0.004713 0.707000 5253213
0.313517 -0.000677 0.711000 7818324
0.315722 0.003410 0.716000 8015447
0.317486 0.007543 0.720000 7818589
0.318809 0.011706 0.723000 8475228
0.320131 0.015903 0.726000 8606297
0.353400 -0.146680 0.798000 12095348
0.353400 -0.142120 0.798000 11712455
0.352071 -0.137043 0.795000 8669743
0.348971 -0.131333 0.788000 9403299
0.347200 -0.126187 0.784000 8875145
0.346314 -0.121396 0.782000 8539717
0.344986 -0.116479 0.779000 9329010
0.342329 -0.111165 0.773000 10384485
0.340114 -0.106057 0.768000 8682363
0.338786 -0.101271 0.765000 4924487
0.337014 -0.096393 0.761000 7815754
0.335686 -0.091682 0.758000 10905440
0.333029 -0.086659 0.752000 9992563
0.331257 -0.081924 0.748000 6501696
0.329929 -0.077338 0.745000 7225667
0.328600 -0.072787 0.742000 8216928
0.326386 -0.068085 0.737000 8744070
0.325057 -0.063613 0.734000 8280424
0.323729 -0.059176 0.731000 7883083
0.321514 -0.054623 0.726000 7951926
0.320186 -0.050266 0.723000 8345966
0.317529 -0.045751 0.717000 8807001
0.316200 -0.041480 0.714000 8614256
0.314871 -0.037243 0.711000 9072481
0.313543 -0.033040 0.708000 9266000
0.311771 -0.028830 0.704000 9523274
0.311329 -0.024772 0.703000 9853007
0.309114 -0.020608 0.698000 9787475
0.307786 -0.016548 0.695000 9001298
0.308671 -0.012612 0.697000 7823727
0.310000 -0.008667 0.700000 7763352
0.313100 -0.004713 0.707000 5384039
0.314871 -0.000677 0.711000 7818067
0.317086 0.003410 0.716000 8146777
0.318857 0.007543 0.720000 8080991
0.320186 0.011706 0.723000 8606560
0.354920 -0.146680 0.798000 11959926
0.354920 -0.142120 0.798000 12819887
0.353586 -0.137043 0.795000 8336193
