# .PCD v.7 - Point Cloud Data file format
VERSION .7
FIELDS x y z rgb
SIZE 4 4 4 4
TYPE F F F I
COUNT 1 1 1 1
WIDTH 1319
HEIGHT 1
POINTS 1319
DATA ascii
0.286000 -0.075029 0.780000 12091751
0.283433 -0.069938 0.773000 12094063
0.280500 -0.064843 0.765000 7810087
0.275000 -0.059286 0.750000 11372419
0.272433 -0.054487 0.743000 7814197
0.270967 -0.049970 0.739000 10583901
0.266200 -0.044943 0.726000 9654855
0.262533 -0.040232 0.716000 8669501
0.260333 -0.035838 0.710000 9198675
0.258500 -0.031557 0.705000 8602704
0.254100 -0.027060 0.693000 9070430
0.251900 -0.022900 0.687000 9853520
0.249333 -0.018781 0.680000 10837329
0.244567 -0.014610 0.667000 10969688
0.244567 -0.010799 0.667000 9397862
0.244567 -0.006988 0.667000 8147802
0.245667 -0.003190 0.670000 8477251
0.246033 0.000639 0.671000 6572385
0.247133 0.004493 0.674000 6436151
0.247867 0.008370 0.676000 7946299
0.248600 0.012269 0.678000 9195331
0.248967 0.016167 0.679000 8735811
0.250067 0.020135 0.682000 8143679
0.250433 0.024068 0.683000 8866370
0.250800 0.028011 0.684000 9129539
0.297069 -0.091347 0.806000 12554895
0.296331 -0.086526 0.804000 11637650
0.290803 -0.080403 0.789000 12163232
0.288223 -0.075221 0.782000 12354188
0.283800 -0.069667 0.770000 12155505
0.281220 -0.064673 0.763000 8397604
0.276429 -0.059286 0.750000 10382454
0.274586 -0.054633 0.745000 7946809
0.271269 -0.049768 0.736000 10910054
0.267583 -0.044943 0.726000 9588558
0.263160 -0.040120 0.714000 8405832
0.261686 -0.035838 0.710000 9265765
0.259474 -0.031512 0.704000 8604502
0.255420 -0.027060 0.693000 8871259
0.253209 -0.022900 0.687000 10115146
0.250260 -0.018753 0.679000 10771540
0.245837 -0.014610 0.667000 10970214
0.245837 -0.010799 0.667000 9203539
0.245837 -0.006988 0.667000 8280408
0.246943 -0.003190 0.670000 8867134
0.247680 0.000640 0.672000 5915486
0.248786 0.004500 0.675000 6240817
0.249154 0.008370 0.676000 8537147
0.249891 0.012269 0.678000 9064261
0.250260 0.016167 0.679000 8670020
0.251366 0.020135 0.682000 8406337
0.251734 0.024068 0.683000 8866883
0.298604 -0.091347 0.806000 12553358
0.297863 -0.086526 0.804000 11767440
0.292306 -0.080403 0.789000 12099232
0.288971 -0.075029 0.780000 12226224
0.285267 -0.069667 0.770000 10907508
0.281562 -0.064419 0.760000 8206625
0.278598 -0.059444 0.752000 10115433
0.275264 -0.054487 0.743000 8276285
0.271189 -0.049497 0.732000 10453360
0.268966 -0.044943 0.726000 9196373
0.264520 -0.040120 0.714000 7942483
0.263038 -0.035838 0.710000 8938614
0.260815 -0.031512 0.704000 8276828
0.256740 -0.027060 0.693000 8937304
0.253406 -0.022800 0.684000 10378565
0.251924 -0.018781 0.680000 10771542
0.247849 -0.014654 0.669000 11367541
0.247108 -0.010799 0.667000 8473919
0.247108 -0.006988 0.667000 8148311
0.248219 -0.003190 0.670000 9001016
0.248590 0.000639 0.671000 5646427
0.249701 0.004493 0.674000 6567466
0.250442 0.008370 0.676000 8537148
0.251183 0.012269 0.678000 9064263
0.251553 0.016167 0.679000 8735813
0.252665 0.020135 0.682000 8537923
0.253035 0.024068 0.683000 8998212
0.299394 -0.091120 0.804000 12555154
0.298650 -0.086310 0.802000 11966358
0.293809 -0.080403 0.789000 11966879
0.290085 -0.074932 0.779000 12163762
0.286733 -0.069667 0.770000 9662352
0.283010 -0.064419 0.760000 8011357
0.280030 -0.059444 0.752000 9853014
0.276679 -0.054487 0.743000 8603713
0.272210 -0.049430 0.731000 9991536
0.270349 -0.044943 0.726000 8867154
0.265880 -0.040120 0.714000 7488083
0.263646 -0.035737 0.708000 8610912
0.261784 -0.031468 0.703000 7951963
0.258060 -0.027060 0.693000 9005399
0.254709 -0.022800 0.684000 10639948
0.252847 -0.018753 0.679000 10837075
0.249123 -0.014654 0.669000 11694198
0.248378 -0.010799 0.667000 7746606
0.248378 -0.006988 0.667000 7951701
0.249495 -0.003190 0.670000 9126476
0.249868 0.000639 0.671000 5388641
0.250985 0.004493 0.674000 6894134
0.251730 0.008370 0.676000 8472895
0.252474 0.012269 0.678000 9064266
0.253219 0.016190 0.680000 8735561
0.253964 0.020135 0.682000 8734791
0.254336 0.024068 0.683000 9129545
0.300177 -0.090893 0.802000 12489109
0.299429 -0.086095 0.800000 12096411
0.295311 -0.080403 0.789000 12033951
0.291569 -0.074932 0.779000 12163508
0.288949 -0.069848 0.772000 11180205
0.282960 -0.064080 0.756000 9401496
0.281463 -0.059444 0.752000 9456707
0.277720 -0.054413 0.742000 8999493
0.273603 -0.049430 0.731000 10121840
0.271731 -0.044943 0.726000 8472655
0.267240 -0.040120 0.714000 6963027
0.265743 -0.035838 0.710000 8740170
0.263123 -0.031468 0.703000 8282457
0.258631 -0.026982 0.691000 9199958
0.256760 -0.022867 0.686000 10837843
0.253766 -0.018726 0.678000 10771536
0.250397 -0.014654 0.669000 11502710
0.249274 -0.010783 0.666000 7288860
0.249649 -0.006988 0.667000 7753299
0.250397 -0.003186 0.669000 9199199
0.251146 0.000639 0.671000 5446759
0.252269 0.004493 0.674000 7158849
0.253017 0.008370 0.676000 8604227
0.253766 0.012269 0.678000 9129804
0.254514 0.016190 0.680000 8931918
0.255263 0.020135 0.682000 8866891
0.255637 0.024068 0.683000 9326670
0.301705 -0.090893 0.802000 12424339
0.299824 -0.085772 0.797000 12229793
0.298319 -0.080810 0.793000 12097436
0.292300 -0.074740 0.777000 12162994
0.289667 -0.069667 0.770000 12691905
0.285152 -0.064250 0.758000 10853255
0.282895 -0.059444 0.752000 8998468
0.279133 -0.054413 0.742000 9323852
0.274995 -0.049430 0.731000 10252906
0.273114 -0.044943 0.726000 8143435
0.269729 -0.040289 0.717000 6376272
0.266343 -0.035737 0.708000 8873811
0.263710 -0.031378 0.701000 8607827
0.259948 -0.026982 0.691000 9329225
0.258067 -0.022867 0.686000 11034191
0.255057 -0.018726 0.678000 10706258
0.251671 -0.014654 0.669000 11232352
0.250543 -0.010783 0.666000 6897469
0.250919 -0.006988 0.667000 7557725
0.252048 -0.003190 0.670000 9324909
0.252800 0.000640 0.672000 5453414
0.253552 0.004493 0.674000 7423044
0.253929 0.008357 0.675000 8670275
0.255057 0.012269 0.678000 9195853
0.255810 0.016190 0.680000 9129807
0.256562 0.020135 0.682000 9064269
0.256938 0.024068 0.683000 9458252
0.303232 -0.090893 0.802000 12620177
0.301342 -0.085772 0.797000 12359846
0.299830 -0.080810 0.793000 12097690
0.294536 -0.074932 0.779000 12361904
0.291133 -0.069667 0.770000 13221590
0.286596 -0.064250 0.758000 10381685
0.284706 -0.059523 0.753000 9195589
0.279790 -0.054267 0.740000 9656915
0.276388 -0.049430 0.731000 9725028
0.274119 -0.044881 0.725000 7684934
0.269960 -0.040120 0.714000 7624781
0.267313 -0.035687 0.707000 8540507
0.265801 -0.031468 0.703000 8739916
0.261264 -0.026982 0.691000 9721659
0.258617 -0.022800 0.684000 10969164
0.257105 -0.018781 0.680000 10443603
0.252190 -0.014610 0.667000 9720393
0.251811 -0.010783 0.666000 6899293
0.252190 -0.006988 0.667000 7626854
0.252946 -0.003186 0.669000 9002363
0.254080 0.000640 0.672000 5839461
0.254836 0.004493 0.674000 7685703
0.255592 0.008370 0.676000 8866628
0.256349 0.012269 0.678000 9392973
0.257105 0.016190 0.680000 9261392
0.257861 0.020135 0.682000 9130319
0.258239 0.024068 0.683000 9655370
0.302100 -0.085557 0.795000 12492702
0.301340 -0.080810 0.793000 12095109
0.296400 -0.075029 0.780000 12624822
0.291840 -0.069486 0.768000 13676458
0.288040 -0.064250 0.758000 9901911
0.286140 -0.059523 0.753000 9391946
0.281200 -0.054267 0.740000 10053965
0.278160 -0.049497 0.732000 9198169
0.274740 -0.044757 0.723000 7226698
0.271320 -0.040120 0.714000 8870493
0.268660 -0.035687 0.707000 8273749
0.266380 -0.031378 0.701000 8806745
0.261820 -0.026904 0.689000 10048071
0.259920 -0.022800 0.684000 10838095
0.258400 -0.018781 0.680000 10115927
0.254220 -0.014654 0.669000 8146802
0.253080 -0.010783 0.666000 6896289
0.253460 -0.006988 0.667000 7691427
0.254220 -0.003186 0.669000 8680119
0.255360 0.000640 0.672000 6239845
0.256120 0.004493 0.674000 8014923
0.256880 0.008370 0.676000 8998729
0.257640 0.012269 0.678000 9590095
0.258400 0.016190 0.680000 9327700
0.259160 0.020135 0.682000 9261138
0.259540 0.024068 0.683000 9787215
0.303614 -0.085557 0.795000 12425877
0.302850 -0.080810 0.793000 12025969
0.297504 -0.074932 0.779000 12429243
0.293303 -0.069486 0.768000 11113598
0.289484 -0.064250 0.758000 9584185
0.286429 -0.059286 0.750000 9064527
0.282228 -0.054193 0.739000 9920327
0.279554 -0.049497 0.732000 8996685
0.276117 -0.044757 0.723000 6766925
0.272298 -0.040064 0.713000 9401197
0.270007 -0.035687 0.707000 8277838
0.268479 -0.031468 0.703000 9336934
0.263132 -0.026904 0.689000 10313554
0.260841 -0.022767 0.683000 10904403
0.259313 -0.018753 0.679000 9918555
0.254730 -0.014610 0.667000 10450843
0.254349 -0.010783 0.666000 10325476
0.254730 -0.006988 0.667000 10853089
0.255494 -0.003186 0.669000 10067187
0.256258 0.000639 0.671000 6827877
0.257404 0.004493 0.674000 8211791
0.258168 0.008370 0.676000 9196623
0.258931 0.012269 0.678000 9786961
0.260459 0.016238 0.682000 9328472
0.260841 0.020165 0.683000 9064533
0.260841 0.024068 0.683000 9787221
0.305129 -0.085557 0.795000 12425619
0.304361 -0.080810 0.793000 11960696
0.298988 -0.074932 0.779000 12229262
0.296301 -0.069848 0.772000 8471382
0.290160 -0.064080 0.756000 9262144
0.286706 -0.059049 0.747000 8736585
0.284019 -0.054267 0.740000 9853300
0.281716 -0.049632 0.734000 8807522
0.277110 -0.044695 0.722000 6372942
0.273656 -0.040064 0.713000 9858413
0.271353 -0.035687 0.707000 8346952
0.269818 -0.031468 0.703000 9857642
0.264445 -0.026904 0.689000 10576983
0.262142 -0.022767 0.683000 10904402
0.258688 -0.018615 0.674000 9655894
0.256001 -0.014610 0.667000 12754347
0.255617 -0.010783 0.666000 13755626
0.256001 -0.006988 0.667000 13946345
0.256769 -0.003186 0.669000 11525620
0.257920 0.000640 0.672000 7418461
0.258688 0.004493 0.674000 8474705
0.259455 0.008370 0.676000 9327953
0.260223 0.012269 0.678000 9983827
0.261758 0.016238 0.682000 9327701
0.262142 0.020165 0.683000 8932943
0.262142 0.024068 0.683000 9787477
0.306643 -0.085557 0.795000 12423824
0.305871 -0.080810 0.793000 11631232
0.299700 -0.074740 0.777000 10247265
0.296229 -0.069486 0.768000 7735854
0.291600 -0.064080 0.756000 9524550
0.287357 -0.058890 0.745000 8933188
0.285429 -0.054267 0.740000 10515873
0.283114 -0.049632 0.734000 9144695
0.278486 -0.044695 0.722000 6305614
0.274243 -0.039951 0.711000 10057324
0.272700 -0.035687 0.707000 7883585
0.271157 -0.031468 0.703000 10192238
0.264986 -0.026826 0.687000 10774620
0.263829 -0.022800 0.684000 11167570
0.258429 -0.018505 0.670000 9458513
0.257271 -0.014610 0.667000 13554363
0.256886 -0.010783 0.666000 13554415
0.257271 -0.006988 0.667000 13487346
0.258429 -0.003190 0.670000 11651060
0.259200 0.000640 0.672000 7880790
0.259971 0.004493 0.674000 8671827
0.260743 0.008370 0.676000 9459282
0.261514 0.012269 0.678000 9787220
0.263057 0.016238 0.682000 9064275
0.263443 0.020165 0.683000 8341576
0.263443 0.024068 0.683000 9985621
0.308157 -0.085557 0.795000 12357772
0.306607 -0.080607 0.791000 11235964
0.301180 -0.074740 0.777000 8205658
0.297304 -0.069395 0.767000 6958138
0.293040 -0.064080 0.756000 9852743
0.288776 -0.058890 0.745000 9130058
0.286450 -0.054193 0.739000 11248272
0.283737 -0.049497 0.732000 9463387
0.279861 -0.044695 0.722000 6304573
0.275597 -0.039951 0.711000 10252916
0.274047 -0.035687 0.707000 7485251
0.272884 -0.031512 0.704000 10450537
0.266294 -0.026826 0.687000 10971740
0.265907 -0.022867 0.686000 11364435
0.259317 -0.018477 0.669000 9196360
0.258542 -0.014610 0.667000 14333879
0.258154 -0.010783 0.666000 13351367
0.258542 -0.006988 0.667000 12956621
0.259705 -0.003190 0.670000 11851498
0.260092 0.000639 0.671000 8271438
0.261255 0.004493 0.674000 8868947
0.262030 0.008370 0.676000 9590615
0.262806 0.012269 0.678000 9655893
0.264356 0.016238 0.682000 8736084
0.264356 0.020135 0.682000 7816015
0.264744 0.024068 0.683000 10115415
0.309671 -0.085557 0.795000 12357768
0.308113 -0.080607 0.791000 10312056
0.301881 -0.074548 0.775000 8078419
0.299154 -0.069486 0.768000 7618631
0.295259 -0.064250 0.758000 9852999
0.289416 -0.058732 0.743000 9195344
0.287858 -0.054193 0.739000 10717823
0.284742 -0.049430 0.731000 8212032
0.281236 -0.044695 0.722000 7093292
0.275783 -0.039783 0.708000 10255996
0.274614 -0.035586 0.705000 7751237
0.273835 -0.031468 0.703000 10445924
0.267213 -0.026787 0.686000 11038043
0.266434 -0.022800 0.684000 11561300
0.259812 -0.018422 0.667000 8930623
0.259812 -0.014610 0.667000 12695988
0.259423 -0.010783 0.666000 10389151
0.259812 -0.006988 0.667000 12026792
0.260981 -0.003190 0.670000 11578848
0.261370 0.000639 0.671000 8538182
0.262539 0.004493 0.674000 8934482
0.263318 0.008370 0.676000 9721947
0.264097 0.012269 0.678000 9525078
0.265655 0.016238 0.682000 8735829
0.266045 0.020165 0.683000 8539477
0.266434 0.024103 0.684000 10116441
0.310403 -0.085342 0.793000 12422792
0.308837 -0.080403 0.789000 9332343
0.303357 -0.074548 0.775000 8015946
0.300226 -0.069395 0.767000 8276042
0.296703 -0.064250 0.758000 9918537
0.290831 -0.058732 0.743000 9196121
0.288483 -0.054047 0.737000 10264688
0.285351 -0.049294 0.729000 6898238
0.281829 -0.044571 0.720000 7876141
0.276740 -0.039727 0.707000 10252649
0.275957 -0.035586 0.705000 8075321
0.275174 -0.031468 0.703000 10448747
0.268520 -0.026787 0.686000 11103586
0.267346 -0.022767 0.683000 11757653
0.261083 -0.018422 0.667000 8668466
0.261083 -0.014610 0.667000 10981548
0.261083 -0.010799 0.667000 7371159
0.261083 -0.006988 0.667000 11116463
0.262649 -0.003195 0.671000 11318745
0.263040 0.000640 0.672000 8798786
0.263823 0.004493 0.674000 9000273
0.264606 0.008370 0.676000 9852761
0.265389 0.012269 0.678000 9393494
0.266954 0.016238 0.682000 8671062
0.267346 0.020165 0.683000 9262678
0.311913 -0.085342 0.793000 12422536
0.309947 -0.080301 0.788000 9987703
0.304833 -0.074548 0.775000 7685185
0.300900 -0.069214 0.765000 8869197
0.296967 -0.063995 0.755000 9919051
0.293033 -0.058890 0.745000 9523042
0.289887 -0.054047 0.737000 9728864
0.286740 -0.049294 0.729000 7226172
0.283200 -0.044571 0.720000 7815470
0.278087 -0.039727 0.707000 9196118
0.277300 -0.035586 0.705000 8077101
0.275727 -0.031378 0.701000 10784882
0.269827 -0.026787 0.686000 11103592
0.268647 -0.022767 0.683000 11692631
0.263140 -0.018477 0.669000 8668453
0.262353 -0.014610 0.667000 9800869
0.262353 -0.010799 0.667000 7499919
0.262353 -0.006988 0.667000 11449782
0.263927 -0.003195 0.671000 11113169
0.264320 0.000640 0.672000 8670269
0.265107 0.004493 0.674000 8999759
0.265893 0.008370 0.676000 10049622
0.267073 0.012287 0.679000 9327958
0.268253 0.016238 0.682000 8867926
0.268647 0.020165 0.683000 9459542
0.312633 -0.085127 0.791000 12487298
0.310657 -0.080097 0.786000 10582392
0.306310 -0.074548 0.775000 7353919
0.303148 -0.069395 0.767000 9392715
0.297614 -0.063826 0.753000 9919308
0.293662 -0.058732 0.743000 9789536
0.292081 -0.054193 0.739000 9193587
0.287733 -0.049227 0.728000 7487544
0.284176 -0.044510 0.719000 7746393
0.280619 -0.039895 0.710000 8081497
0.278643 -0.035586 0.705000 8010812
0.276667 -0.031333 0.700000 11043691
0.271529 -0.026826 0.687000 11104101
0.269552 -0.022733 0.682000 11561812
0.264414 -0.018477 0.669000 8728377
0.263624 -0.014610 0.667000 8622258
0.263624 -0.010799 0.667000 7692963
0.264414 -0.007009 0.669000 11772107
0.265205 -0.003195 0.671000 10916300
0.265600 0.000640 0.672000 8537666
0.266390 0.004493 0.674000 9065296
0.267181 0.008370 0.676000 10180694
0.268367 0.012287 0.679000 9327701
0.269552 0.016238 0.682000 8999510
0.269552 0.020135 0.682000 9721687
0.314140 -0.085127 0.791000 12422011
0.312154 -0.080097 0.786000 10781049
0.306991 -0.074355 0.773000 7224380
0.303814 -0.069214 0.765000 9460297
0.301034 -0.064250 0.758000 10050637
0.295077 -0.058732 0.743000 9984863
0.292297 -0.053973 0.736000 9131654
0.289517 -0.049294 0.729000 7159348
0.285546 -0.044510 0.719000 9204099
0.281177 -0.039783 0.708000 7880029
0.279986 -0.035586 0.705000 8473674
0.277206 -0.031244 0.698000 11369828
0.272837 -0.026826 0.687000 11039074
0.270851 -0.022733 0.682000 11300434
0.264894 -0.018422 0.667000 9130061
0.264894 -0.014610 0.667000 9737663
0.264894 -0.010799 0.667000 9340086
0.266086 -0.007019 0.670000 12098272
0.266880 -0.003200 0.672000 10715590
0.266880 0.000640 0.672000 8342088
0.268071 0.004500 0.675000 9130832
0.268469 0.008370 0.676000 9853271
0.269660 0.012287 0.679000 9130836
0.270851 0.016238 0.682000 9064790
0.270851 0.020135 0.682000 9918039
0.314849 -0.084911 0.789000 12354680
0.313651 -0.080097 0.786000 10975865
0.308464 -0.074355 0.773000 7095096
0.304473 -0.069033 0.763000 9458252
0.302478 -0.064250 0.758000 10247247
0.296492 -0.058732 0.743000 10121826
0.293699 -0.053973 0.736000 8995933
0.290906 -0.049294 0.729000 6765638
0.286915 -0.044510 0.719000 10591620
0.283324 -0.039895 0.710000 7685469
0.281329 -0.035586 0.705000 8934226
0.278535 -0.031244 0.698000 11630948
0.274146 -0.026826 0.687000 10974566
0.271352 -0.022667 0.680000 11035991
0.266963 -0.018477 0.669000 9583694
0.266165 -0.014610 0.667000 10855113
0.266165 -0.010799 0.667000 10983098
0.267761 -0.007030 0.671000 12433379
0.268160 -0.003200 0.672000 10517679
0.268160 0.000640 0.672000 8079691
0.269357 0.004500 0.675000 9262160
0.270953 0.008407 0.679000 9459542
0.271352 0.012305 0.680000 8999252
0.272150 0.016238 0.682000 9065044
0.272550 0.020165 0.683000 10114645
0.315950 -0.084804 0.788000 12224117
0.314347 -0.079893 0.784000 10780281
0.308733 -0.074067 0.770000 7029299
0.305927 -0.069033 0.763000 9062734
0.302719 -0.063995 0.755000 10313297
0.298710 -0.058890 0.745000 10386277
0.293497 -0.053680 0.732000 8604467
0.292294 -0.049294 0.729000 6961241
0.288285 -0.044510 0.719000 10520708
0.284676 -0.039895 0.710000 7616605
0.282270 -0.035535 0.704000 9525337
0.279865 -0.031244 0.698000 11567204
0.275454 -0.026826 0.687000 11433833
0.272648 -0.022667 0.680000 10706268
0.268638 -0.018505 0.670000 9459791
0.267435 -0.014610 0.667000 11118804
0.267435 -0.010799 0.667000 11050942
0.269039 -0.007030 0.671000 12761831
0.269440 -0.003200 0.672000 10313112
0.270242 0.000642 0.674000 8408143
0.271044 0.004507 0.676000 9393231
0.271846 0.008394 0.678000 9393749
0.273450 0.012341 0.682000 8998995
0.273850 0.016262 0.683000 9261394
0.273850 0.020165 0.683000 9983826
0.317451 -0.084804 0.788000 12092533
0.315840 -0.079893 0.784000 10514550
0.310200 -0.074067 0.770000 7029572
0.308186 -0.069214 0.765000 8605521
0.302949 -0.063741 0.752000 10444630
0.300934 -0.059049 0.747000 10650466
0.294489 -0.053607 0.731000 8271157
0.293280 -0.049227 0.728000 7163213
0.289654 -0.044510 0.719000 10453615
0.286029 -0.039895 0.710000 7489885
0.283209 -0.035485 0.703000 10114649
0.280791 -0.031199 0.697000 11498857
0.276763 -0.026826 0.687000 11893866
0.273943 -0.022667 0.680000 10379604
0.269511 -0.018477 0.669000 9325678
0.268706 -0.014610 0.667000 11380164
0.269511 -0.010831 0.669000 11114675
0.270317 -0.007030 0.671000 13091301
0.270720 -0.003200 0.672000 10092906
0.271526 0.000642 0.674000 8671056
0.272331 0.004507 0.676000 9590095
0.273540 0.008407 0.679000 9261652
0.274749 0.012341 0.682000 9064274
0.275151 0.016262 0.683000 9392720
0.275554 0.020194 0.684000 9786959
0.318952 -0.084804 0.788000 11959669
0.316524 -0.079690 0.782000 10254963
0.311667 -0.074067 0.770000 7291732
0.310452 -0.069395 0.767000 8671059
0.303571 -0.063571 0.750000 10576475
0.301548 -0.058890 0.745000 10784607
0.297095 -0.053827 0.734000 7815991
0.295071 -0.049294 0.729000 7226177
0.290214 -0.044386 0.717000 10384218
0.286571 -0.039783 0.708000 8210269
0.283738 -0.035384 0.701000 10314072
0.281310 -0.031110 0.695000 11235182
0.276857 -0.026709 0.684000 11959915
0.274833 -0.022633 0.679000 9854541
0.269976 -0.018422 0.667000 9202060
0.269571 -0.014589 0.666000 10261427
0.269976 -0.010799 0.667000 10653351
0.271190 -0.007019 0.670000 13552867
0.272000 -0.003200 0.672000 9449019
0.272810 0.000642 0.674000 8867666
0.273214 0.004500 0.675000 9459023
0.274429 0.008394 0.678000 9130067
0.275238 0.012305 0.680000 8998992
0.276048 0.016238 0.682000 9523791
0.276452 0.020165 0.683000 9525068
0.320453 -0.084804 0.788000 11893117
0.318013 -0.079690 0.782000 9920350
0.313133 -0.074067 0.770000 7617861
0.311100 -0.069214 0.765000 8738642
0.305000 -0.063571 0.750000 10643036
0.302967 -0.058890 0.745000 10841447
0.299307 -0.053973 0.736000 7422776
0.296053 -0.049227 0.728000 7294021
0.290360 -0.044200 0.714000 10310239
0.286700 -0.039614 0.705000 8870756
0.285073 -0.035384 0.701000 10511959
0.281820 -0.031020 0.693000 10976877
0.278160 -0.026709 0.684000 11960693
0.274907 -0.022533 0.676000 9326151
0.271247 -0.018422 0.667000 9074575
0.270840 -0.014589 0.666000 9145780
0.272060 -0.010831 0.669000 10123953
0.272467 -0.007019 0.670000 14011085
0.273280 -0.003200 0.672000 8782129
0.274093 0.000642 0.674000 9064779
0.274907 0.004507 0.676000 9393491
0.276127 0.008407 0.679000 8933201
0.276533 0.012305 0.680000 8933709
0.277347 0.016238 0.682000 9655117
0.278160 0.020194 0.684000 9328456
0.321137 -0.084589 0.786000 11433348
0.318686 -0.079486 0.780000 8804680
0.314600 -0.074067 0.770000 7749686
0.312557 -0.069214 0.765000 10053201
0.305611 -0.063402 0.748000 10774364
0.303160 -0.058653 0.742000 10708847
0.299891 -0.053827 0.734000 7487288
0.297440 -0.049227 0.728000 7750985
0.291720 -0.044200 0.714000 9987940
0.288043 -0.039614 0.705000 9592940
0.286409 -0.035384 0.701000 10906198
0.283140 -0.031020 0.693000 11242861
0.279054 -0.026670 0.683000 12027262
0.276194 -0.022533 0.676000 8731969
0.273334 -0.018477 0.669000 9469329
0.272109 -0.014589 0.666000 9537716
0.273334 -0.010831 0.669000 10523066
0.273743 -0.007019 0.670000 13750968
0.274560 -0.003200 0.672000 8727079
0.275786 0.000643 0.675000 9326661
0.276194 0.004507 0.676000 9393494
0.277420 0.008407 0.679000 8998223
0.277829 0.012305 0.680000 9130570
0.278646 0.016238 0.682000 9917260
0.279463 0.020194 0.684000 8998724
0.320171 -0.083943 0.780000 10973575
0.319761 -0.079384 0.779000 7622472
0.315246 -0.073874 0.768000 7878726
0.314014 -0.069214 0.765000 11363159
0.306626 -0.063317 0.747000 10971237
0.304573 -0.058653 0.742000 10514292
0.299237 -0.053460 0.729000 7617847
0.298827 -0.049227 0.728000 8214868
0.292670 -0.044138 0.713000 9661294
0.288975 -0.039558 0.704000 10316387
0.287744 -0.035384 0.701000 11364692
0.283639 -0.030930 0.691000 11503986
0.280766 -0.026709 0.684000 12160383
0.276661 -0.022467 0.674000 8142145
0.274609 -0.018477 0.669000 9873079
0.273377 -0.014589 0.666000 9867199
0.275019 -0.010848 0.670000 10920387
0.275430 -0.007030 0.671000 13415867
0.275840 -0.003200 0.672000 8665905
0.277071 0.000643 0.675000 9589578
0.277482 0.004507 0.676000 9459025
0.278713 0.008407 0.679000 9063756
0.279124 0.012305 0.680000 9392964
0.280355 0.016262 0.683000 10114123
0.281587 0.020253 0.686000 8735297
0.321657 -0.083943 0.780000 10251145
0.320420 -0.079180 0.777000 7556679
0.317533 -0.074067 0.770000 8078421
0.315471 -0.069214 0.765000 11365213
0.308049 -0.063317 0.747000 10842478
0.305987 -0.058653 0.742000 10650489
0.300626 -0.053460 0.729000 7420981
0.299389 -0.049091 0.726000 8480352
0.294028 -0.044138 0.713000 10386296
0.290316 -0.039558 0.704000 10186587
0.289079 -0.035384 0.701000 10707282
0.284955 -0.030930 0.691000 12226167
0.282069 -0.026709 0.684000 12028031
0.277120 -0.022400 0.672000 7483457
0.275883 -0.018477 0.669000 10858717
0.275058 -0.014610 0.667000 10331081
0.276295 -0.010848 0.670000 11119052
0.276708 -0.007030 0.671000 12695487
0.277120 -0.003200 0.672000 8995130
0.278357 0.000643 0.675000 9852495
0.278770 0.004507 0.676000 9393227
0.280007 0.008407 0.679000 8998217
0.281244 0.012341 0.682000 9195582
0.281656 0.016262 0.683000 9786187
0.282893 0.020253 0.686000 8078397
0.322729 -0.083835 0.779000 9595794
0.320243 -0.078772 0.773000 7487297
0.319000 -0.074067 0.770000 8276055
0.316100 -0.069033 0.763000 11299165
0.309471 -0.063317 0.747000 10776426
0.307400 -0.058653 0.742000 10780261
0.302014 -0.053460 0.729000 7288883
0.300771 -0.049091 0.726000 8672833
0.294557 -0.044014 0.711000 11114881
0.291657 -0.039558 0.704000 10054497
0.290000 -0.035333 0.700000 10050383
0.286271 -0.030930 0.691000 12881016
0.283371 -0.026709 0.684000 11963262
0.278400 -0.022400 0.672000 6829142
0.277157 -0.018477 0.669000 11913938
0.277157 -0.014654 0.669000 10720696
0.277571 -0.010848 0.670000 11318724
0.278400 -0.007040 0.672000 11901099
0.279229 -0.003210 0.674000 9325124
0.279643 0.000643 0.675000 10114896
0.280886 0.004520 0.678000 9393226
0.281714 0.008419 0.680000 8932936
0.282543 0.012341 0.682000 9063989
0.283371 0.016286 0.684000 9457739
0.284200 0.020253 0.686000 7423558
0.324212 -0.083835 0.779000 9531291
0.321715 -0.078772 0.773000 6635067
0.319634 -0.073874 0.768000 9066840
0.317553 -0.069033 0.763000 11432030
0.310894 -0.063317 0.747000 10512741
0.307981 -0.058495 0.740000 10449744
0.303403 -0.053460 0.729000 7421489
0.301738 -0.049024 0.725000 8468002
0.295495 -0.043952 0.710000 11374729
0.292998 -0.039558 0.704000 10120295
0.291333 -0.035333 0.700000 9721676
0.287588 -0.030930 0.691000 12948090
0.284258 -0.026670 0.683000 11698556
0.279264 -0.022367 0.671000 6947179
0.278848 -0.018505 0.670000 12037319
0.278431 -0.014654 0.669000 10321576
0.278848 -0.010848 0.670000 11380923
0.279680 -0.007040 0.672000 11572888
0.280929 -0.003214 0.675000 9719630
0.281345 0.000644 0.676000 10115665
0.282593 0.004527 0.679000 9327432
0.283010 0.008419 0.680000 8670279
0.283842 0.012341 0.682000 8667691
0.284674 0.016286 0.684000 9130058
0.285507 0.020253 0.686000 7752270
0.323188 -0.078772 0.773000 5716032
0.321097 -0.073874 0.768000 9855073
0.319007 -0.069033 0.763000 11497055
0.312317 -0.063317 0.747000 10249566
0.308972 -0.058416 0.739000 10051149
0.304373 -0.053387 0.728000 7553081
0.303119 -0.049024 0.725000 8275765
0.296848 -0.043952 0.710000 11633012
0.294339 -0.039558 0.704000 10118503
0.291830 -0.035232 0.698000 9394514
0.288904 -0.030930 0.691000 12947585
0.285141 -0.026630 0.682000 11369843
0.280542 -0.022367 0.671000 7028314
0.280124 -0.018505 0.670000 12234211
0.279706 -0.014654 0.669000 9937363
0.280542 -0.010864 0.671000 11446237
0.281796 -0.007061 0.674000 11234689
0.282214 -0.003214 0.675000 10115408
0.282632 0.000644 0.676000 10115152
0.284305 0.004533 0.680000 9261898
0.285141 0.008444 0.682000 8342600
0.285141 0.012341 0.682000 8270909
0.285977 0.016286 0.684000 8736588
0.287231 0.020283 0.687000 8147022
0.324240 -0.078670 0.772000 5910085
0.322560 -0.073874 0.768000 10185322
0.320460 -0.069033 0.763000 11562593
0.313740 -0.063317 0.747000 10117719
0.310380 -0.058416 0.739000 9456203
0.305760 -0.053387 0.728000 7422529
0.304500 -0.049024 0.725000 8869192
0.298200 -0.043952 0.710000 11433822
0.295680 -0.039558 0.704000 10512486
0.293160 -0.035232 0.698000 10248791
0.289800 -0.030886 0.690000 13211528
0.283080 -0.026318 0.674000 11039081
0.281820 -0.022367 0.671000 7811400
0.281400 -0.018505 0.670000 13752830
0.281400 -0.014676 0.670000 12646142
0.281820 -0.010864 0.671000 12500222
0.283080 -0.007061 0.674000 10834538
0.283920 -0.003219 0.676000 10443602
0.283920 0.000644 0.676000 10049103
0.285600 0.004533 0.680000 9392715
0.286440 0.008444 0.682000 9195082
0.286860 0.012359 0.683000 9194830
0.288120 0.016333 0.686000 9589581
0.288540 0.020283 0.687000 9196621
0.324867 -0.078467 0.770000 6042953
0.323601 -0.073778 0.767000 10580076
0.321913 -0.069033 0.763000 11627360
0.314319 -0.063148 0.745000 9986136
0.311788 -0.058416 0.739000 8867923
0.307147 -0.053387 0.728000 7291958
0.305037 -0.048889 0.723000 9392721
0.301240 -0.044200 0.714000 11304800
0.296599 -0.039502 0.703000 10841443
0.294490 -0.035232 0.698000 11037017
0.290692 -0.030841 0.689000 13406850
0.285208 -0.026396 0.676000 10776417
0.283098 -0.022367 0.671000 8541771
0.282676 -0.018505 0.670000 15262909
0.283098 -0.014698 0.671000 15253425
0.283098 -0.010864 0.671000 13476762
0.284364 -0.007061 0.674000 10445159
0.285208 -0.003219 0.676000 10837330
0.286473 0.000647 0.679000 9983310
0.287739 0.004547 0.682000 9589579
0.288161 0.008456 0.683000 9982794
0.288583 0.012377 0.684000 10181198
0.289427 0.016333 0.686000 10442575
0.325486 -0.078263 0.768000 7422030
0.325062 -0.073778 0.767000 10645613
0.322519 -0.068852 0.761000 11562591
0.317010 -0.063402 0.748000 9856089
0.311924 -0.058179 0.736000 8475228
0.308533 -0.053387 0.728000 7356970
0.306414 -0.048889 0.723000 9984603
0.301329 -0.044014 0.711000 11698017
0.297938 -0.039502 0.703000 11102303
0.295395 -0.035182 0.697000 11300442
0.292429 -0.030886 0.690000 13144956
0.284800 -0.026240 0.672000 10512217
0.284376 -0.022367 0.671000 8734798
0.283952 -0.018505 0.670000 12420987
0.283952 -0.014676 0.670000 12214116
0.284376 -0.010864 0.671000 11494965
0.285648 -0.007061 0.674000 10706788
0.286495 -0.003219 0.676000 10706257
0.288190 0.000648 0.680000 9982798
0.289038 0.004547 0.682000 9786442
0.289886 0.008469 0.684000 10048841
0.290733 0.012413 0.686000 10312013
0.291157 0.016357 0.687000 10770770
0.326949 -0.078263 0.768000 8736353
0.325671 -0.073586 0.765000 10711402
0.323543 -0.068762 0.760000 11497825
0.318009 -0.063317 0.747000 9787481
0.312474 -0.058021 0.734000 8083536
0.309920 -0.053387 0.728000 7422010
0.307366 -0.048821 0.722000 10511196
0.302683 -0.044014 0.711000 12091501
0.298426 -0.039390 0.701000 11300705
0.296723 -0.035182 0.697000 11561063
0.293317 -0.030841 0.689000 12880757
0.286080 -0.026240 0.672000 10249555
0.285654 -0.022367 0.671000 8867671
0.285654 -0.018532 0.671000 9654656
0.285229 -0.014676 0.670000 9198701
0.286931 -0.010912 0.674000 9527903
0.287357 -0.007071 0.675000 10904925
0.289060 -0.003233 0.679000 10509137
0.289486 0.000648 0.680000 9917775
0.290337 0.004547 0.682000 10049356
0.291189 0.008469 0.684000 10114632
0.292040 0.012413 0.686000 10442573
0.292466 0.016357 0.687000 11032655
0.327984 -0.078161 0.767000 9525620
0.327129 -0.073586 0.765000 10710118
0.324990 -0.068762 0.760000 11498851
0.319431 -0.063317 0.747000 9592408
0.313872 -0.058021 0.734000 8147269
0.311307 -0.053387 0.728000 7750729
0.308741 -0.048821 0.722000 11105118
0.304037 -0.044014 0.711000 11959929
0.299761 -0.039390 0.701000 11365732
0.298050 -0.035182 0.697000 11629427
0.293774 -0.030751 0.687000 12552302
0.287360 -0.026240 0.672000 10248525
0.286932 -0.022367 0.671000 8933984
0.286932 -0.018532 0.671000 10383749
0.287360 -0.014720 0.672000 9860215
0.288215 -0.010912 0.674000 9925512
0.289070 -0.007082 0.676000 10902102
0.290353 -0.003233 0.679000 10443600
0.290781 0.000648 0.680000 9983313
0.291636 0.004547 0.682000 9918286
0.293347 0.008493 0.686000 9917254
0.293347 0.012413 0.686000 10311245
0.294630 0.016405 0.689000 10770252
0.329445 -0.078161 0.767000 10315648
0.327727 -0.073393 0.763000 10707811
0.325579 -0.068581 0.758000 11433320
0.321284 -0.063402 0.748000 9332571
0.315270 -0.058021 0.734000 8213580
0.312693 -0.053387 0.728000 8078670
0.309257 -0.048686 0.720000 11694431
0.304962 -0.043952 0.710000 11763056
0.300667 -0.039333 0.700000 11432293
0.299378 -0.035182 0.697000 11762544
0.295083 -0.030751 0.687000 12222828
0.289499 -0.026318 0.674000 10245719
0.288210 -0.022367 0.671000 8999265
0.288210 -0.018532 0.671000 11108740
0.288640 -0.014720 0.672000 10448235
0.289929 -0.010929 0.675000 10389646
0.290358 -0.007082 0.676000 10836821
0.292076 -0.003238 0.680000 10377809
0.292076 0.000648 0.680000 10049362
0.293365 0.004553 0.683000 9787471
0.294653 0.008493 0.686000 9654599
0.295083 0.012431 0.687000 10179660
0.296371 0.016429 0.690000 10442315
0.330043 -0.077957 0.765000 10709644
0.329180 -0.073393 0.763000 10840159
0.327023 -0.068581 0.758000 11695470
0.322709 -0.063402 0.748000 9397598
0.315806 -0.057863 0.732000 7423315
0.314080 -0.053387 0.728000 8998994
0.311491 -0.048821 0.722000 11696480
0.306314 -0.043952 0.710000 11828071
0.302431 -0.039390 0.701000 11628902
0.299843 -0.035081 0.695000 11828845
0.297254 -0.030841 0.689000 11958890
0.291214 -0.026357 0.675000 10378081
0.289489 -0.022367 0.671000 9194083
0.289489 -0.018532 0.671000 11304322
0.290783 -0.014764 0.674000 10379358
0.291214 -0.010929 0.675000 10517907
0.292509 -0.007103 0.678000 10706004
0.293371 -0.003238 0.680000 10377810
0.294234 0.000650 0.682000 9984340
0.295097 0.004560 0.684000 9261648
0.296391 0.008506 0.687000 9193800
0.297254 0.012468 0.689000 9785930
0.297686 0.016429 0.690000 10245707
0.331500 -0.077957 0.765000 11108236
0.329333 -0.073105 0.760000 10969955
0.327600 -0.068400 0.756000 11891816
0.325867 -0.063741 0.752000 9394010
0.317200 -0.057863 0.732000 6572113
0.314600 -0.053240 0.726000 9850967
0.312000 -0.048686 0.720000 11630176
0.307667 -0.043952 0.710000 11892839
0.303333 -0.039333 0.700000 11827052
0.301167 -0.035081 0.695000 11894897
0.293800 -0.030349 0.678000 11630695
0.292500 -0.026357 0.675000 10575200
0.290767 -0.022367 0.671000 9397614
0.290767 -0.018532 0.671000 11435388
0.292067 -0.014764 0.674000 10313066
0.292500 -0.010929 0.675000 10650233
0.293800 -0.007103 0.678000 10574932
0.294667 -0.003238 0.680000 10377809
0.295533 0.000650 0.682000 9918548
0.296400 0.004560 0.684000 8736344
0.297700 0.008506 0.687000 8737877
0.298567 0.012468 0.689000 9457723
0.299433 0.016452 0.691000 10049097
0.329910 -0.072912 0.758000 10973030
0.328605 -0.068310 0.755000 11367265
0.327299 -0.063741 0.752000 9328725
0.319465 -0.058021 0.734000 7291984
0.315983 -0.053240 0.726000 10181467
0.312936 -0.048618 0.719000 11630944
0.309019 -0.043952 0.710000 11892326
0.304667 -0.039333 0.700000 12024690
0.302490 -0.035081 0.695000 11828596
0.295962 -0.030438 0.680000 11564900
0.294221 -0.026396 0.676000 10641503
0.292480 -0.022400 0.672000 10320761
0.292480 -0.018560 0.672000 11565942
0.293350 -0.014764 0.674000 9850998
0.294221 -0.010945 0.676000 10579807
0.295527 -0.007113 0.679000 10574932
0.295962 -0.003238 0.680000 10312527
0.297268 0.000650 0.683000 9787476
0.298573 0.004573 0.686000 9003871
0.299879 0.008530 0.689000 9794658
0.300750 0.012504 0.691000 9127211
0.330480 -0.072720 0.756000 10908521
0.329169 -0.068129 0.753000 10841956
0.326983 -0.063402 0.748000 9199451
0.320863 -0.058021 0.734000 7948118
0.317366 -0.053240 0.726000 10444634
0.314306 -0.048618 0.719000 11630175
0.310371 -0.043952 0.710000 11826019
0.306000 -0.039333 0.700000 12156011
0.303814 -0.035081 0.695000 11762546
0.297257 -0.030438 0.680000 11433060
0.295509 -0.026396 0.676000 10773345
0.293760 -0.022400 0.672000 11235963
0.293760 -0.018560 0.672000 11632242
0.295071 -0.014786 0.675000 9334130
0.296383 -0.010977 0.678000 10509658
0.297257 -0.007124 0.680000 10509395
0.298131 -0.003248 0.682000 10246735
0.299880 0.000653 0.686000 9591385
0.300317 0.004580 0.687000 9340266
0.302066 0.008555 0.691000 10778987
0.302066 0.012504 0.691000 8865847
0.331481 -0.072624 0.755000 10973803
0.330603 -0.068129 0.753000 10645606
0.327969 -0.063317 0.747000 9132385
0.322261 -0.058021 0.734000 8146268
0.318310 -0.053167 0.725000 10970969
0.314797 -0.048483 0.717000 11629663
0.310846 -0.043829 0.708000 11825759
0.307333 -0.039333 0.700000 12352613
0.304699 -0.035030 0.694000 11630447
0.298113 -0.030393 0.679000 11629924
0.296796 -0.026396 0.676000 10970211
0.295918 -0.022467 0.674000 11238781
0.295918 -0.018615 0.674000 11301998
0.296357 -0.014786 0.675000 9795951
0.298113 -0.010993 0.679000 10443860
0.299430 -0.007145 0.682000 10312531
0.299870 -0.003252 0.683000 9918286
0.301626 0.000654 0.687000 9395294
0.302504 0.004593 0.689000 9598324
0.303382 0.008555 0.691000 10255477
0.304260 0.012540 0.693000 9064770
0.332037 -0.072431 0.753000 11105908
0.331596 -0.068038 0.752000 10378578
0.328510 -0.063148 0.745000 9065304
0.323659 -0.058021 0.734000 8345692
0.319690 -0.053167 0.725000 11497306
0.316163 -0.048483 0.717000 11563360
0.313076 -0.043952 0.710000 11825244
0.307785 -0.039221 0.698000 12548193
0.306021 -0.035030 0.694000 11497835
0.299407 -0.030393 0.679000 11760483
0.298084 -0.026396 0.676000 11168090
0.297643 -0.022500 0.675000 11238530
0.298084 -0.018670 0.676000 10907495
0.298966 -0.014851 0.678000 10186864
0.299848 -0.011010 0.680000 10377046
0.300730 -0.007145 0.682000 10115668
0.301611 -0.003257 0.684000 9589066
0.302934 0.000654 0.687000 9134426
0.304257 0.004600 0.690000 9859715
0.304698 0.008555 0.691000 9724777
0.305580 0.012540 0.693000 9327686
0.333471 -0.072431 0.753000 11236476
0.333029 -0.068038 0.752000 9191742
0.329043 -0.062978 0.743000 8738127
0.325943 -0.058179 0.736000 9397084
0.321071 -0.053167 0.725000 11628122
0.317086 -0.048415 0.716000 11628385
0.313543 -0.043829 0.708000 11693400
0.310000 -0.039333 0.700000 12023134
0.307343 -0.035030 0.694000 11365990
0.300700 -0.030393 0.679000 11760481
0.298929 -0.026357 0.675000 11299153
0.298929 -0.022500 0.675000 11304839
0.300257 -0.018726 0.678000 10512480
0.300700 -0.014873 0.679000 10123632
0.302029 -0.011042 0.682000 10246744
0.302471 -0.007155 0.683000 9853270
0.303800 -0.003267 0.686000 9064517
0.305129 0.000656 0.689000 8937047
0.306014 0.004607 0.691000 9930386
0.306900 0.008580 0.693000 8734046
0.307343 0.012558 0.694000 9196873
0.334461 -0.072335 0.752000 11367554
0.333571 -0.067857 0.750000 7947840
0.330458 -0.062978 0.743000 8411221
0.327345 -0.058179 0.736000 10379867
0.322452 -0.053167 0.725000 11759197
0.317560 -0.048280 0.714000 11627873
0.314891 -0.043829 0.708000 11561567
0.311333 -0.039333 0.700000 11432031
0.308220 -0.034980 0.693000 11234401
0.301993 -0.030393 0.679000 11760482
0.300659 -0.026396 0.676000 11428454
0.300659 -0.022533 0.676000 11304576
0.301549 -0.018726 0.678000 10120281
0.301993 -0.014873 0.679000 10054514
0.304217 -0.011074 0.684000 10050394
0.305107 -0.007187 0.686000 9524568
0.305551 -0.003271 0.687000 8473931
0.306886 0.000657 0.690000 8671316
0.308220 0.004620 0.693000 10064270
0.308665 0.008592 0.694000 7753043
0.335893 -0.072335 0.752000 11437191
0.334107 -0.067676 0.748000 8012354
0.330533 -0.062724 0.740000 8145498
0.327853 -0.058021 0.734000 10379867
0.323833 -0.053167 0.725000 11562079
0.318920 -0.048280 0.714000 11496289
0.316240 -0.043829 0.708000 11233126
0.311773 -0.039221 0.698000 11234656
0.308647 -0.034879 0.691000 11233627
0.303287 -0.030393 0.679000 12090466
0.301947 -0.026396 0.676000 11563642
0.301947 -0.022533 0.676000 11370362
0.302840 -0.018726 0.678000 9856337
0.303733 -0.014895 0.680000 10182517
0.305520 -0.011074 0.684000 9985115
0.306413 -0.007187 0.686000 9261914
0.307753 -0.003281 0.689000 8474449
0.308647 0.000658 0.691000 8994897
0.309987 0.004627 0.694000 9533321
0.310433 0.008605 0.695000 8212552
0.335083 -0.067586 0.747000 8078672
0.331943 -0.062724 0.740000 7946071
0.329251 -0.058021 0.734000 10314842
0.325663 -0.053240 0.726000 11365216
0.320280 -0.048280 0.714000 11299687
0.317589 -0.043829 0.708000 10970478
0.312654 -0.039165 0.697000 11036766
0.309514 -0.034829 0.690000 11232852
0.305029 -0.030438 0.680000 12349792
0.304131 -0.026474 0.678000 11698822
0.304131 -0.022600 0.678000 11434874
0.304580 -0.018753 0.679000 9589097
0.305029 -0.014895 0.680000 10250357
0.307720 -0.011107 0.686000 9985377
0.307720 -0.007187 0.686000 8933725
0.309066 -0.003281 0.689000 8474964
0.310860 0.000660 0.693000 9264480
0.311757 0.004633 0.695000 8943472
0.312654 0.008630 0.697000 8671053
0.334253 -0.067133 0.742000 8473183
0.332902 -0.062639 0.739000 8671572
0.330650 -0.058021 0.734000 10183512
0.326595 -0.053167 0.725000 10971745
0.321640 -0.048280 0.714000 11038061
0.318487 -0.043767 0.707000 10775413
0.313982 -0.039165 0.697000 10970716
0.310829 -0.034829 0.690000 11167053
0.305873 -0.030393 0.679000 12086366
0.305423 -0.026474 0.678000 11699090
0.306324 -0.022667 0.680000 11039354
0.305873 -0.018753 0.679000 9529216
0.307675 -0.014961 0.683000 10381941
0.309027 -0.011107 0.686000 10250343
0.309477 -0.007197 0.687000 8867169
0.310829 -0.003286 0.690000 8936791
0.312180 0.000660 0.693000 9796975
0.313982 0.004647 0.697000 8543319
0.315333 0.008667 0.700000 8802386
0.334762 -0.066952 0.740000 8804210
0.334310 -0.062639 0.739000 9460306
0.332048 -0.058021 0.734000 9984848
0.326619 -0.052947 0.722000 10578012
0.323000 -0.048280 0.714000 10776675
0.318024 -0.043519 0.703000 10645356
0.315310 -0.039165 0.697000 10839640
0.311690 -0.034778 0.689000 11101008
0.307619 -0.030438 0.680000 11759458
0.307619 -0.026552 0.680000 11699079
0.308524 -0.022733 0.682000 10576754
0.308976 -0.018864 0.683000 9535359
0.310786 -0.015049 0.687000 10513528
0.310786 -0.011123 0.687000 10513775
0.310786 -0.007197 0.687000 8806242
0.312595 -0.003290 0.691000 9396819
0.313952 0.000661 0.694000 10318697
0.315762 0.004653 0.698000 8212319
0.317119 0.008679 0.701000 8868702
0.335717 -0.066862 0.739000 9790084
0.334809 -0.062470 0.737000 10183759
0.332537 -0.057863 0.732000 9982536
0.327994 -0.052947 0.722000 10183767
0.323906 -0.048212 0.713000 10514521
0.319817 -0.043581 0.704000 10510946
0.316637 -0.039165 0.697000 11035732
0.313003 -0.034778 0.689000 11167059
0.310277 -0.030572 0.683000 11562599
0.309823 -0.026630 0.682000 11238012
0.310731 -0.022800 0.684000 9326443
0.311640 -0.018947 0.686000 10387069
0.313457 -0.015114 0.690000 10908540
0.313003 -0.011155 0.689000 10516342
0.313003 -0.007218 0.689000 8937060
0.315274 -0.003305 0.694000 9264975
0.316637 0.000664 0.697000 9726307
0.318000 0.004667 0.700000 8476263
0.337125 -0.066862 0.739000 10717334
0.335756 -0.062385 0.736000 10907213
0.333475 -0.057784 0.731000 9985104
0.329370 -0.052947 0.722000 9788503
0.325264 -0.048212 0.713000 10248280
0.321158 -0.043581 0.704000 10378075
0.316140 -0.038940 0.693000 11166546
0.314315 -0.034778 0.689000 11232856
0.312034 -0.030617 0.684000 11366763
0.312034 -0.026709 0.684000 10777973
0.312947 -0.022867 0.686000 8089202
0.314771 -0.019057 0.690000 11239812
0.315228 -0.015136 0.691000 11239290
0.315228 -0.011188 0.691000 10583413
0.316596 -0.007270 0.694000 9003371
0.319333 -0.003333 0.700000 9198945
0.318421 0.000665 0.698000 9135457
0.320702 0.004687 0.703000 8807785
0.337158 -0.062385 0.736000 10907466
0.334868 -0.057784 0.731000 10248792
0.330745 -0.052947 0.722000 10050902
0.326622 -0.048212 0.713000 10115671
0.322041 -0.043519 0.703000 10311763
0.316544 -0.038828 0.691000 11166289
0.314711 -0.034677 0.687000 11363932
0.313337 -0.030617 0.684000 11105135
0.314253 -0.026787 0.686000 9987693
0.314253 -0.022867 0.686000 9340282
0.317460 -0.019140 0.693000 11830922
0.317460 -0.015180 0.693000 11568761
0.318376 -0.011252 0.695000 10318451
0.321125 -0.007344 0.701000 9265779
0.322041 -0.003348 0.703000 9068914
0.321125 0.000668 0.701000 9069664
0.322499 0.004693 0.704000 9464171
0.337640 -0.062215 0.734000 10974578
0.336260 -0.057784 0.731000 10444887
0.330740 -0.052727 0.719000 10312793
0.327980 -0.048212 0.713000 9919060
0.322460 -0.043395 0.701000 10246218
0.318780 -0.038940 0.693000 11101014
0.316020 -0.034677 0.687000 11429221
0.315560 -0.030707 0.686000 10777453
0.315560 -0.026787 0.686000 9266529
0.316020 -0.022900 0.687000 10583423
0.318780 -0.019140 0.693000 12486016
0.318780 -0.015180 0.693000 11895416
0.319700 -0.011252 0.695000 10055030
0.323380 -0.007365 0.703000 9464695
0.323840 -0.003352 0.704000 8938613
0.322460 0.000668 0.701000 9004660
0.323840 0.004693 0.704000 10120557
0.338114 -0.062046 0.732000 11503513
0.338114 -0.057863 0.732000 10509910
0.331186 -0.052580 0.717000 10378331
0.327029 -0.047874 0.708000 9919057
0.323333 -0.043333 0.700000 9983297
0.320100 -0.038940 0.693000 10904156
0.318252 -0.034778 0.689000 11103597
0.317329 -0.030751 0.687000 10384491
0.317329 -0.026826 0.687000 8871765
0.317329 -0.022900 0.687000 11108995
0.320562 -0.019168 0.694000 11828853
0.320562 -0.015202 0.694000 11041910
0.321024 -0.011252 0.695000 10187896
0.324719 -0.007365 0.703000 10256251
0.325181 -0.003352 0.704000 10056568
0.325181 0.000670 0.704000 10057864
0.339509 -0.062046 0.732000 12099746
0.332088 -0.052507 0.716000 10443614
0.327913 -0.047807 0.707000 9918288
0.324667 -0.043333 0.700000 9720905
0.321420 -0.038940 0.693000 10707813
0.320029 -0.034829 0.690000 10842994
0.318637 -0.030751 0.687000 9987430
0.318637 -0.026826 0.687000 8540029
0.318637 -0.022900 0.687000 11634580
0.323739 -0.019278 0.698000 11172493
0.321884 -0.015202 0.694000 10125199
0.326058 -0.011382 0.703000 10322835
0.326058 -0.007365 0.703000 10980756
0.326986 -0.003357 0.705000 11177104
0.326986 0.000671 0.705000 11113369
0.332520 -0.052360 0.714000 10379617
0.328329 -0.047671 0.705000 9654607
0.326000 -0.043333 0.700000 9654352
0.322740 -0.038940 0.693000 10710127
0.321809 -0.034879 0.691000 10056310
0.319946 -0.030751 0.687000 8998241
0.319946 -0.026826 0.687000 10388132
0.325069 -0.019278 0.698000 12227749
0.327397 -0.011382 0.703000 11901869
0.327397 -0.007365 0.703000 11967661
0.328329 -0.003357 0.705000 12032935
0.328329 0.000671 0.705000 11969706
0.328329 0.004700 0.705000 11179180
0.333880 -0.052360 0.714000 10383753
0.329204 -0.047604 0.704000 9330553
0.326398 -0.043210 0.698000 9523582
0.324060 -0.038940 0.693000 10713469
0.323125 -0.034879 0.691000 9333120
0.321254 -0.030751 0.687000 8022406
0.321254 -0.026826 0.687000 12236461
0.329671 0.000671 0.705000 12820649
0.329671 0.004700 0.705000 13018793
0.334770 -0.052287 0.713000 11900593
0.330545 -0.047604 0.704000 11175332
0.326319 -0.043024 0.695000 11176875
0.325380 -0.038940 0.693000 10518412
0.324441 -0.034879 0.691000 9925258
0.324441 -0.030930 0.691000 10851243
0.336129 -0.052287 0.713000 13480877
0.327643 -0.043024 0.695000 12761774
0.326700 -0.038940 0.693000 10328993
0.326700 -0.031020 0.693000 13610926
0.337487 -0.052287 0.713000 13480105
0.328967 -0.043024 0.695000 13284017
0.330290 -0.043024 0.695000 13740716
0.149434 -0.036817 0.758000 9131860
0.150878 -0.036817 0.758000 8403015
0.150480 -0.032400 0.756000 7953232
0.150878 -0.015160 0.758000 9853743
0.156542 -0.055643 0.779000 8994382
0.155336 -0.050797 0.773000 7881020
0.154331 -0.046080 0.768000 9520964
0.152322 -0.041149 0.758000 8736075
0.151317 -0.036574 0.753000 7684423
0.151920 -0.032400 0.756000 8412752
0.152724 -0.019543 0.760000 8345162
0.152724 -0.015200 0.760000 8015164
0.151116 -0.010743 0.752000 8015422
0.152724 -0.006514 0.760000 8017474
0.159040 -0.060480 0.784000 11890004
0.158026 -0.055643 0.779000 9325899
0.156606 -0.050731 0.772000 8406851
0.155591 -0.046020 0.767000 9588551
0.153360 -0.041040 0.756000 8801616
0.152143 -0.036429 0.750000 7685960
0.152143 -0.032143 0.750000 7687503
0.153766 -0.019491 0.758000 8411734
0.153766 -0.015160 0.758000 7949641
0.152143 -0.010714 0.750000 7881028
0.152549 -0.006446 0.752000 7947847
0.152751 -0.002151 0.753000 7615789
0.160943 -0.060634 0.786000 10895453
0.159714 -0.055714 0.780000 9589586
0.158076 -0.050731 0.772000 8931414
0.157052 -0.046020 0.767000 9590356
0.153981 -0.040823 0.752000 8801366
0.153162 -0.036331 0.748000 7686220
0.153571 -0.032143 0.750000 7028549
0.154800 -0.019440 0.756000 8411463
0.154800 -0.015120 0.756000 7948620
0.153571 -0.010714 0.750000 7683649
0.153981 -0.006446 0.752000 7881021
0.154186 -0.002151 0.753000 7355957
0.162440 -0.060634 0.786000 11031398
0.161200 -0.055714 0.780000 9983577
0.159133 -0.050600 0.770000 9459305
0.158100 -0.045900 0.765000 10250337
0.155413 -0.040823 0.752000 8999004
0.154380 -0.036283 0.747000 7817040
0.153347 -0.031800 0.742000 7225915
0.153347 -0.023320 0.742000 6832705
0.153967 -0.019157 0.745000 7756857
0.156033 -0.015100 0.755000 7554895
0.153967 -0.010643 0.745000 7157565
0.154587 -0.006411 0.748000 7682867
0.155620 -0.002151 0.753000 8210493
0.163937 -0.060634 0.786000 11165024
0.162686 -0.055714 0.780000 10312028
0.161017 -0.050731 0.772000 9985393
0.159557 -0.045900 0.765000 10905963
0.156846 -0.040823 0.752000 9132653
0.155386 -0.036186 0.745000 7948120
0.154134 -0.031671 0.739000 7424581
0.153717 -0.027374 0.737000 7555917
0.153717 -0.023163 0.737000 7030853
0.154343 -0.019029 0.740000 7096116
0.157471 -0.015100 0.755000 7226189
0.155386 -0.010643 0.745000 6566973
0.156846 -0.006446 0.752000 7484714
0.157054 -0.002151 0.753000 8998980
0.156011 0.002137 0.748000 8079418
0.165855 -0.060789 0.788000 11427673
0.164171 -0.055714 0.780000 10443360
0.162488 -0.050731 0.772000 9921656
0.161014 -0.045900 0.765000 10513782
0.158278 -0.040823 0.752000 9398909
0.156384 -0.036089 0.743000 8276065
0.155121 -0.031586 0.737000 7948879
0.154490 -0.027263 0.734000 7884109
0.154490 -0.023069 0.734000 7227464
0.155121 -0.018951 0.737000 6368816
0.155542 -0.014780 0.739000 7360842
0.156384 -0.010614 0.743000 6238013
0.156805 -0.006386 0.745000 7419424
