# .PCD v.7 - Point Cloud Data file format
VERSION .7
FIELDS x y z rgb
SIZE 4 4 4 4
TYPE F F F I
COUNT 1 1 1 1
WIDTH 1283
HEIGHT 1
POINTS 1283
DATA ascii
-0.203567 -0.205633 1.085000 9130839
-0.201503 -0.197411 1.074000 8542289
-0.199627 -0.189493 1.064000 10777452
-0.198501 -0.182379 1.058000 10509946
-0.194936 -0.173167 1.039000 8539479
-0.194373 -0.166747 1.036000 7948101
-0.195499 -0.161758 1.042000 7686471
-0.196625 -0.156701 1.048000 7487304
-0.199064 -0.152582 1.061000 6963518
-0.199627 -0.146933 1.064000 7163456
-0.209300 -0.232913 1.127000 13412840
-0.209300 -0.226473 1.127000 9777031
-0.206700 -0.217300 1.113000 8931662
-0.201500 -0.205633 1.085000 9125964
-0.199457 -0.197411 1.074000 8144204
-0.197600 -0.189493 1.064000 9591899
-0.195929 -0.181862 1.055000 10644868
-0.192957 -0.173167 1.039000 9325658
-0.192400 -0.166747 1.036000 7947585
-0.192957 -0.161292 1.039000 7490122
-0.194071 -0.156252 1.045000 7554118
-0.196486 -0.152150 1.058000 6897723
-0.197043 -0.146519 1.061000 6701634
-0.207153 -0.232913 1.127000 14008559
-0.206418 -0.225670 1.123000 7880816
-0.204580 -0.217300 1.113000 8997763
-0.199433 -0.205633 1.085000 9074319
-0.197411 -0.197411 1.074000 7811699
-0.195573 -0.189493 1.064000 8344659
-0.194470 -0.182379 1.058000 10846342
-0.190427 -0.172667 1.036000 10047578
-0.190427 -0.166747 1.036000 7947847
-0.190427 -0.160827 1.036000 7227209
-0.191530 -0.155804 1.042000 7620170
-0.193919 -0.151719 1.055000 6767165
-0.194470 -0.146105 1.058000 6305853
-0.195022 -0.140456 1.061000 6436921
-0.205734 -0.240203 1.131000 12225947
-0.205007 -0.232913 1.127000 12889078
-0.204279 -0.225670 1.123000 8856409
-0.202460 -0.217300 1.113000 10984119
-0.197367 -0.205633 1.085000 11194067
-0.195366 -0.197411 1.074000 9202842
-0.193547 -0.189493 1.064000 8209739
-0.192455 -0.182379 1.058000 10250887
-0.188453 -0.172667 1.036000 10378842
-0.187908 -0.166264 1.033000 8077644
-0.188453 -0.160827 1.036000 7553353
-0.189545 -0.155804 1.042000 8015437
-0.191364 -0.151288 1.052000 7162431
-0.191910 -0.145690 1.055000 6371896
-0.192455 -0.140059 1.058000 6239552
-0.203580 -0.240203 1.131000 12359587
-0.202140 -0.232087 1.123000 11840201
-0.200880 -0.224263 1.116000 9854325
-0.198900 -0.215738 1.105000 12957108
-0.195300 -0.205633 1.085000 13279394
-0.193320 -0.197411 1.074000 10593957
-0.190980 -0.188959 1.061000 8078950
-0.189900 -0.181862 1.055000 9658219
-0.186480 -0.172667 1.036000 10706519
-0.185940 -0.166264 1.033000 8207428
-0.185940 -0.160361 1.033000 7881793
-0.186480 -0.154907 1.036000 8343380
-0.188640 -0.150712 1.048000 7490624
-0.189360 -0.145276 1.052000 6500918
-0.190440 -0.140059 1.058000 6043193
-0.201960 -0.240840 1.134000 12426156
-0.200001 -0.232087 1.123000 11300763
-0.198754 -0.224263 1.116000 10921874
-0.196261 -0.215152 1.102000 12292017
-0.193233 -0.205633 1.085000 10975089
-0.191274 -0.197411 1.074000 11181232
-0.188959 -0.188959 1.061000 8209026
-0.187890 -0.181862 1.055000 9458766
-0.184507 -0.172667 1.036000 11036756
-0.183438 -0.165781 1.030000 8274236
-0.183972 -0.160361 1.033000 7947321
-0.183972 -0.154458 1.033000 8344411
-0.186110 -0.150281 1.045000 7885377
-0.186644 -0.144724 1.048000 6370100
-0.187890 -0.139662 1.055000 5912626
-0.199800 -0.240840 1.134000 12492715
-0.198567 -0.232913 1.127000 10761857
-0.196629 -0.224263 1.116000 11901083
-0.194162 -0.215152 1.102000 11697302
-0.191167 -0.205633 1.085000 8674667
-0.189229 -0.197411 1.074000 11699596
-0.186938 -0.188959 1.061000 8286357
-0.185881 -0.181862 1.055000 9260625
-0.182533 -0.172667 1.036000 11298396
-0.181476 -0.165781 1.030000 8406073
-0.181476 -0.159895 1.030000 7947837
-0.182005 -0.154458 1.033000 8280656
-0.183062 -0.149418 1.039000 8277307
-0.184648 -0.144724 1.048000 6304313
-0.185352 -0.139265 1.052000 5780271
-0.197640 -0.240840 1.134000 12624042
-0.197117 -0.233740 1.131000 10444903
-0.194503 -0.224263 1.116000 10913188
-0.192063 -0.215152 1.102000 11894138
-0.189100 -0.205633 1.085000 8802150
-0.187183 -0.197411 1.074000 10580840
-0.184917 -0.188959 1.061000 10326952
-0.183349 -0.181345 1.052000 8931668
-0.181083 -0.173167 1.039000 11299172
-0.179514 -0.165781 1.030000 8472885
-0.178817 -0.159274 1.026000 8144449
-0.179514 -0.154010 1.030000 8148036
-0.180560 -0.148987 1.036000 7948341
-0.181606 -0.143895 1.042000 6305341
-0.182651 -0.138735 1.048000 5714732
-0.195480 -0.240840 1.134000 12753819
-0.194963 -0.233740 1.131000 10119809
-0.191860 -0.223660 1.113000 9860495
-0.189274 -0.214371 1.098000 12089978
-0.187033 -0.205633 1.085000 8937062
-0.185137 -0.197411 1.074000 9400941
-0.182896 -0.188959 1.061000 12289686
-0.181345 -0.181345 1.052000 8603478
-0.179104 -0.173167 1.039000 11297125
-0.177552 -0.165781 1.030000 8604217
-0.176863 -0.159274 1.026000 8276548
-0.177552 -0.154010 1.030000 8081478
-0.178587 -0.148987 1.036000 7553078
-0.179621 -0.143895 1.042000 6305594
-0.180138 -0.138338 1.045000 5648175
-0.195366 -0.249937 1.146000 12293017
-0.193320 -0.240840 1.134000 12426124
-0.192809 -0.233740 1.131000 10189466
-0.190251 -0.224263 1.116000 8146042
-0.187183 -0.214371 1.098000 12354426
-0.184967 -0.205633 1.085000 9398629
-0.182580 -0.196860 1.071000 10252146
-0.180875 -0.188959 1.061000 11240325
-0.178659 -0.180655 1.048000 8932695
-0.176613 -0.172667 1.036000 11496806
-0.174909 -0.165137 1.026000 8801596
-0.174397 -0.158809 1.023000 8407112
-0.175590 -0.154010 1.030000 7884103
-0.176102 -0.148555 1.033000 7289399
-0.177125 -0.143481 1.039000 6306870
-0.178148 -0.138338 1.045000 5516594
-0.193857 -0.250810 1.150000 12227225
-0.191834 -0.241690 1.138000 12094098
-0.190654 -0.233740 1.131000 10257820
-0.188126 -0.224263 1.116000 6375536
-0.185091 -0.214371 1.098000 12683899
-0.182900 -0.205633 1.085000 9792360
-0.180540 -0.196860 1.071000 11107179
-0.178854 -0.188959 1.061000 10124671
-0.176663 -0.180655 1.048000 9258106
-0.175146 -0.173167 1.039000 11626339
-0.172954 -0.165137 1.026000 8996417
-0.172449 -0.158809 1.023000 8473672
-0.172954 -0.153411 1.026000 7754834
-0.174134 -0.148555 1.033000 7025711
-0.175146 -0.143481 1.039000 6310197
-0.175651 -0.137941 1.042000 5385009
-0.176157 -0.132367 1.045000 5451058
-0.191667 -0.250810 1.150000 12292761
-0.190333 -0.242539 1.142000 11632280
-0.188500 -0.233740 1.131000 10256030
-0.185500 -0.223660 1.113000 6829414
-0.183000 -0.214371 1.098000 12485500
-0.180833 -0.205633 1.085000 10124906
-0.178500 -0.196860 1.071000 11104868
-0.176833 -0.188959 1.061000 10446714
-0.174667 -0.180655 1.048000 9658780
-0.173167 -0.173167 1.039000 11234399
-0.171000 -0.165137 1.026000 9129541
-0.170500 -0.158809 1.023000 8736585
-0.171000 -0.153411 1.026000 7556701
-0.172167 -0.148555 1.033000 6565415
-0.172667 -0.143067 1.036000 6176307
-0.173667 -0.137941 1.042000 4924464
-0.174167 -0.132367 1.045000 5320236
-0.189476 -0.250810 1.150000 12356995
-0.188158 -0.242539 1.142000 11175571
-0.186346 -0.233740 1.131000 10257304
-0.183380 -0.223660 1.113000 7295076
-0.180909 -0.214371 1.098000 12287849
-0.178767 -0.205633 1.085000 10450026
-0.176460 -0.196860 1.071000 11104614
-0.174812 -0.188959 1.061000 10712952
-0.172670 -0.180655 1.048000 10055317
-0.170693 -0.172667 1.036000 10839386
-0.168551 -0.164654 1.023000 9260615
-0.168057 -0.158343 1.020000 8998730
-0.168551 -0.152963 1.023000 7364956
-0.170199 -0.148555 1.033000 6105383
-0.170693 -0.143067 1.036000 5978928
-0.171188 -0.137544 1.039000 4400426
-0.172176 -0.132367 1.045000 5254701
-0.187286 -0.250810 1.150000 12028013
-0.185983 -0.242539 1.142000 11174798
-0.183540 -0.232913 1.127000 10055569
-0.181260 -0.223660 1.113000 7755362
-0.178817 -0.214371 1.098000 11101781
-0.176700 -0.205633 1.085000 10317417
-0.174420 -0.196860 1.071000 10513256
-0.172303 -0.188425 1.058000 10648182
-0.170674 -0.180655 1.048000 10121613
-0.168720 -0.172667 1.036000 10512213
-0.166603 -0.164654 1.023000 9129801
-0.166114 -0.158343 1.020000 8737100
-0.166603 -0.152963 1.023000 7230043
-0.167743 -0.148124 1.030000 5448487
-0.168720 -0.143067 1.036000 5780012
-0.169209 -0.137544 1.039000 4857380
-0.169697 -0.131987 1.042000 5517358
-0.184451 -0.249937 1.146000 11697780
-0.183164 -0.241690 1.138000 11109519
-0.181393 -0.232913 1.127000 9856640
-0.179140 -0.223660 1.113000 8214116
-0.176726 -0.214371 1.098000 9914207
-0.174633 -0.205633 1.085000 10185833
-0.172380 -0.196860 1.071000 9989485
-0.170288 -0.188425 1.058000 10581112
-0.168195 -0.180138 1.045000 10190753
-0.166264 -0.172167 1.033000 10181712
-0.164171 -0.164171 1.020000 9065029
-0.164171 -0.158343 1.020000 8408395
-0.164654 -0.152963 1.023000 7103578
-0.165781 -0.148124 1.030000 4792361
-0.166747 -0.143067 1.036000 5581866
-0.167230 -0.137544 1.039000 5317929
-0.167712 -0.131987 1.042000 5846059
-0.182269 -0.249937 1.146000 10973819
-0.181632 -0.242539 1.142000 11437456
-0.179247 -0.232913 1.127000 9790062
-0.177020 -0.223660 1.113000 8078695
-0.175270 -0.215152 1.102000 10708585
-0.172567 -0.205633 1.085000 10315114
-0.169863 -0.196309 1.068000 10185842
-0.168272 -0.188425 1.058000 11239290
-0.166205 -0.180138 1.045000 10190261
-0.164296 -0.172167 1.033000 9919820
-0.162229 -0.164171 1.020000 8932416
-0.162229 -0.158343 1.020000 8278091
-0.162706 -0.152963 1.023000 7034201
-0.163183 -0.147549 1.026000 5052716
-0.164773 -0.143067 1.036000 5450279
-0.165250 -0.137544 1.039000 5056303
-0.165728 -0.131987 1.042000 6044200
-0.180086 -0.249937 1.146000 10318708
-0.179457 -0.242539 1.142000 11767184
-0.176471 -0.232087 1.123000 9721458
-0.174900 -0.223660 1.113000 7883864
-0.172543 -0.214371 1.098000 11498094
-0.170500 -0.205633 1.085000 10383472
-0.167829 -0.196309 1.068000 10384495
-0.166257 -0.188425 1.058000 11893616
-0.163743 -0.179621 1.042000 10258361
-0.161857 -0.171667 1.030000 9589327
-0.160286 -0.164171 1.020000 8802114
-0.160286 -0.158343 1.020000 8144200
-0.160757 -0.152963 1.023000 6968136
-0.161229 -0.147549 1.026000 5316145
-0.162329 -0.142652 1.033000 5383717
-0.162800 -0.137147 1.036000 4727080
-0.163271 -0.131607 1.039000 6244670
-0.177903 -0.249937 1.146000 9856108
-0.177282 -0.242539 1.142000 11969935
-0.174332 -0.232087 1.123000 9526646
-0.172159 -0.222856 1.109000 8340553
-0.170451 -0.214371 1.098000 12157555
-0.167812 -0.204875 1.081000 9857654
-0.165173 -0.195573 1.064000 11240555
-0.164242 -0.188425 1.058000 11693670
-0.162224 -0.180138 1.045000 10258108
-0.159895 -0.171667 1.030000 9392979
-0.158343 -0.164171 1.020000 8472643
-0.158343 -0.158343 1.020000 7881796
-0.158809 -0.152963 1.023000 7031863
-0.159274 -0.147549 1.026000 5184310
-0.160361 -0.142652 1.033000 5252898
-0.160827 -0.137147 1.036000 4461857
-0.160827 -0.131227 1.036000 6177364
-0.175720 -0.249937 1.146000 9462866
-0.174493 -0.241690 1.138000 12162701
-0.171733 -0.231467 1.120000 9329536
-0.170047 -0.222856 1.109000 8806228
-0.168360 -0.214371 1.098000 12813439
-0.165753 -0.204875 1.081000 9266286
-0.163147 -0.195573 1.064000 12159860
-0.161767 -0.187890 1.055000 11498352
-0.159773 -0.179621 1.042000 10266530
-0.157933 -0.171667 1.030000 9129044
-0.156400 -0.164171 1.020000 8211013
-0.155940 -0.157877 1.017000 7618113
-0.156400 -0.152514 1.020000 7163187
-0.156860 -0.147117 1.023000 4989493
-0.157933 -0.142238 1.030000 5187877
-0.158393 -0.136750 1.033000 4200741
-0.158853 -0.131227 1.036000 6115396
-0.174143 -0.250810 1.150000 8934456
-0.172326 -0.241690 1.138000 12295818
-0.168994 -0.230640 1.116000 9660297
-0.167934 -0.222856 1.109000 8940127
-0.165814 -0.213786 1.095000 12157578
-0.163694 -0.204875 1.081000 8731239
-0.160666 -0.195022 1.061000 11695740
-0.159757 -0.187890 1.055000 10116987
-0.157789 -0.179621 1.042000 9930632
-0.155366 -0.171000 1.026000 8932949
-0.154457 -0.164171 1.020000 8012870
-0.154003 -0.157877 1.017000 7421759
-0.154457 -0.152514 1.020000 6898735
-0.154911 -0.147117 1.023000 5250613
-0.155971 -0.142238 1.030000 5187111
-0.156426 -0.136750 1.033000 4789546
-0.156880 -0.131227 1.036000 6242611
-0.171952 -0.250810 1.150000 8405316
-0.169560 -0.240840 1.134000 12359047
-0.166869 -0.230640 1.116000 10055812
-0.165224 -0.222052 1.105000 9069675
-0.163729 -0.213786 1.095000 11502973
-0.161187 -0.204307 1.078000 8214376
-0.158645 -0.195022 1.061000 11233918
-0.157299 -0.187356 1.052000 8740475
-0.155355 -0.179104 1.039000 9608868
-0.153411 -0.171000 1.026000 8735316
-0.152514 -0.164171 1.020000 7882566
-0.152514 -0.158343 1.020000 7224382
-0.152514 -0.152514 1.020000 6699575
-0.152963 -0.147117 1.023000 5514039
-0.154010 -0.142238 1.030000 5251882
-0.154458 -0.136750 1.033000 5380905
-0.154907 -0.131227 1.036000 6372913
-0.169762 -0.250810 1.150000 7745615
-0.166957 -0.240203 1.131000 12690053
-0.164743 -0.230640 1.116000 10581630
-0.163119 -0.222052 1.105000 9464439
-0.161643 -0.213786 1.095000 11302255
-0.159133 -0.204307 1.078000 9260906
-0.157067 -0.195573 1.064000 10778752
-0.155295 -0.187356 1.052000 9063804
-0.153819 -0.179621 1.042000 9669823
-0.151457 -0.171000 1.026000 8736852
-0.150571 -0.164171 1.020000 7750726
-0.150571 -0.158343 1.020000 7094078
-0.150571 -0.152514 1.020000 6700350
-0.151014 -0.147117 1.023000 5709368
-0.151457 -0.141686 1.026000 5449004
-0.152490 -0.136750 1.033000 5578536
-0.152490 -0.130847 1.033000 6369326
-0.167571 -0.250810 1.150000 7089995
-0.164803 -0.240203 1.131000 12950916
-0.162617 -0.230640 1.116000 11172224
-0.161014 -0.222052 1.105000 9793395
-0.158974 -0.213005 1.091000 11102563
-0.157080 -0.204307 1.078000 10317932
-0.155040 -0.195573 1.064000 10318688
-0.153729 -0.187890 1.055000 9330293
-0.150960 -0.178587 1.036000 9736634
-0.149503 -0.171000 1.026000 8736851
-0.148629 -0.164171 1.020000 7619910
-0.148629 -0.158343 1.020000 6962239
-0.148629 -0.152514 1.020000 6632252
-0.149066 -0.147117 1.023000 5908021
-0.149503 -0.141686 1.026000 5646635
-0.150523 -0.136750 1.033000 5711654
-0.150523 -0.130847 1.033000 6368296
-0.165812 -0.251464 1.153000 6695494
-0.162649 -0.240203 1.131000 12888708
-0.160491 -0.230640 1.116000 11303809
-0.158910 -0.222052 1.105000 10515823
-0.156896 -0.213005 1.091000 11036502
-0.154451 -0.203549 1.074000 11898222
-0.153013 -0.195573 1.064000 10246720
-0.151288 -0.187356 1.052000 9525870
-0.148987 -0.178587 1.036000 10261172
-0.147117 -0.170500 1.023000 8672595
-0.146686 -0.164171 1.020000 7356229
-0.146254 -0.157877 1.017000 7160128
-0.146686 -0.152514 1.020000 6634042
-0.147117 -0.147117 1.023000 6169906
-0.147549 -0.141686 1.026000 5843753
-0.148124 -0.136352 1.030000 5909284
-0.148555 -0.130847 1.033000 6433826
-0.164184 -0.258948 1.157000 11103618
-0.163616 -0.251464 1.153000 6239051
-0.159927 -0.239353 1.127000 12753023
-0.158366 -0.230640 1.116000 11504004
-0.156379 -0.221450 1.102000 11172209
-0.155386 -0.213786 1.095000 10970466
-0.152406 -0.203549 1.074000 13408904
-0.150561 -0.195022 1.061000 10242650
-0.149284 -0.187356 1.052000 9662329
-0.147013 -0.178587 1.036000 10857388
-0.145169 -0.170500 1.023000 8540499
-0.144743 -0.164171 1.020000 7093065
-0.143891 -0.157411 1.014000 7289407
-0.144743 -0.152514 1.020000 6567229
-0.145169 -0.147117 1.023000 6367282
-0.145594 -0.141686 1.026000 6105898
-0.146162 -0.136352 1.030000 6106149
-0.146588 -0.130847 1.033000 6564902
-0.161980 -0.258948 1.157000 11042446
-0.160440 -0.249937 1.146000 6766159
-0.157780 -0.239353 1.127000 11901051
-0.156240 -0.230640 1.116000 9991558
-0.154280 -0.221450 1.102000 11174003
-0.153300 -0.213786 1.095000 11433069
-0.150360 -0.203549 1.074000 13675425
-0.148540 -0.195022 1.061000 10511731
-0.147280 -0.187356 1.052000 10517124
-0.144620 -0.178070 1.033000 10520740
-0.143220 -0.170500 1.023000 8475476
-0.142380 -0.163689 1.017000 6764365
-0.141960 -0.157411 1.014000 6896447
-0.142380 -0.152066 1.017000 6700095
-0.142800 -0.146686 1.020000 6365746
-0.142800 -0.140857 1.020000 6105899
-0.144200 -0.136352 1.030000 6040614
-0.144620 -0.130847 1.033000 6368298
-0.159776 -0.258948 1.157000 10976652
-0.158810 -0.250810 1.150000 7229015
-0.155633 -0.239353 1.127000 10977907
-0.153148 -0.229193 1.109000 8477801
-0.151214 -0.220043 1.095000 11102316
-0.150662 -0.213005 1.091000 11955821
-0.147900 -0.202980 1.071000 13871773
-0.146105 -0.194470 1.058000 10838385
-0.144310 -0.186110 1.045000 11370111
-0.142238 -0.177552 1.030000 10194339
-0.140857 -0.170000 1.020000 8407886
-0.140029 -0.163206 1.014000 6435405
-0.139614 -0.156946 1.011000 6436927
-0.140029 -0.151617 1.014000 6896439
-0.140443 -0.146254 1.017000 6300979
-0.140857 -0.140857 1.020000 6171179
-0.141686 -0.135823 1.026000 5974570
-0.142238 -0.130467 1.030000 6171430
-0.157028 -0.258052 1.153000 10977162
-0.156074 -0.249937 1.146000 8212831
-0.153487 -0.239353 1.127000 10320235
-0.151035 -0.229193 1.109000 7420235
-0.149537 -0.220646 1.098000 10705253
-0.148584 -0.213005 1.091000 12221805
-0.145860 -0.202980 1.071000 13087897
-0.144090 -0.194470 1.058000 10313838
-0.142728 -0.186644 1.048000 11303803
-0.140685 -0.178070 1.033000 9662114
-0.138914 -0.170000 1.020000 8409929
-0.138097 -0.163206 1.014000 6633548
-0.137689 -0.156946 1.011000 6372415
-0.138097 -0.151617 1.014000 6439215
-0.138506 -0.146254 1.017000 6300981
-0.138914 -0.140857 1.020000 6040363
-0.139731 -0.135823 1.026000 5253679
-0.140276 -0.130467 1.030000 6170401
-0.154831 -0.258052 1.153000 10975621
-0.153354 -0.249065 1.142000 9196130
-0.151340 -0.239353 1.127000 9594480
-0.148923 -0.229193 1.109000 6368585
-0.147446 -0.220646 1.098000 10314854
-0.146506 -0.213005 1.091000 12482417
-0.143820 -0.202980 1.071000 12290436
-0.141671 -0.193919 1.055000 9788509
-0.140329 -0.186110 1.045000 11239817
-0.138717 -0.178070 1.033000 9130657
-0.136971 -0.170000 1.020000 8409421
-0.136166 -0.163206 1.014000 6895180
-0.135763 -0.156946 1.011000 6240311
-0.136166 -0.151617 1.014000 6050614
-0.136569 -0.146254 1.017000 6235955
-0.136971 -0.140857 1.020000 5974572
-0.137374 -0.135426 1.023000 4531493
-0.138314 -0.130467 1.030000 6170146
-0.153165 -0.265559 1.157000 12226684
-0.152635 -0.258052 1.153000 11171201
-0.150120 -0.247320 1.134000 9459556
-0.149193 -0.239353 1.127000 9527669
-0.146810 -0.229193 1.109000 6897222
-0.145354 -0.220646 1.098000 10446439
-0.144030 -0.212419 1.088000 11434869
-0.141780 -0.202980 1.071000 10248048
-0.139662 -0.193919 1.055000 9588556
-0.138338 -0.186110 1.045000 11307415
-0.137147 -0.178587 1.036000 9724319
-0.135029 -0.170000 1.020000 9066065
-0.134234 -0.163206 1.014000 7092812
-0.133440 -0.156480 1.008000 6241583
-0.134234 -0.151617 1.014000 6309436
-0.134631 -0.146254 1.017000 6170161
-0.135029 -0.140857 1.020000 5974317
-0.135426 -0.135426 1.023000 5186331
-0.136352 -0.130467 1.030000 6170146
-0.150961 -0.265559 1.157000 12088945
-0.150439 -0.258052 1.153000 11368064
-0.147960 -0.247320 1.134000 9722983
-0.146133 -0.237867 1.120000 9398390
-0.144698 -0.229193 1.109000 7354714
-0.142871 -0.220043 1.095000 10580075
-0.141958 -0.212419 1.088000 10450048
-0.139740 -0.202980 1.071000 8216418
-0.137261 -0.193368 1.052000 9387088
-0.136348 -0.186110 1.045000 11306899
-0.134782 -0.178070 1.033000 10378618
-0.133086 -0.170000 1.020000 9721169
-0.132303 -0.163206 1.014000 7288907
-0.131520 -0.156480 1.008000 6240054
-0.132303 -0.151617 1.014000 6575681
-0.132694 -0.146254 1.017000 6105395
-0.133086 -0.140857 1.020000 5974318
-0.133477 -0.135426 1.023000 5842720
-0.133869 -0.129960 1.026000 6171429
-0.148757 -0.265559 1.157000 11761254
-0.148757 -0.258948 1.157000 11301248
-0.145800 -0.247320 1.134000 10051177
-0.144000 -0.237867 1.120000 10058104
-0.142071 -0.228367 1.105000 8410477
-0.140786 -0.220043 1.095000 10976367
-0.139500 -0.211833 1.085000 9853834
-0.137700 -0.202980 1.071000 9395795
-0.135257 -0.193368 1.052000 10180692
-0.133971 -0.185575 1.042000 11966352
-0.132814 -0.178070 1.033000 9524308
-0.131143 -0.170000 1.020000 9328466
-0.129986 -0.162723 1.011000 7421002
-0.129986 -0.156946 1.011000 6503229
-0.130371 -0.151617 1.014000 6638150
-0.130757 -0.146254 1.017000 6105653
-0.131143 -0.140857 1.020000 5974318
-0.131529 -0.135426 1.023000 6040358
-0.132429 -0.130467 1.030000 6302759
-0.146553 -0.265559 1.157000 11432033
-0.146553 -0.258948 1.157000 11237252
-0.144147 -0.248192 1.138000 10378343
-0.141360 -0.237017 1.116000 10645364
-0.139967 -0.228367 1.105000 9532278
-0.138700 -0.220043 1.095000 11368306
-0.137433 -0.211833 1.085000 9263242
-0.135280 -0.202411 1.068000 10574685
-0.133253 -0.193368 1.052000 11036777
-0.131987 -0.185575 1.042000 12554634
-0.130847 -0.178070 1.033000 8666196
-0.129200 -0.170000 1.020000 8934482
-0.128060 -0.162723 1.011000 7551047
-0.127680 -0.156480 1.008000 6698556
-0.128060 -0.151169 1.011000 6644564
-0.128820 -0.146254 1.017000 6105646
-0.129200 -0.140857 1.020000 5974572
-0.129580 -0.135426 1.023000 6237224
-0.130467 -0.130467 1.030000 6434090
-0.143850 -0.264641 1.153000 11364188
-0.143850 -0.258052 1.153000 10444424
-0.141480 -0.247320 1.134000 10313573
-0.139234 -0.237017 1.116000 10181744
-0.137862 -0.228367 1.105000 10385023
-0.136614 -0.220043 1.095000 10975605
-0.134868 -0.211052 1.081000 9726089
-0.132372 -0.201085 1.061000 9198440
-0.131624 -0.193919 1.055000 11632765
-0.130002 -0.185575 1.042000 11964805
-0.128879 -0.178070 1.033000 8407380
-0.126883 -0.169500 1.017000 8737875
-0.126134 -0.162723 1.011000 7485507
-0.125760 -0.156480 1.008000 6829116
-0.126134 -0.151169 1.011000 6771041
-0.126883 -0.146254 1.017000 5909032
-0.127257 -0.140857 1.020000 5974826
-0.127631 -0.135426 1.023000 6303275
-0.128505 -0.130467 1.030000 6565164
-0.141654 -0.264641 1.153000 11285590
-0.141286 -0.257381 1.150000 9660536
-0.139320 -0.247320 1.134000 10249831
-0.137600 -0.237867 1.120000 9721959
-0.135757 -0.228367 1.105000 11304315
-0.134529 -0.220043 1.095000 10581361
-0.132809 -0.211052 1.081000 10181250
-0.130351 -0.201085 1.061000 7755108
-0.129614 -0.193919 1.055000 12292473
-0.128017 -0.185575 1.042000 11303554
-0.126543 -0.177552 1.030000 8147033
-0.124946 -0.169500 1.017000 8540243
-0.123840 -0.162240 1.008000 7484738
-0.123840 -0.156480 1.008000 6894133
-0.124209 -0.151169 1.011000 6839112
-0.124946 -0.146254 1.017000 5712170
-0.125314 -0.140857 1.020000 6040354
-0.125683 -0.135426 1.023000 6368554
-0.126051 -0.129960 1.026000 6761777
-0.139458 -0.258052 1.153000 9724777
-0.137160 -0.247320 1.134000 10051688
-0.134983 -0.237017 1.116000 9260638
-0.133652 -0.228367 1.105000 11569783
-0.132443 -0.220043 1.095000 10316909
-0.130750 -0.211052 1.081000 10183546
-0.128330 -0.201085 1.061000 6762337
-0.127242 -0.193368 1.052000 11371125
-0.126032 -0.185575 1.042000 10907518
-0.124581 -0.177552 1.030000 8014686
-0.123009 -0.169500 1.017000 8343891
-0.121920 -0.162240 1.008000 7288385
-0.121920 -0.156480 1.008000 6892590
-0.122283 -0.151169 1.011000 7031342
-0.123009 -0.146254 1.017000 5843245
-0.123371 -0.140857 1.020000 6040346
-0.123734 -0.135426 1.023000 6368810
-0.124581 -0.130467 1.030000 6499382
-0.137262 -0.258052 1.153000 9724522
-0.135000 -0.247320 1.134000 9855601
-0.132857 -0.237017 1.116000 8736346
-0.131548 -0.228367 1.105000 11836534
-0.130357 -0.220043 1.095000 9989742
-0.128690 -0.211052 1.081000 10251645
-0.126310 -0.201085 1.061000 5783133
-0.125238 -0.193368 1.052000 10509684
-0.124048 -0.185575 1.042000 10512241
-0.122619 -0.177552 1.030000 7884381
-0.121071 -0.169500 1.017000 8080714
-0.120000 -0.162240 1.008000 7091775
-0.120000 -0.156480 1.008000 6894132
-0.120357 -0.151169 1.011000 7228470
-0.120714 -0.145823 1.014000 5908526
-0.121429 -0.140857 1.020000 6040610
-0.121786 -0.135426 1.023000 6368552
-0.122143 -0.129960 1.026000 6302511
-0.135066 -0.258052 1.153000 9919852
-0.132840 -0.247320 1.134000 9858170
-0.130731 -0.237017 1.116000 8735829
-0.129443 -0.228367 1.105000 11042932
-0.128271 -0.220043 1.095000 10245487
-0.126631 -0.211052 1.081000 10778496
-0.124289 -0.201085 1.061000 6696538
-0.123234 -0.193368 1.052000 10115699
-0.122063 -0.185575 1.042000 10443619
-0.120189 -0.176863 1.026000 7884379
-0.119134 -0.169500 1.017000 7949889
-0.118080 -0.162240 1.008000 6960957
-0.118431 -0.156946 1.011000 6828346
-0.118431 -0.151169 1.011000 6964542
-0.119134 -0.146254 1.017000 6039855
-0.119134 -0.140443 1.017000 6105898
-0.119837 -0.135426 1.023000 6303271
-0.120189 -0.129960 1.026000 6105895
-0.132063 -0.256486 1.146000 10054245
-0.130680 -0.247320 1.134000 9861514
-0.128606 -0.237017 1.116000 8669533
-0.127338 -0.228367 1.105000 10252639
-0.125725 -0.219239 1.091000 10513266
-0.124572 -0.211052 1.081000 11306875
-0.121922 -0.200516 1.058000 7559280
-0.121230 -0.193368 1.052000 9791345
-0.120424 -0.186110 1.045000 10312289
-0.118234 -0.176863 1.026000 7884377
-0.117197 -0.169500 1.017000 7818563
-0.116160 -0.162240 1.008000 6829105
-0.116160 -0.156480 1.008000 6697524
-0.116851 -0.151617 1.014000 6705485
-0.117197 -0.146254 1.017000 6104873
-0.117543 -0.140857 1.020000 6105899
-0.117889 -0.135426 1.023000 6237224
-0.118234 -0.129960 1.026000 5974564
-0.129880 -0.256486 1.146000 9923167
-0.128180 -0.246666 1.131000 10256025
-0.126480 -0.237017 1.116000 8209509
-0.125233 -0.228367 1.105000 8999753
-0.123647 -0.219239 1.091000 11307126
-0.122513 -0.211052 1.081000 11501685
-0.119907 -0.200516 1.058000 9278855
-0.119227 -0.193368 1.052000 9920110
-0.118093 -0.185575 1.042000 10443360
-0.116733 -0.177552 1.030000 8212567
-0.115260 -0.169500 1.017000 7753542
-0.114240 -0.162240 1.008000 6698020
-0.114580 -0.156946 1.011000 6631727
-0.114920 -0.151617 1.014000 6702939
-0.115260 -0.146254 1.017000 6105635
-0.115600 -0.140857 1.020000 6105900
-0.115940 -0.135426 1.023000 6171177
-0.116280 -0.129960 1.026000 5777185
-0.127697 -0.256486 1.146000 9725538
-0.126026 -0.246666 1.131000 10715253
-0.124020 -0.236380 1.113000 7756398
-0.122794 -0.227747 1.102000 7749459
-0.121569 -0.219239 1.091000 12022625
-0.119674 -0.209686 1.074000 11763048
-0.117891 -0.200516 1.058000 10971754
-0.116777 -0.192632 1.048000 9985380
-0.116109 -0.185575 1.042000 10508121
-0.114326 -0.176863 1.026000 8541269
-0.113323 -0.169500 1.017000 7621451
-0.112654 -0.162723 1.011000 6567473
-0.112654 -0.156946 1.011000 6500407
-0.112989 -0.151617 1.014000 6707522
-0.113323 -0.146254 1.017000 6105382
-0.113657 -0.140857 1.020000 6105898
-0.113991 -0.135426 1.023000 6039079
-0.114771 -0.130467 1.030000 5514531
-0.125514 -0.256486 1.146000 8933733
-0.123433 -0.245793 1.127000 9989456
-0.121900 -0.236380 1.113000 9204856
-0.120695 -0.227747 1.102000 7619165
-0.119162 -0.218636 1.088000 10116173
-0.117629 -0.209686 1.074000 10247771
-0.116971 -0.202411 1.068000 9651789
-0.114452 -0.192081 1.045000 9525337
-0.113795 -0.185041 1.039000 9983315
-0.112371 -0.176863 1.026000 8671315
-0.111057 -0.169000 1.014000 7360592
-0.110729 -0.162723 1.011000 6502461
-0.110729 -0.156946 1.011000 5909568
-0.111057 -0.151617 1.014000 6832936
-0.111386 -0.146254 1.017000 6171689
-0.111714 -0.140857 1.020000 6171431
-0.112043 -0.135426 1.023000 5973030
-0.112810 -0.130467 1.030000 5382949
-0.124515 -0.265559 1.157000 9067609
-0.123762 -0.257381 1.150000 8146528
-0.121287 -0.245793 1.127000 9263698
-0.120103 -0.237017 1.116000 10648435
-0.118596 -0.227747 1.102000 7488859
-0.116767 -0.218033 1.085000 8146508
-0.115583 -0.209686 1.074000 8737372
-0.114507 -0.201653 1.064000 8277838
-0.112462 -0.192081 1.045000 9133656
-0.111816 -0.185041 1.039000 9458774
-0.110094 -0.176346 1.023000 8802898
-0.109126 -0.169000 1.014000 7094606
-0.108803 -0.162723 1.011000 6502971
-0.108803 -0.156946 1.011000 5254723
-0.109126 -0.151617 1.014000 7024434
-0.109449 -0.146254 1.017000 6171690
-0.109771 -0.140857 1.020000 6302760
-0.110094 -0.135426 1.023000 5908519
-0.110417 -0.129960 1.026000 5185833
-0.121889 -0.264641 1.153000 9263448
-0.121149 -0.256486 1.146000 7687258
-0.119140 -0.245793 1.127000 9065043
-0.117977 -0.237017 1.116000 10782318
-0.116497 -0.227747 1.102000 7689049
-0.114700 -0.218033 1.085000 7948364
-0.113220 -0.209100 1.071000 9000541
-0.112480 -0.201653 1.064000 8933968
-0.111211 -0.193368 1.052000 9919575
-0.109520 -0.184507 1.036000 9720666
-0.108146 -0.176346 1.023000 8999761
-0.107194 -0.169000 1.014000 6829645
-0.106560 -0.162240 1.008000 6305848
-0.106877 -0.156946 1.011000 5513029
-0.107194 -0.151617 1.014000 6763323
-0.107511 -0.146254 1.017000 6237227
-0.107829 -0.140857 1.020000 6434089
-0.108146 -0.135426 1.023000 5909800
-0.119692 -0.264641 1.153000 9462108
-0.118966 -0.256486 1.146000 7226452
-0.117409 -0.246666 1.131000 8865108
-0.115540 -0.236380 1.113000 10909284
-0.114398 -0.227747 1.102000 7890526
-0.112633 -0.218033 1.085000 7686751
-0.111180 -0.209100 1.071000 9264222
-0.110142 -0.201085 1.061000 9589588
-0.108481 -0.192081 1.045000 10706006
-0.107547 -0.184507 1.036000 9984349
-0.106509 -0.176863 1.026000 9262161
-0.105263 -0.169000 1.014000 6503244
-0.104640 -0.162240 1.008000 6174267
-0.104951 -0.156946 1.011000 5785156
-0.105574 -0.152066 1.017000 6494767
-0.105574 -0.146254 1.017000 6302763
-0.105886 -0.140857 1.020000 6630442
-0.106197 -0.135426 1.023000 5909287
-0.117496 -0.264641 1.153000 9723743
-0.116783 -0.256486 1.146000 6896206
-0.115254 -0.246666 1.131000 8276308
-0.113726 -0.237017 1.116000 10515034
-0.112299 -0.227747 1.102000 8545890
-0.110159 -0.217230 1.081000 8145010
-0.109140 -0.209100 1.071000 9394783
-0.108121 -0.201085 1.061000 9720665
-0.106490 -0.192081 1.045000 10772052
-0.105268 -0.183972 1.033000 10180960
-0.104249 -0.176346 1.023000 9328209
-0.103331 -0.169000 1.014000 6369867
-0.102720 -0.162240 1.008000 5976382
-0.103331 -0.157411 1.014000 7297604
-0.103637 -0.152066 1.017000 6235938
-0.103637 -0.146254 1.017000 6171178
-0.103943 -0.140857 1.020000 6499370
-0.104249 -0.135426 1.023000 5843750
-0.115000 -0.263952 1.150000 9985894
-0.114600 -0.256486 1.146000 6571605
-0.112300 -0.244921 1.123000 7749719
-0.111300 -0.236380 1.113000 10051419
-0.109500 -0.226300 1.095000 9265762
-0.108100 -0.217230 1.081000 8545916
-0.106800 -0.208514 1.068000 9458787
-0.106100 -0.201085 1.061000 9851480
-0.104500 -0.192081 1.045000 10838873
-0.103300 -0.183972 1.033000 10312288
-0.102000 -0.175829 1.020000 9459027
-0.101100 -0.168500 1.011000 6242122
-0.101100 -0.162723 1.011000 5712445
-0.101100 -0.156946 1.011000 8737087
-0.101700 -0.152066 1.017000 5972764
-0.102000 -0.146686 1.020000 5974055
-0.102000 -0.140857 1.020000 6302763
-0.102300 -0.135426 1.023000 5777447
-0.112810 -0.263952 1.150000 10183020
-0.112417 -0.256486 1.146000 6832988
-0.110553 -0.245793 1.127000 7487065
-0.109180 -0.236380 1.113000 9656155
-0.107022 -0.225473 1.091000 9332065
-0.106041 -0.217230 1.081000 8618118
-0.104766 -0.208514 1.068000 9595239
-0.103785 -0.200516 1.058000 9849432
-0.102215 -0.191530 1.042000 10444893
-0.101332 -0.183972 1.033000 10312032
-0.100057 -0.175829 1.020000 9524565
-0.099174 -0.168500 1.011000 6241865
-0.099174 -0.162723 1.011000 5647676
-0.099469 -0.157411 1.014000 8217914
-0.099763 -0.152066 1.017000 5841173
-0.100057 -0.146686 1.020000 5908004
-0.100351 -0.141271 1.023000 6105132
-0.100646 -0.135823 1.026000 5908265
-0.110619 -0.263952 1.150000 10444908
-0.110234 -0.256486 1.146000 7032156
-0.108407 -0.245793 1.127000 7290708
-0.107060 -0.236380 1.113000 9195099
-0.105329 -0.226300 1.095000 9397860
-0.103982 -0.217230 1.081000 8612982
-0.102731 -0.208514 1.068000 9729379
-0.101770 -0.200516 1.058000 9792373
-0.100230 -0.191530 1.042000 10116975
-0.099365 -0.183972 1.033000 10246755
-0.098114 -0.175829 1.020000 9655126
-0.097249 -0.168500 1.011000 6242122
-0.097249 -0.162723 1.011000 5517627
-0.097537 -0.157411 1.014000 7622718
-0.097826 -0.152066 1.017000 5708578
-0.098114 -0.146686 1.020000 5840672
-0.098403 -0.141271 1.023000 5907240
-0.098691 -0.135823 1.026000 6040613
-0.108429 -0.263952 1.150000 10577772
-0.108051 -0.256486 1.146000 8016733
-0.106260 -0.245793 1.127000 7689295
-0.104940 -0.236380 1.113000 8997467
-0.103526 -0.226920 1.098000 9463654
-0.101923 -0.217230 1.081000 7949925
-0.100697 -0.208514 1.068000 9530975
-0.099754 -0.200516 1.058000 10524051
-0.097963 -0.190978 1.039000 10383233
-0.097397 -0.183972 1.033000 10313831
-0.096171 -0.175829 1.020000 9590102
-0.095323 -0.168500 1.011000 6436682
-0.095606 -0.163206 1.014000 5386042
-0.095889 -0.157877 1.017000 8083266
-0.095889 -0.152066 1.017000 5184303
-0.096171 -0.146686 1.020000 5511708
-0.096737 -0.141686 1.026000 7487780
-0.097114 -0.136352 1.030000 6370850
-0.105869 -0.263034 1.146000 10774385
-0.105499 -0.255590 1.142000 8938607
-0.103744 -0.244921 1.123000 8088427
-0.102450 -0.235530 1.109000 8800335
-0.101157 -0.226300 1.095000 9593701
-0.099587 -0.216627 1.078000 7230040
-0.098663 -0.208514 1.068000 9330281
-0.097739 -0.200516 1.058000 11242099
-0.096261 -0.191530 1.042000 10651252
-0.095152 -0.183438 1.030000 10315107
-0.094229 -0.175829 1.020000 9590358
-0.093397 -0.168500 1.011000 6635592
-0.093674 -0.163206 1.014000 5254437
-0.093951 -0.157877 1.017000 8474447
-0.093951 -0.152066 1.017000 4659244
-0.094229 -0.146686 1.020000 5188394
-0.094783 -0.141686 1.026000 9131581
-0.095152 -0.136352 1.030000 6700845
-0.104048 -0.263952 1.150000 10644085
-0.102962 -0.254695 1.138000 9987969
-0.101605 -0.244921 1.123000 7954566
-0.100338 -0.235530 1.109000 8407363
-0.098710 -0.225473 1.091000 9659235
-0.097533 -0.216627 1.078000 7948875
-0.096629 -0.208514 1.068000 9268338
-0.095452 -0.199948 1.055000 10715475
-0.094005 -0.190978 1.039000 10844774
-0.093190 -0.183438 1.030000 10247775
-0.092286 -0.175829 1.020000 9459541
-0.091471 -0.168500 1.011000 6965575
-0.092014 -0.163689 1.017000 5775375
-0.092014 -0.157877 1.017000 7499357
-0.092014 -0.152066 1.017000 4658473
-0.092286 -0.146686 1.020000 7294520
-0.092829 -0.141686 1.026000 9066581
-0.093190 -0.136352 1.030000 7292985
-0.101503 -0.263034 1.146000 10510962
-0.100440 -0.253800 1.134000 11041661
-0.099466 -0.244921 1.123000 7828876
-0.098226 -0.235530 1.109000 8011606
-0.096366 -0.224853 1.088000 9725033
-0.095480 -0.216627 1.078000 8671314
-0.094240 -0.207733 1.064000 9271419
-0.093443 -0.199948 1.055000 10179933
-0.092026 -0.190978 1.039000 11039074
-0.091229 -0.183438 1.030000 10181211
-0.090343 -0.175829 1.020000 9263955
-0.090077 -0.169500 1.017000 7225667
-0.090077 -0.163689 1.017000 6364700
-0.090077 -0.157877 1.017000 6506054
-0.090343 -0.152514 1.020000 4659757
-0.090343 -0.146686 1.020000 9324343
-0.091229 -0.142238 1.030000 9066570
-0.091494 -0.136750 1.033000 7882551
-0.099320 -0.263034 1.146000 10511727
-0.097673 -0.252233 1.127000 11240313
-0.097327 -0.244921 1.123000 9273745
-0.096460 -0.236380 1.113000 7747432
-0.094293 -0.224853 1.088000 9659246
-0.093427 -0.216627 1.078000 9130073
-0.092560 -0.208514 1.068000 9205635
-0.091433 -0.199948 1.055000 9453671
-0.090047 -0.190978 1.039000 10841437
-0.089267 -0.183438 1.030000 10179416
-0.088400 -0.175829 1.020000 9131345
-0.088140 -0.169500 1.017000 7223360
-0.088140 -0.163689 1.017000 7355689
-0.088140 -0.157877 1.017000 4722991
-0.088400 -0.152514 1.020000 5512241
-0.088400 -0.146686 1.020000 8736822
-0.089267 -0.142238 1.030000 8606526
-0.089527 -0.136750 1.033000 7881781
-0.097137 -0.263034 1.146000 10509685
-0.095866 -0.253129 1.131000 11436668
-0.095188 -0.244921 1.123000 10652275
-0.094340 -0.236380 1.113000 7425904
-0.092221 -0.224853 1.088000 9656937
-0.091034 -0.215823 1.074000 9524311
-0.090187 -0.207733 1.064000 9140587
-0.089424 -0.199948 1.055000 8732252
-0.088068 -0.190978 1.039000 10711901
-0.087305 -0.183438 1.030000 10114391
-0.086457 -0.175829 1.020000 9001553
-0.086203 -0.169500 1.017000 7222075
-0.086203 -0.163689 1.017000 8333608
-0.086457 -0.158343 1.020000 2957625
-0.086457 -0.152514 1.020000 6362412
-0.086711 -0.147117 1.023000 8081209
-0.087305 -0.142238 1.030000 8147513
-0.087559 -0.136750 1.033000 7879720
-0.094623 -0.262116 1.142000 10446202
-0.093960 -0.253800 1.134000 11635071
-0.092800 -0.244267 1.120000 9924693
-0.092220 -0.236380 1.113000 8148089
-0.090149 -0.224853 1.088000 9460323
-0.088989 -0.215823 1.074000 9721942
-0.088491 -0.208514 1.068000 8476754
-0.087414 -0.199948 1.055000 7946577
-0.086089 -0.190978 1.039000 10182492
-0.085343 -0.183438 1.030000 10048853
-0.084266 -0.175311 1.017000 8867409
-0.084266 -0.169500 1.017000 7287351
-0.084266 -0.163689 1.017000 7943463
-0.084514 -0.158343 1.020000 3739204
-0.084514 -0.152514 1.020000 6958375
-0.084763 -0.147117 1.023000 9134141
-0.085343 -0.142238 1.030000 8145715
-0.085591 -0.136750 1.033000 7747612
-0.092448 -0.262116 1.142000 10445942
-0.091557 -0.253129 1.131000 11763324
-0.090667 -0.244267 1.120000 9129039
-0.090100 -0.236380 1.113000 8809585
-0.088076 -0.224853 1.088000 9328992
-0.086943 -0.215823 1.074000 9852243
-0.086457 -0.208514 1.068000 7817552
-0.085405 -0.199948 1.055000 7161165
-0.084110 -0.190978 1.039000 9721172
-0.083381 -0.183438 1.030000 9983577
-0.082086 -0.174794 1.014000 8738384
-0.082086 -0.169000 1.014000 7289152
-0.082086 -0.163206 1.014000 7613002
-0.082571 -0.158343 1.020000 4534336
-0.082814 -0.152963 1.023000 7612467
-0.082814 -0.147117 1.023000 10117182
-0.083624 -0.142652 1.033000 8148025
-0.083624 -0.136750 1.033000 7616807
-0.090272 -0.262116 1.142000 10314098
-0.089087 -0.252233 1.127000 11698554
-0.088533 -0.244267 1.120000 9065033
-0.087980 -0.236380 1.113000 8876906
-0.085450 -0.223407 1.081000 9134428
-0.084897 -0.215823 1.074000 9391953
-0.084107 -0.207733 1.064000 7948365
-0.082842 -0.198621 1.048000 7487306
-0.081893 -0.190427 1.036000 9458507
-0.081103 -0.182726 1.026000 10114908
-0.080154 -0.174794 1.014000 8606031
-0.080154 -0.169000 1.014000 7426121
-0.080391 -0.163689 1.017000 7555693
-0.080391 -0.157877 1.017000 5843773
-0.080629 -0.152514 1.020000 7682110
-0.080866 -0.147117 1.023000 9658176
-0.081419 -0.142238 1.030000 8145727
-0.081419 -0.136352 1.030000 7158577
-0.087480 -0.260280 1.134000 10248299
-0.086631 -0.251338 1.123000 11629162
-0.085860 -0.242740 1.113000 8995662
-0.085243 -0.234681 1.105000 8937568
-0.083391 -0.223407 1.081000 9004895
-0.082620 -0.215220 1.071000 8871022
-0.081849 -0.207148 1.061000 8079464
-0.081154 -0.199379 1.052000 7815757
-0.079920 -0.190427 1.036000 9130318
-0.079149 -0.182726 1.026000 10246230
-0.078454 -0.175311 1.017000 8473935
-0.078223 -0.169000 1.014000 7553601
-0.078454 -0.163689 1.017000 7507570
-0.078686 -0.158343 1.020000 7153970
-0.078917 -0.152963 1.023000 7745335
-0.078917 -0.147117 1.023000 9128757
-0.079457 -0.142238 1.030000 8212030
-0.085320 -0.260280 1.134000 10248035
-0.084492 -0.251338 1.123000 10181723
-0.083740 -0.242740 1.113000 8472659
-0.083138 -0.234681 1.105000 8998486
-0.081332 -0.223407 1.081000 9398625
-0.080580 -0.215220 1.071000 10321291
-0.079828 -0.207148 1.061000 9005954
-0.078850 -0.198621 1.048000 7881808
-0.077947 -0.190427 1.036000 8867408
-0.077194 -0.182726 1.026000 10050383
-0.076291 -0.174794 1.014000 8342606
-0.076291 -0.169000 1.014000 7287609
-0.076517 -0.163689 1.017000 8218998
-0.076743 -0.158343 1.020000 7487015
-0.077194 -0.153411 1.026000 7614767
-0.077194 -0.147549 1.026000 8198443
-0.077495 -0.142238 1.030000 8278076
-0.083160 -0.260280 1.134000 10309981
-0.082353 -0.251338 1.123000 8740450
-0.081620 -0.242740 1.113000 8014423
-0.080813 -0.234044 1.102000 8999246
-0.079567 -0.224233 1.085000 9854049
-0.078540 -0.215220 1.071000 11766647
-0.077807 -0.207148 1.061000 9932164
-0.077147 -0.199379 1.052000 7883857
-0.075973 -0.190427 1.036000 8604747
-0.075240 -0.182726 1.026000 9787215
-0.074580 -0.175311 1.017000 8211022
-0.074580 -0.169500 1.017000 6960952
-0.074800 -0.164171 1.020000 9005678
-0.075020 -0.158809 1.023000 7749420
-0.075240 -0.153411 1.026000 7547696
-0.075240 -0.147549 1.026000 7224115
-0.075753 -0.142652 1.033000 8409663
-0.081000 -0.260280 1.134000 10377815
-0.080214 -0.251338 1.123000 9327464
-0.079214 -0.241868 1.109000 8607579
-0.078714 -0.234044 1.102000 8802374
-0.077214 -0.223407 1.081000 9264992
-0.076500 -0.215220 1.071000 11114852
-0.075786 -0.207148 1.061000 10058886
-0.074857 -0.198621 1.048000 7882835
-0.074000 -0.190427 1.036000 8145734
-0.073286 -0.182726 1.026000 9393743
-0.072643 -0.175311 1.017000 7948366
-0.072643 -0.169500 1.017000 6763831
-0.072857 -0.164171 1.020000 8805222
-0.073286 -0.159274 1.026000 7947057
-0.073286 -0.153411 1.026000 7877425
-0.073571 -0.148124 1.030000 8675132
-0.073786 -0.142652 1.033000 8606529
-0.078631 -0.259591 1.131000 10507349
-0.077867 -0.250667 1.120000 9922158
-0.077102 -0.241868 1.109000 9267048
-0.076337 -0.233194 1.098000 8540508
-0.075155 -0.223407 1.081000 8609633
-0.074460 -0.215220 1.071000 10447451
-0.073765 -0.207148 1.061000 10177127
-0.072861 -0.198621 1.048000 7818323
-0.071818 -0.189875 1.033000 7751502
-0.071331 -0.182726 1.026000 8932687
-0.070706 -0.175311 1.017000 7751497
-0.070706 -0.169500 1.017000 6571081
-0.071123 -0.164654 1.023000 8673864
-0.071331 -0.159274 1.026000 8141875
-0.071610 -0.154010 1.030000 8206909
-0.071610 -0.148124 1.030000 10050884
-0.071818 -0.142652 1.033000 8803396
-0.076477 -0.259591 1.131000 10377811
-0.075733 -0.250667 1.120000 10580341
-0.074990 -0.241868 1.109000 9792628
-0.074246 -0.233194 1.098000 8343153
-0.073096 -0.223407 1.081000 8805985
-0.072420 -0.215220 1.071000 9988435
-0.071744 -0.207148 1.061000 9390408
-0.070459 -0.197484 1.042000 8146772
-0.069648 -0.189324 1.030000 7883861
-0.069377 -0.182726 1.026000 8077903
-0.068769 -0.175311 1.017000 7357508
-0.068769 -0.169500 1.017000 7752796
-0.069174 -0.164654 1.023000 8604202
-0.069377 -0.159274 1.026000 8600118
-0.069648 -0.154010 1.030000 9000521
-0.069648 -0.148124 1.030000 9656908
-0.070053 -0.143067 1.036000 8804167
-0.074060 -0.258673 1.127000 10245719
-0.073600 -0.250667 1.120000 11171190
-0.072877 -0.241868 1.109000 10250612
-0.072154 -0.233194 1.098000 8086136
-0.071037 -0.223407 1.081000 8937055
-0.070183 -0.214617 1.068000 9461334
-0.069723 -0.207148 1.061000 8539214
-0.068474 -0.197484 1.042000 8408659
-0.067686 -0.189324 1.030000 8081238
-0.067226 -0.182191 1.023000 7161164
-0.066831 -0.175311 1.017000 6964036
-0.066831 -0.169500 1.017000 8869199
-0.067226 -0.164654 1.023000 8535095
-0.067686 -0.159895 1.030000 8998208
-0.067686 -0.154010 1.030000 9855051
-0.067686 -0.148124 1.030000 9263949
-0.068080 -0.143067 1.036000 8869958
-0.071913 -0.258673 1.127000 10312539
-0.071467 -0.250667 1.120000 11499895
-0.070765 -0.241868 1.109000 10385267
-0.069871 -0.232557 1.095000 8879998
-0.068978 -0.223407 1.081000 9265245
-0.068149 -0.214617 1.068000 9262425
-0.067510 -0.206562 1.058000 8276564
-0.066490 -0.197484 1.042000 8932945
-0.065469 -0.188589 1.026000 7950422
-0.065277 -0.182191 1.023000 6701898
-0.064894 -0.175311 1.017000 6634307
-0.065086 -0.170000 1.020000 9070659
-0.065469 -0.165137 1.026000 8404292
-0.065724 -0.159895 1.030000 9330506
-0.065724 -0.154010 1.030000 9723724
-0.065915 -0.148555 1.033000 9330254
-0.066298 -0.143481 1.039000 8935492
-0.069333 -0.250667 1.120000 11763837
-0.068652 -0.241868 1.109000 10519164
-0.067786 -0.232557 1.095000 9596011
-0.066733 -0.222787 1.078000 9529440
-0.066114 -0.214617 1.068000 8999769
-0.065495 -0.206562 1.058000 8079186
-0.064505 -0.197484 1.042000 9457998
-0.063514 -0.188589 1.026000 7819095
-0.063329 -0.182191 1.023000 6176841
-0.063143 -0.175829 1.020000 6307381
-0.063329 -0.170500 1.023000 9262933
-0.063514 -0.165137 1.026000 8272958
-0.063762 -0.159895 1.030000 9657149
-0.063762 -0.154010 1.030000 9591881
-0.064133 -0.148987 1.036000 9393738
-0.064319 -0.143481 1.039000 9001020
-0.066960 -0.249771 1.116000 12028802
-0.066540 -0.241868 1.109000 10055045
-0.065460 -0.231708 1.091000 9130840
-0.064680 -0.222787 1.078000 10057058
-0.063840 -0.213813 1.064000 8803673
-0.063300 -0.205976 1.055000 7685968
-0.062340 -0.196915 1.039000 9263691
-0.061560 -0.188589 1.026000 7818072
-0.061380 -0.182191 1.023000 6635592
-0.061200 -0.175829 1.020000 7028519
-0.061380 -0.170500 1.023000 8937319
-0.061800 -0.165781 1.030000 7945016
-0.061800 -0.159895 1.030000 9066801
-0.061980 -0.154458 1.033000 8539462
-0.062160 -0.148987 1.036000 7616326
-0.064834 -0.249771 1.116000 12222073
-0.064195 -0.240995 1.105000 9659007
-0.063382 -0.231708 1.091000 8672340
-0.062627 -0.222787 1.078000 10583899
-0.061813 -0.213813 1.064000 8607578
-0.061290 -0.205976 1.055000 7359833
-0.060535 -0.197484 1.042000 9065558
-0.059606 -0.188589 1.026000 7820376
-0.059431 -0.182191 1.023000 7028299
-0.059431 -0.176346 1.023000 7810619
-0.059606 -0.171000 1.026000 8541019
-0.059838 -0.165781 1.030000 7682873
-0.060012 -0.160361 1.033000 8473398
-0.060012 -0.154458 1.033000 7488579
-0.060361 -0.149418 1.039000 5844279
-0.062709 -0.249771 1.116000 11829872
-0.062090 -0.240995 1.105000 10316665
-0.061304 -0.231708 1.091000 8541265
-0.060349 -0.221960 1.074000 10250067
-0.059787 -0.213813 1.064000 9722459
-0.059112 -0.205390 1.052000 7687777
-0.058550 -0.197484 1.042000 9330017
-0.057651 -0.188589 1.026000 8015448
-0.057651 -0.182726 1.026000 7160142
-0.057651 -0.176863 1.026000 7819855
-0.057876 -0.171667 1.030000 8271695
-0.058045 -0.166264 1.033000 7748410
-0.058213 -0.160827 1.036000 8209468
-0.058213 -0.154907 1.036000 6698048
-0.058382 -0.149418 1.039000 5053991
-0.060583 -0.249771 1.116000 11367024
-0.059986 -0.240995 1.105000 10974061
-0.059226 -0.231708 1.091000 8343895
-0.058303 -0.221960 1.074000 9988953
-0.057760 -0.213813 1.064000 10837852
-0.057109 -0.205390 1.052000 8081244
-0.056566 -0.197484 1.042000 9592171
-0.055914 -0.189324 1.030000 8212564
-0.055697 -0.182726 1.026000 7291206
-0.055914 -0.177552 1.030000 7889787
-0.056077 -0.172167 1.033000 7945795
-0.056240 -0.166747 1.036000 7879235
-0.056240 -0.160827 1.036000 7944245
-0.056240 -0.154907 1.036000 5909561
-0.056403 -0.149418 1.039000 4270123
-0.058300 -0.249100 1.113000 10445936
-0.057724 -0.240341 1.102000 10839649
-0.057148 -0.231708 1.091000 9064286
-0.056467 -0.222787 1.078000 10181726
-0.055576 -0.213210 1.061000 10971229
-0.055105 -0.205390 1.052000 8543830
-0.054424 -0.196915 1.039000 10119286
-0.053952 -0.189324 1.030000 8278095
-0.053952 -0.183438 1.030000 7028287
-0.054110 -0.178070 1.033000 8614822
-0.054267 -0.172667 1.036000 7878199
-0.054267 -0.166747 1.036000 7618123
-0.054424 -0.161292 1.039000 5644335
-0.054424 -0.155355 1.039000 6173233
-0.054581 -0.149850 1.042000 5058096
-0.056331 -0.256149 1.116000 11633575
-0.055978 -0.248205 1.109000 9460839
-0.055625 -0.240341 1.102000 10773090
-0.055070 -0.231708 1.091000 9786972
-0.054211 -0.221960 1.074000 10442589
-0.053555 -0.213210 1.061000 11037541
-0.053101 -0.205390 1.052000 9071968
-0.052596 -0.197484 1.042000 10576757
-0.051990 -0.189324 1.030000 8342613
-0.052142 -0.183972 1.033000 6763617
-0.052293 -0.178587 1.036000 9343368
-0.052293 -0.172667 1.036000 7812663
-0.052445 -0.167230 1.039000 7356996
-0.052445 -0.161292 1.039000 3352628
-0.052445 -0.155355 1.039000 6435634
-0.052748 -0.150281 1.045000 5845296
-0.054206 -0.256149 1.116000 11899061
-0.053866 -0.248205 1.109000 9062494
-0.053331 -0.239469 1.098000 10183778
-0.052846 -0.231070 1.088000 9918810
-0.052166 -0.221960 1.074000 10838364
-0.051534 -0.213210 1.061000 11235694
-0.050903 -0.204610 1.048000 9002345
-0.050611 -0.197484 1.042000 9462389
-0.050174 -0.189875 1.033000 8212059
-0.050174 -0.183972 1.033000 8721283
-0.050320 -0.178587 1.036000 8870506
-0.050466 -0.173167 1.039000 7551031
-0.050611 -0.167712 1.042000 7026748
-0.050611 -0.161758 1.042000 4534074
-0.050611 -0.155804 1.042000 6369843
-0.052080 -0.256149 1.116000 12232625
-0.051753 -0.248205 1.109000 8602214
-0.051240 -0.239469 1.098000 9594198
-0.050773 -0.231070 1.088000 10050908
-0.049980 -0.221340 1.071000 11231585
-0.049513 -0.213210 1.061000 11432556
-0.048907 -0.204610 1.048000 8935784
-0.048627 -0.197484 1.042000 8344934
-0.048347 -0.190427 1.036000 8080713
-0.048487 -0.185041 1.039000 10710673
-0.048487 -0.179104 1.039000 8388942
-0.048487 -0.173167 1.039000 7223347
-0.048627 -0.167712 1.042000 6763578
-0.048627 -0.161758 1.042000 5713977
-0.048767 -0.156252 1.045000 6303805
-0.049641 -0.248205 1.109000 7943535
-0.049149 -0.239469 1.098000 9195338
-0.048701 -0.231070 1.088000 9921375
-0.047940 -0.221340 1.071000 10838886
-0.047492 -0.213210 1.061000 10971754
-0.046910 -0.204610 1.048000 9463654
-0.046508 -0.196915 1.039000 8275032
-0.046373 -0.190427 1.036000 8009015
-0.046508 -0.185041 1.039000 10997408
-0.046508 -0.179104 1.039000 7875378
