# .PCD v.7 - Point Cloud Data file format
VERSION .7
FIELDS x y z rgb
SIZE 4 4 4 4
TYPE F F F I
COUNT 1 1 1 1
WIDTH 1320
HEIGHT 1
POINTS 1320
DATA ascii
0.256286 -0.094343 0.780000 10784140
0.253986 -0.089079 0.773000 10520226
0.253000 -0.084333 0.770000 9598587
0.249714 -0.078895 0.760000 9589083
0.247414 -0.073866 0.753000 11036248
0.246429 -0.069286 0.750000 11631231
0.245443 -0.064740 0.747000 11367813
0.245771 -0.060552 0.748000 11433600
0.246429 -0.056429 0.750000 12038049
0.248400 -0.052560 0.756000 9722957
0.249057 -0.048368 0.758000 10387321
0.250043 -0.044210 0.761000 6832208
0.251357 -0.040071 0.765000 8483945
0.253000 -0.035933 0.770000 7489354
0.253657 -0.031615 0.772000 8737882
0.287184 -0.164696 0.869000 8867659
0.283549 -0.157709 0.858000 9131863
0.282227 -0.152093 0.854000 10184546
0.279252 -0.145662 0.845000 8076845
0.276609 -0.139500 0.837000 8676450
0.274626 -0.133751 0.831000 8208703
0.271982 -0.127761 0.823000 8611945
0.269008 -0.121712 0.814000 9463894
0.267686 -0.116486 0.810000 8407367
0.265042 -0.110752 0.802000 8540245
0.262068 -0.104978 0.793000 11105369
0.260415 -0.099813 0.788000 10774630
0.257771 -0.094343 0.780000 10651794
0.255458 -0.089079 0.773000 11108517
0.253806 -0.084114 0.768000 8477560
0.251162 -0.078895 0.760000 9720405
0.248849 -0.073866 0.753000 11036258
0.247196 -0.069101 0.748000 11700360
0.246866 -0.064740 0.747000 11434119
0.247196 -0.060552 0.748000 11500672
0.248518 -0.056579 0.752000 12029595
0.249840 -0.052560 0.756000 9461078
0.250501 -0.048368 0.758000 10387315
0.252153 -0.044327 0.763000 6634577
0.253475 -0.040176 0.767000 8938858
0.254467 -0.035933 0.770000 7355470
0.255128 -0.031615 0.772000 9000286
0.288839 -0.164696 0.869000 8605000
0.285848 -0.158076 0.860000 8870740
0.283853 -0.152093 0.854000 9523279
0.280862 -0.145662 0.845000 8208437
0.278203 -0.139500 0.837000 8811868
0.276209 -0.133751 0.831000 8275759
0.273550 -0.127761 0.823000 8613749
0.270558 -0.121712 0.814000 9264729
0.269229 -0.116486 0.810000 8472643
0.266570 -0.110752 0.802000 9000539
0.263578 -0.104978 0.793000 10973784
0.261251 -0.099560 0.786000 10975587
0.258925 -0.094222 0.779000 10718103
0.256930 -0.089079 0.773000 11309735
0.254936 -0.084005 0.767000 8207989
0.252610 -0.078895 0.760000 9786958
0.251280 -0.074160 0.756000 10905452
0.248621 -0.069101 0.748000 11830161
0.248289 -0.064740 0.747000 11565706
0.249286 -0.060714 0.750000 11962240
0.249950 -0.056579 0.752000 11243669
0.251945 -0.052699 0.758000 9198430
0.252610 -0.048495 0.760000 10454125
0.253607 -0.044327 0.763000 6372433
0.254936 -0.040176 0.767000 9268586
0.255933 -0.035933 0.770000 7554129
0.256598 -0.031615 0.772000 9196642
0.289826 -0.164317 0.867000 8276811
0.287486 -0.158076 0.860000 8608598
0.285480 -0.152093 0.854000 8802373
0.282471 -0.145662 0.845000 8274740
0.279797 -0.139500 0.837000 8944752
0.277123 -0.133430 0.829000 8272432
0.274449 -0.127450 0.821000 8544375
0.272443 -0.121862 0.815000 9134690
0.270771 -0.116486 0.810000 8538434
0.268097 -0.110752 0.802000 9526353
0.266426 -0.105508 0.797000 10779767
0.262749 -0.099560 0.786000 11175040
0.260409 -0.094222 0.779000 10783390
0.259071 -0.089310 0.775000 11506860
0.256397 -0.084005 0.767000 7884394
0.254057 -0.078895 0.760000 9916750
0.252720 -0.074160 0.756000 10708841
0.250046 -0.069101 0.748000 11962519
0.249711 -0.064740 0.747000 11698573
0.250714 -0.060714 0.750000 12418435
0.251383 -0.056579 0.752000 10448274
0.253389 -0.052699 0.758000 8937563
0.254057 -0.048495 0.760000 10512224
0.255060 -0.044327 0.763000 6174285
0.256397 -0.040176 0.767000 9597049
0.257400 -0.035933 0.770000 7814734
0.258069 -0.031615 0.772000 9394531
0.290805 -0.163938 0.865000 8341327
0.289124 -0.158076 0.860000 8869975
0.287107 -0.152093 0.854000 8999483
0.283409 -0.145317 0.843000 8670771
0.280719 -0.139167 0.835000 10264196
0.278702 -0.133430 0.829000 8209969
0.276012 -0.127450 0.821000 8147832
0.273995 -0.121862 0.815000 9529962
0.272314 -0.116486 0.810000 8735296
0.269625 -0.110752 0.802000 9657927
0.267944 -0.105508 0.797000 10651542
0.264246 -0.099560 0.786000 10979229
0.261892 -0.094222 0.779000 10917030
0.259875 -0.089079 0.773000 11115953
0.257858 -0.084005 0.767000 7680608
0.255505 -0.078895 0.760000 9787469
0.254160 -0.074160 0.756000 10707814
0.252143 -0.069286 0.750000 12158877
0.251470 -0.064827 0.748000 11831697
0.252143 -0.060714 0.750000 12684165
0.253151 -0.056654 0.753000 9132943
0.254832 -0.052699 0.758000 8670552
0.255505 -0.048495 0.760000 9459796
0.257186 -0.044443 0.765000 7556937
0.257858 -0.040176 0.767000 10198664
0.259539 -0.036027 0.772000 7816266
0.259875 -0.031656 0.773000 9724515
0.292452 -0.163938 0.865000 8340566
0.290762 -0.158076 0.860000 9133409
0.288057 -0.151737 0.852000 9195842
0.285014 -0.145317 0.843000 8996915
0.282310 -0.139167 0.835000 11502466
0.279605 -0.133108 0.827000 8075320
0.277576 -0.127450 0.821000 7689308
0.275210 -0.121712 0.814000 9925497
0.273857 -0.116486 0.810000 8866625
0.271152 -0.110752 0.802000 9851723
0.269462 -0.105508 0.797000 10519163
0.265743 -0.099560 0.786000 10783901
0.263376 -0.094222 0.779000 11048367
0.261010 -0.088964 0.772000 10792364
0.259319 -0.084005 0.767000 7421267
0.256952 -0.078895 0.760000 9720399
0.254586 -0.073866 0.753000 10643304
0.252895 -0.069101 0.748000 12355484
0.252895 -0.064827 0.748000 11962255
0.254248 -0.060876 0.752000 12944523
0.254586 -0.056654 0.753000 7821950
0.256276 -0.052699 0.758000 8473939
0.257290 -0.048559 0.761000 8344659
0.258643 -0.044443 0.765000 8871769
0.259657 -0.040229 0.768000 10716796
0.261010 -0.036027 0.772000 7818327
0.261348 -0.031656 0.773000 10056808
0.294100 -0.163938 0.865000 8534877
0.292400 -0.158076 0.860000 9330282
0.290360 -0.152093 0.854000 9459017
0.286620 -0.145317 0.843000 8736307
0.284580 -0.139500 0.837000 10780544
0.281180 -0.133108 0.827000 7553599
0.278460 -0.127140 0.819000 7025215
0.276760 -0.121712 0.814000 9727111
0.274720 -0.116198 0.808000 9063746
0.272680 -0.110752 0.802000 9786958
0.271320 -0.105640 0.798000 10190177
0.267240 -0.099560 0.786000 11178908
0.264860 -0.094222 0.779000 11442360
0.262480 -0.088964 0.772000 10390950
0.260780 -0.084005 0.767000 7947590
0.258400 -0.078895 0.760000 9656145
0.256020 -0.073866 0.753000 10707818
0.254320 -0.069101 0.748000 12487323
0.254320 -0.064827 0.748000 12093069
0.255680 -0.060876 0.752000 12489616
0.256020 -0.056654 0.753000 6961261
0.257720 -0.052699 0.758000 8277326
0.258740 -0.048559 0.761000 8147795
0.260780 -0.044559 0.767000 8080744
0.261800 -0.040333 0.770000 9799025
0.262480 -0.036027 0.772000 8343396
0.262820 -0.031656 0.773000 10590060
0.294722 -0.163370 0.862000 8670312
0.294038 -0.158076 0.860000 9594460
0.291303 -0.151737 0.852000 9721163
0.288226 -0.145317 0.843000 8534059
0.286174 -0.139500 0.837000 9989733
0.282755 -0.133108 0.827000 7091794
0.280704 -0.127450 0.821000 6371639
0.277627 -0.121413 0.812000 9599095
0.276259 -0.116198 0.808000 9261131
0.274208 -0.110752 0.802000 9656908
0.271130 -0.104978 0.793000 9857092
0.268737 -0.099560 0.786000 11508122
0.266686 -0.094343 0.780000 11773623
0.263950 -0.088964 0.772000 9994069
0.262241 -0.084005 0.767000 8407114
0.259848 -0.078895 0.760000 9588827
0.257454 -0.073866 0.753000 10708842
0.255745 -0.069101 0.748000 12682138
0.255745 -0.064827 0.748000 12224398
0.257112 -0.060876 0.752000 12095127
0.257454 -0.056654 0.753000 6111599
0.259848 -0.052838 0.760000 8081227
0.260190 -0.048559 0.761000 7948872
0.262583 -0.044617 0.768000 7222881
0.263267 -0.040333 0.770000 8809591
0.263950 -0.036027 0.772000 8934238
0.295676 -0.162990 0.860000 8931698
0.294989 -0.157709 0.858000 9723469
0.292926 -0.151737 0.852000 9786190
0.289144 -0.144972 0.841000 7878946
0.287769 -0.139500 0.837000 9460041
0.284330 -0.133108 0.827000 7359589
0.282268 -0.127450 0.821000 6436654
0.279861 -0.121712 0.814000 9662823
0.277798 -0.116198 0.808000 9392979
0.275735 -0.110752 0.802000 9262154
0.272641 -0.104978 0.793000 9457447
0.270234 -0.099560 0.786000 11112344
0.268171 -0.094343 0.780000 11842742
0.265421 -0.088964 0.772000 9263619
0.263702 -0.084005 0.767000 8539726
0.261295 -0.078895 0.760000 9591140
0.258889 -0.073866 0.753000 10838890
0.257857 -0.069286 0.750000 12486040
0.257857 -0.065000 0.750000 12159119
0.258545 -0.060876 0.752000 12033182
0.259576 -0.056805 0.755000 6036338
0.261295 -0.052838 0.760000 7949639
0.262327 -0.048687 0.763000 7487037
0.263702 -0.044559 0.767000 7685721
0.264733 -0.040333 0.770000 9006973
0.265421 -0.036027 0.772000 9131351
0.297314 -0.162990 0.860000 9133942
0.296623 -0.157709 0.858000 9920842
0.294549 -0.151737 0.852000 9852761
0.290746 -0.144972 0.841000 7224887
0.289363 -0.139500 0.837000 8935757
0.285906 -0.133108 0.827000 7623274
0.283140 -0.127140 0.819000 6502960
0.280720 -0.121413 0.812000 9796719
0.279337 -0.116198 0.808000 9459283
0.276571 -0.110476 0.800000 8933444
0.274151 -0.104978 0.793000 8998968
0.271731 -0.099560 0.786000 10713451
0.269657 -0.094343 0.780000 11828852
0.266891 -0.088964 0.772000 8528426
0.265163 -0.084005 0.767000 8671058
0.262051 -0.078688 0.758000 9657956
0.259977 -0.073768 0.752000 10906729
0.258594 -0.069101 0.748000 12289677
0.259286 -0.065000 0.750000 12027786
0.259977 -0.060876 0.752000 11970211
0.261014 -0.056805 0.755000 5976415
0.262743 -0.052838 0.760000 7884114
0.263780 -0.048687 0.763000 7028038
0.265163 -0.044559 0.767000 8146772
0.266200 -0.040333 0.770000 9135736
0.266891 -0.036027 0.772000 9393749
0.298952 -0.162990 0.860000 9397625
0.297562 -0.157341 0.856000 10051143
0.296171 -0.151737 0.852000 10051685
0.292348 -0.144972 0.841000 7816267
0.290957 -0.139500 0.837000 8804690
0.287481 -0.133108 0.827000 7689583
0.285395 -0.127450 0.821000 6567218
0.282267 -0.121413 0.812000 9793398
0.280181 -0.115910 0.806000 9918291
0.278095 -0.110476 0.800000 8666173
0.275662 -0.104978 0.793000 9065801
0.273229 -0.099560 0.786000 9656637
0.270100 -0.093980 0.777000 10375986
0.268362 -0.088964 0.772000 8733521
0.266624 -0.084005 0.767000 8736342
0.263495 -0.078688 0.758000 9657699
0.261410 -0.073768 0.752000 11433065
0.260019 -0.069101 0.748000 12092802
0.260714 -0.065000 0.750000 11962758
0.261757 -0.060957 0.753000 11444903
0.262800 -0.056880 0.756000 6038092
0.264190 -0.052838 0.760000 7621981
0.265929 -0.048814 0.765000 6501966
0.266971 -0.044617 0.768000 8411215
0.267667 -0.040333 0.770000 8735859
0.268710 -0.036073 0.773000 9525074
0.299192 -0.157341 0.856000 10179149
0.297794 -0.151737 0.852000 10249567
0.293950 -0.144972 0.841000 8473925
0.292551 -0.139500 0.837000 8671802
0.289755 -0.133430 0.829000 7756414
0.286959 -0.127450 0.821000 6633009
0.283114 -0.121114 0.810000 9858924
0.281716 -0.115910 0.806000 10312531
0.279619 -0.110476 0.800000 8467018
0.278570 -0.105508 0.797000 9130575
0.274726 -0.099560 0.786000 8605255
0.271580 -0.093980 0.777000 8868418
0.269832 -0.088964 0.772000 8933450
0.268085 -0.084005 0.767000 8737111
0.264939 -0.078688 0.758000 9658210
0.262842 -0.073768 0.752000 11892330
0.262143 -0.069286 0.750000 11895426
0.262143 -0.065000 0.750000 11896193
0.263191 -0.060957 0.753000 10927539
0.264240 -0.056880 0.756000 6106182
0.265988 -0.052908 0.761000 7425109
0.267386 -0.048814 0.765000 5912653
0.268434 -0.044617 0.768000 8739918
0.269133 -0.040333 0.770000 8346209
0.270182 -0.036073 0.773000 9656147
0.300120 -0.156973 0.854000 9983571
0.299417 -0.151737 0.852000 10185305
0.295551 -0.144972 0.841000 8605502
0.294146 -0.139500 0.837000 8075043
0.292037 -0.133751 0.831000 8021900
0.289226 -0.127761 0.823000 6699313
0.285360 -0.121413 0.812000 9725026
0.283251 -0.115910 0.806000 10051156
0.281143 -0.110476 0.800000 8800599
0.279386 -0.105243 0.795000 9525590
0.276223 -0.099560 0.786000 8605521
0.273060 -0.093980 0.777000 9000018
0.271303 -0.088964 0.772000 8472642
0.269546 -0.084005 0.767000 8867927
0.266383 -0.078688 0.758000 9592417
0.264274 -0.073768 0.752000 12223595
0.263571 -0.069286 0.750000 11829122
0.263571 -0.065000 0.750000 11829885
0.264274 -0.060876 0.752000 10324926
0.266383 -0.057030 0.758000 6897983
0.267437 -0.052908 0.761000 7423565
0.269546 -0.048942 0.767000 6371403
0.269897 -0.044617 0.768000 8739149
0.270600 -0.040333 0.770000 8802383
0.271654 -0.036073 0.773000 9393491
0.301747 -0.156973 0.854000 9785171
0.301040 -0.151737 0.852000 10119510
0.297153 -0.144972 0.841000 8737857
0.295740 -0.139500 0.837000 7486000
0.292913 -0.133430 0.829000 8355708
0.290793 -0.127761 0.823000 6698542
0.286200 -0.121114 0.810000 9657188
0.284787 -0.115910 0.806000 9789789
0.282667 -0.110476 0.800000 9196625
0.280193 -0.104978 0.793000 9918285
0.277013 -0.099307 0.784000 8671058
0.274540 -0.093980 0.777000 9064525
0.272773 -0.088964 0.772000 7943989
0.270300 -0.083786 0.765000 8934998
0.268533 -0.078895 0.760000 9526878
0.265707 -0.073768 0.752000 12547435
0.265000 -0.069286 0.750000 11762554
0.265000 -0.065000 0.750000 11763067
0.266767 -0.061119 0.755000 9803420
0.268533 -0.057181 0.760000 7684157
0.269593 -0.053047 0.763000 7422273
0.271007 -0.048942 0.767000 6765644
0.272067 -0.044733 0.770000 8803408
0.272773 -0.040438 0.772000 9196625
0.273833 -0.036167 0.775000 9196626
0.303373 -0.156973 0.854000 9524562
0.301242 -0.151025 0.848000 10382675
0.298755 -0.144972 0.841000 8736579
0.296624 -0.139167 0.835000 7223356
0.293782 -0.133108 0.827000 8019819
0.292361 -0.127761 0.823000 6633516
0.288453 -0.121413 0.812000 9660773
0.286322 -0.115910 0.806000 9789286
0.284190 -0.110476 0.800000 9657418
0.283125 -0.105508 0.797000 9590597
0.278507 -0.099307 0.784000 8474194
0.276730 -0.094222 0.779000 8802376
0.274244 -0.088964 0.772000 7943464
0.271757 -0.083786 0.765000 9001300
0.269270 -0.078688 0.758000 9460059
0.267139 -0.073768 0.752000 12220011
0.266429 -0.069286 0.750000 11565938
0.267139 -0.065173 0.752000 11431545
0.269270 -0.061362 0.758000 9269626
0.270336 -0.057256 0.761000 7620411
0.271047 -0.053047 0.763000 7290933
0.272823 -0.049006 0.768000 7422798
0.273533 -0.044733 0.770000 8934739
0.274244 -0.040438 0.772000 9262676
0.275310 -0.036167 0.775000 8934481
0.305000 -0.156973 0.854000 9327185
0.301786 -0.150490 0.845000 10577234
0.301071 -0.145317 0.843000 8737353
0.298214 -0.139167 0.835000 6961470
0.295357 -0.133108 0.827000 7690063
0.293929 -0.127761 0.823000 6501677
0.289286 -0.121114 0.810000 9663081
0.287143 -0.115623 0.804000 9791329
0.285714 -0.110476 0.800000 10182218
0.283929 -0.105243 0.795000 9262152
0.279286 -0.099053 0.782000 8277584
0.278214 -0.094222 0.779000 8473931
0.275714 -0.088964 0.772000 8005691
0.273214 -0.083786 0.765000 9003103
0.270714 -0.078688 0.758000 9393755
0.268571 -0.073768 0.752000 11825255
0.267857 -0.069286 0.750000 11434355
0.268571 -0.065173 0.752000 11038078
0.271786 -0.061605 0.761000 8743784
0.271786 -0.057256 0.761000 7554375
0.273214 -0.053186 0.765000 7225406
0.274286 -0.049006 0.768000 8079952
0.275714 -0.044850 0.772000 9131863
0.276071 -0.040490 0.773000 9327952
0.277500 -0.036260 0.777000 8671568
0.306627 -0.156973 0.854000 9525584
0.303395 -0.150490 0.845000 10052945
0.301959 -0.144972 0.841000 8670798
0.299805 -0.139167 0.835000 6960704
0.297650 -0.133430 0.829000 7422514
0.295496 -0.127761 0.823000 6303534
0.291547 -0.121413 0.812000 9596525
0.288674 -0.115623 0.804000 9592925
0.287238 -0.110476 0.800000 9590858
0.284725 -0.104978 0.793000 9065035
0.280775 -0.099053 0.782000 8146254
0.279698 -0.094222 0.779000 8277070
0.277185 -0.088964 0.772000 8340302
0.274671 -0.083786 0.765000 8940138
0.272876 -0.078895 0.760000 9459034
0.270004 -0.073768 0.752000 11368035
0.270004 -0.069470 0.752000 11038835
0.270363 -0.065260 0.753000 10509955
0.273235 -0.061605 0.761000 8473430
0.273953 -0.057407 0.763000 7818066
0.274671 -0.053186 0.765000 7685703
0.276467 -0.049133 0.770000 8409938
0.277185 -0.044850 0.772000 9196891
0.277544 -0.040490 0.773000 9197388
0.306088 -0.155870 0.848000 9719918
0.305005 -0.150490 0.845000 9460556
0.303561 -0.144972 0.841000 8672593
0.300673 -0.138833 0.833000 6895419
0.298508 -0.133108 0.827000 7158589
0.297064 -0.127761 0.823000 6041907
0.293093 -0.121413 0.812000 9596003
0.290206 -0.115623 0.804000 9396576
0.288040 -0.110200 0.798000 9066828
0.286957 -0.105243 0.795000 8801605
0.282987 -0.099307 0.784000 8015182
0.281182 -0.094222 0.779000 8014157
0.277211 -0.088503 0.768000 8671825
0.275407 -0.083567 0.763000 8871779
0.273602 -0.078688 0.758000 9524053
0.270714 -0.073571 0.750000 10839908
0.270714 -0.069286 0.750000 10709615
0.271436 -0.065173 0.752000 9991546
0.274685 -0.061605 0.761000 8192847
0.274685 -0.057256 0.761000 8080976
0.276129 -0.053186 0.765000 8145995
0.277211 -0.049006 0.768000 8737360
0.277933 -0.044733 0.770000 9262166
0.279016 -0.040490 0.773000 9065547
0.307703 -0.155870 0.848000 10119563
0.307703 -0.151025 0.848000 9326152
0.305889 -0.145317 0.843000 8870740
0.302260 -0.138833 0.833000 6501175
0.300083 -0.133108 0.827000 7290439
0.297906 -0.127450 0.821000 6369081
0.293189 -0.120815 0.808000 9659224
0.291011 -0.115335 0.802000 9066850
0.289197 -0.110062 0.797000 8802381
0.287020 -0.104713 0.791000 8802112
0.283754 -0.099053 0.782000 7949134
0.281214 -0.093738 0.775000 7817037
0.278674 -0.088503 0.768000 8934739
0.277586 -0.083786 0.765000 8674908
0.275046 -0.078688 0.758000 9458512
0.272869 -0.073768 0.752000 10576486
0.272869 -0.069470 0.752000 10446187
0.273957 -0.065433 0.755000 10058865
0.276134 -0.061605 0.761000 8338247
0.276134 -0.057256 0.761000 8344142
0.278311 -0.053325 0.767000 8474447
0.278674 -0.049006 0.768000 8803149
0.280126 -0.044850 0.772000 9327696
0.281940 -0.040700 0.777000 8737353
0.308224 -0.155319 0.845000 10582429
0.308224 -0.150490 0.845000 9194564
0.306765 -0.144972 0.841000 9070157
0.303117 -0.138500 0.831000 6042947
0.300929 -0.132786 0.825000 7422019
0.297281 -0.126519 0.815000 6632504
0.295457 -0.121114 0.810000 9722954
0.292539 -0.115335 0.802000 8675684
0.290715 -0.110062 0.797000 8541011
0.288527 -0.104713 0.791000 8736838
0.285244 -0.099053 0.782000 7882829
0.282690 -0.093738 0.775000 7621452
0.280867 -0.088733 0.770000 9262934
0.279043 -0.083786 0.765000 8476255
0.276490 -0.078688 0.758000 9392723
0.274301 -0.073768 0.752000 10249321
0.274301 -0.069470 0.752000 10118758
0.275760 -0.065520 0.756000 10120303
0.277584 -0.061605 0.761000 8472905
0.278313 -0.057407 0.763000 8540496
0.279772 -0.053325 0.767000 8802895
0.280867 -0.049133 0.770000 8867403
0.281961 -0.044908 0.773000 9458255
0.283420 -0.040700 0.777000 8342601
0.309833 -0.155319 0.845000 10980015
0.309833 -0.150490 0.845000 8865857
0.307633 -0.144628 0.839000 8805445
0.304700 -0.138500 0.831000 5844814
0.302500 -0.132786 0.825000 7290686
0.298833 -0.126519 0.815000 6632247
0.296267 -0.120815 0.808000 9525308
0.293333 -0.115048 0.800000 9071462
0.292233 -0.110062 0.797000 8868441
0.290033 -0.104713 0.791000 8868939
0.286000 -0.098800 0.780000 7817548
0.284167 -0.093738 0.775000 7489868
0.282333 -0.088733 0.770000 9263961
0.281233 -0.084005 0.767000 8276321
0.277200 -0.078480 0.756000 9327189
0.275733 -0.073768 0.752000 10119788
0.276100 -0.069563 0.753000 9855328
0.277933 -0.065693 0.758000 9728109
0.279033 -0.061605 0.761000 8736586
0.279767 -0.057407 0.763000 8671315
0.281600 -0.053394 0.768000 8146510
0.282333 -0.049133 0.770000 8536393
0.284167 -0.045024 0.775000 9131341
0.285633 -0.040805 0.779000 7946825
0.311443 -0.155319 0.845000 11378865
0.311443 -0.150490 0.845000 8537680
0.308494 -0.144283 0.837000 8608320
0.306283 -0.138500 0.831000 5586517
0.302597 -0.132142 0.821000 7159875
0.300386 -0.126519 0.815000 6632762
0.298543 -0.121114 0.810000 9327929
0.295594 -0.115335 0.802000 9399144
0.293751 -0.110062 0.797000 9130067
0.291540 -0.104713 0.791000 8934220
0.288223 -0.099053 0.782000 7752012
0.284906 -0.093496 0.773000 7358791
0.283800 -0.088733 0.770000 9330282
0.282694 -0.084005 0.767000 8080988
0.278640 -0.078480 0.756000 9261657
0.277534 -0.073866 0.753000 9988201
0.277534 -0.069563 0.753000 9530462
0.279377 -0.065693 0.758000 9331822
0.280483 -0.061605 0.761000 8933455
0.281957 -0.057557 0.765000 8736844
0.283800 -0.053533 0.770000 7555390
0.284537 -0.049261 0.772000 8209740
0.286380 -0.045140 0.777000 8804170
0.287486 -0.040857 0.780000 7553605
0.311570 -0.149778 0.841000 8734815
0.310089 -0.144283 0.837000 8474938
0.307866 -0.138500 0.831000 6176348
0.304161 -0.132142 0.821000 7094600
0.301938 -0.126519 0.815000 6500925
0.300086 -0.121114 0.810000 9326902
0.297122 -0.115335 0.802000 9399146
0.293788 -0.109510 0.793000 9196876
0.292306 -0.104449 0.789000 9000268
0.288971 -0.098800 0.780000 7620939
0.286378 -0.093496 0.773000 7292227
0.285267 -0.088733 0.770000 9069691
0.283414 -0.083786 0.765000 7947096
0.280080 -0.078480 0.756000 9066076
0.278969 -0.073866 0.753000 9856358
0.278969 -0.069563 0.753000 9330779
0.280821 -0.065693 0.758000 9134703
0.282673 -0.061767 0.763000 8671571
0.283414 -0.057557 0.765000 8540230
0.285267 -0.053533 0.770000 7619629
0.286378 -0.049325 0.773000 8605776
0.288601 -0.045256 0.779000 8475207
0.288971 -0.040857 0.780000 7421504
0.313172 -0.149778 0.841000 8934249
0.311683 -0.144283 0.837000 8405564
0.309449 -0.138500 0.831000 6704722
0.305725 -0.132142 0.821000 7094603
0.303490 -0.126519 0.815000 6370881
0.301629 -0.121114 0.810000 9326647
0.298650 -0.115335 0.802000 9397085
0.296788 -0.110062 0.797000 9262414
0.293809 -0.104449 0.789000 8999499
0.291202 -0.099053 0.782000 7555406
0.287850 -0.093496 0.773000 7227471
0.286733 -0.088733 0.770000 8809065
0.284127 -0.083567 0.763000 7751508
0.281520 -0.078480 0.756000 8932448
0.280403 -0.073866 0.753000 9660513
0.281148 -0.069748 0.755000 9130068
0.283010 -0.065867 0.760000 8937317
0.284127 -0.061767 0.763000 8474443
0.285616 -0.057708 0.767000 8343625
0.286733 -0.053533 0.770000 7682876
0.288595 -0.049452 0.775000 9000018
0.290457 -0.045314 0.780000 8146764
0.314774 -0.149778 0.841000 9065844
0.312529 -0.143938 0.835000 7618621
0.311031 -0.138500 0.831000 6704712
0.308786 -0.132786 0.825000 7227470
0.304669 -0.126364 0.814000 6174534
0.302423 -0.120815 0.808000 9129528
0.300177 -0.115335 0.802000 9328977
0.298306 -0.110062 0.797000 9394000
0.294937 -0.104316 0.788000 8999754
0.292691 -0.099053 0.782000 7686993
0.290071 -0.093738 0.775000 7620186
0.287451 -0.088503 0.768000 8543830
0.285580 -0.083567 0.763000 7424080
0.282586 -0.078376 0.755000 8803683
0.281837 -0.073866 0.753000 9332829
0.282586 -0.069748 0.755000 8934476
0.284457 -0.065867 0.760000 8868954
0.286329 -0.061929 0.765000 8474435
0.287451 -0.057783 0.768000 8605773
0.288949 -0.053672 0.772000 8539979
0.290820 -0.049580 0.777000 8869716
0.291943 -0.045314 0.780000 7948880
0.314119 -0.143938 0.835000 6897466
0.312614 -0.138500 0.831000 6636351
0.310357 -0.132786 0.825000 7427660
0.306219 -0.126364 0.814000 5913674
0.303962 -0.120815 0.808000 8867389
0.301705 -0.115335 0.802000 9262668
0.298319 -0.109510 0.793000 9524557
0.296438 -0.104316 0.788000 8999501
0.294181 -0.099053 0.782000 7818581
0.291548 -0.093738 0.775000 7950941
0.289667 -0.088733 0.770000 8345431
0.286281 -0.083348 0.761000 7096659
0.284400 -0.078480 0.756000 8673378
0.284024 -0.074062 0.755000 8937567
0.284024 -0.069748 0.755000 8801376
0.285905 -0.065867 0.760000 8739161
0.288914 -0.062171 0.768000 8474441
0.289667 -0.057933 0.770000 8868431
0.290795 -0.053742 0.773000 9393998
0.292300 -0.049580 0.777000 8672596
0.294181 -0.045430 0.782000 7685203
0.314197 -0.143249 0.831000 6568246
0.313441 -0.138167 0.829000 6042935
0.311929 -0.132786 0.825000 7691082
0.308148 -0.126519 0.815000 6502734
0.304745 -0.120516 0.806000 8736065
0.303232 -0.115335 0.802000 9196616
0.300586 -0.109786 0.795000 9392970
0.297939 -0.104316 0.788000 9196367
0.294914 -0.098800 0.780000 8080985
0.293024 -0.093738 0.775000 7956063
0.291133 -0.088733 0.770000 8344920
0.287352 -0.083238 0.760000 7489623
0.286596 -0.078688 0.758000 8608097
0.285840 -0.074160 0.756000 8674913
0.286596 -0.070025 0.758000 8937076
0.287730 -0.065953 0.761000 8737624
0.291890 -0.062495 0.772000 8540238
0.292268 -0.058159 0.773000 9065810
0.293024 -0.053881 0.775000 9394257
0.294914 -0.049771 0.780000 8409171
0.296427 -0.045547 0.784000 7292501
0.315020 -0.142904 0.829000 6241350
0.315020 -0.138167 0.829000 5451833
0.313500 -0.132786 0.825000 7954251
0.311220 -0.127140 0.819000 7029338
0.306280 -0.120516 0.806000 8539720
0.304760 -0.115335 0.802000 9130565
0.302860 -0.110062 0.797000 9326919
0.299440 -0.104316 0.788000 9327697
0.296400 -0.098800 0.780000 8278106
0.294500 -0.093738 0.775000 7887448
0.292600 -0.088733 0.770000 8410195
0.288800 -0.083238 0.760000 7884125
0.288040 -0.078688 0.758000 8543333
0.288040 -0.074356 0.758000 8344156
0.289180 -0.070302 0.761000 9073510
0.291460 -0.066473 0.767000 8672087
0.293740 -0.062576 0.773000 8672084
0.294500 -0.058310 0.775000 9263188
0.295260 -0.054020 0.777000 9394513
0.297160 -0.049899 0.782000 8146775
0.297920 -0.045547 0.784000 6965333
0.316599 -0.142904 0.829000 6702165
0.315835 -0.137833 0.827000 5319484
0.313544 -0.132142 0.821000 8017484
0.312780 -0.127140 0.819000 7356518
0.307815 -0.120516 0.806000 8605262
0.305524 -0.115048 0.800000 9195331
0.304378 -0.110062 0.797000 9392707
0.301323 -0.104449 0.789000 9459028
0.297886 -0.098800 0.780000 8216154
0.295976 -0.093738 0.775000 7556689
0.293303 -0.088503 0.768000 8475725
0.290248 -0.083238 0.760000 8145763
0.289484 -0.078688 0.758000 8609385
0.290248 -0.074552 0.760000 7749463
0.292157 -0.070671 0.765000 9005656
0.293303 -0.066560 0.768000 8671831
0.295976 -0.062738 0.775000 8737881
0.296740 -0.058460 0.777000 9132886
0.297886 -0.054229 0.780000 8934992
0.298650 -0.049899 0.782000 7753051
0.300177 -0.045663 0.786000 7754580
0.318178 -0.142904 0.829000 7095169
0.317410 -0.137833 0.827000 5123886
0.315875 -0.132464 0.823000 8078666
0.313572 -0.126830 0.817000 7688796
0.309350 -0.120516 0.806000 8671837
0.307048 -0.115048 0.800000 9195850
0.305896 -0.110062 0.797000 9458509
0.302826 -0.104449 0.789000 9592159
0.299371 -0.098800 0.780000 8218458
0.296685 -0.093496 0.773000 7228755
0.294766 -0.088503 0.768000 8606799
0.291695 -0.083238 0.760000 8345186
0.290928 -0.078688 0.758000 8741490
0.292079 -0.074650 0.761000 7166824
0.294382 -0.070856 0.767000 9005406
0.295533 -0.066733 0.770000 8607067
0.297452 -0.062738 0.775000 8869469
0.298988 -0.058610 0.779000 8936027
0.300139 -0.054368 0.782000 8541784
0.301674 -0.050154 0.786000 7295580
0.319757 -0.142904 0.829000 8154284
0.318986 -0.137833 0.827000 6306847
0.317443 -0.132464 0.823000 7488072
0.314357 -0.126519 0.815000 7624531
0.310886 -0.120516 0.806000 8739435
0.308571 -0.115048 0.800000 9196626
0.307414 -0.110062 0.797000 9524822
0.305100 -0.104713 0.791000 9991019
0.300857 -0.098800 0.780000 7623257
0.298929 -0.093738 0.775000 7424340
0.296229 -0.088503 0.768000 8737873
0.293529 -0.083348 0.761000 9200993
0.292371 -0.078688 0.758000 8939387
0.294300 -0.074847 0.763000 7956857
0.296229 -0.070949 0.768000 8937571
0.297771 -0.066907 0.772000 8803935
0.298929 -0.062738 0.775000 8804704
0.300471 -0.058610 0.779000 8738912
0.302400 -0.054507 0.784000 8672863
0.303171 -0.050154 0.786000 8347742
0.318235 -0.136833 0.821000 7419969
0.317460 -0.131820 0.819000 6896706
0.315522 -0.126364 0.814000 7553342
0.312421 -0.120516 0.806000 8872532
0.310095 -0.115048 0.800000 9198678
0.308932 -0.110062 0.797000 9592422
0.305831 -0.104449 0.789000 10381920
0.302343 -0.098800 0.780000 7027529
0.299630 -0.093496 0.773000 7555664
0.297691 -0.088503 0.768000 8934487
0.295753 -0.083567 0.763000 9988195
0.294978 -0.078999 0.761000 9138545
0.295753 -0.074847 0.763000 8742259
0.298467 -0.071133 0.770000 8936294
0.299242 -0.066907 0.772000 8936030
0.301180 -0.062900 0.777000 8805470
0.302343 -0.058686 0.780000 8543073
0.304669 -0.054646 0.786000 8869212
0.306607 -0.050473 0.791000 9330267
0.319799 -0.136833 0.821000 7157348
0.319020 -0.131820 0.819000 6831164
0.317072 -0.126364 0.814000 6234665
0.313956 -0.120516 0.806000 8145981
0.311619 -0.115048 0.800000 8938331
0.310450 -0.110062 0.797000 9199990
0.306945 -0.104316 0.788000 9065814
0.303829 -0.098800 0.780000 7094328
0.301102 -0.093496 0.773000 7685708
0.299154 -0.088503 0.768000 9066076
0.297207 -0.083567 0.763000 10252389
0.296428 -0.078999 0.761000 9134182
0.297207 -0.074847 0.763000 9006189
0.299933 -0.071133 0.770000 9066857
0.301102 -0.066993 0.773000 9001821
0.303439 -0.063062 0.779000 8739932
0.304608 -0.058836 0.782000 8477281
0.306945 -0.054785 0.788000 8741208
0.308113 -0.050473 0.791000 8869465
0.321363 -0.136833 0.821000 6843268
0.320580 -0.131820 0.819000 6830125
0.318623 -0.126364 0.814000 4860976
0.315491 -0.120516 0.806000 7354175
0.313143 -0.115048 0.800000 8672321
0.311186 -0.109786 0.795000 8805719
0.308446 -0.104316 0.788000 7752787
0.304923 -0.098673 0.779000 7160130
0.302183 -0.093375 0.772000 7816782
0.300226 -0.088388 0.767000 9263204
0.298660 -0.083567 0.763000 10514033
0.298660 -0.079207 0.763000 9130605
0.298660 -0.074847 0.763000 9267561
0.301400 -0.071133 0.770000 9131369
0.302574 -0.066993 0.773000 9069164
0.304923 -0.063062 0.779000 8739186
0.306880 -0.058987 0.784000 8414839
0.308837 -0.054854 0.789000 8676471
0.320567 -0.131176 0.815000 6699037
0.320173 -0.126364 0.814000 5716023
0.317027 -0.120516 0.806000 7486528
0.313880 -0.114760 0.798000 8012840
0.312700 -0.109786 0.795000 8606008
0.309160 -0.104051 0.786000 7818577
0.306407 -0.098673 0.779000 7226444
0.303653 -0.093375 0.772000 8012368
0.302080 -0.088503 0.768000 9332331
0.300113 -0.083567 0.763000 9530494
0.300113 -0.079207 0.763000 8741236
0.300113 -0.074847 0.763000 9134693
0.306407 -0.063062 0.779000 9926536
0.308373 -0.058987 0.784000 9799309
0.321724 -0.131015 0.814000 6564449
0.320933 -0.126053 0.812000 6502187
0.317771 -0.120217 0.804000 7685695
0.315400 -0.114760 0.798000 7358518
0.313424 -0.109510 0.793000 8474429
0.310657 -0.104051 0.786000 7883854
0.308286 -0.098800 0.780000 7226694
0.305124 -0.093375 0.772000 8145494
0.303148 -0.088388 0.767000 9466739
0.302357 -0.083786 0.765000 8544365
0.301567 -0.079207 0.763000 8351868
0.301567 -0.074847 0.763000 8940158
0.321686 -0.130371 0.810000 7757988
0.321686 -0.125743 0.810000 6107424
0.319303 -0.120217 0.804000 7948349
0.316920 -0.114760 0.798000 8015173
0.314934 -0.109510 0.793000 8606017
0.312154 -0.104051 0.786000 7883852
0.309771 -0.098800 0.780000 6963519
0.306991 -0.093496 0.773000 8608860
0.305006 -0.088503 0.768000 8678522
0.304609 -0.084005 0.767000 8147036
0.303020 -0.079207 0.763000 9665155
0.323229 -0.130371 0.810000 9017519
0.323229 -0.125743 0.810000 5717845
0.320834 -0.120217 0.804000 8210239
0.318041 -0.114616 0.797000 8670273
0.315647 -0.109233 0.791000 8737599
0.312853 -0.103787 0.784000 7817798
0.311257 -0.098800 0.780000 6634568
0.309262 -0.093738 0.775000 9003878
0.306070 -0.088388 0.767000 7890544
0.306070 -0.084005 0.767000 7761537
0.304473 -0.079207 0.763000 10982810
0.325573 -0.126053 0.812000 7559050
0.322366 -0.120217 0.804000 8077377
0.318757 -0.114329 0.795000 8537918
0.317153 -0.109233 0.791000 8538684
0.314347 -0.103787 0.784000 7488320
0.312743 -0.098800 0.780000 7229521
0.311540 -0.093980 0.777000 8482160
0.307931 -0.088503 0.768000 8677733
0.307931 -0.084114 0.768000 10526886
0.327120 -0.126053 0.812000 9407131
0.323897 -0.120217 0.804000 7948912
0.320271 -0.114329 0.795000 8342371
0.317854 -0.108957 0.789000 8339042
0.315840 -0.103787 0.784000 7162980
0.314229 -0.098800 0.780000 7826808
0.314229 -0.094343 0.780000 7958663
0.309394 -0.088503 0.768000 9469324
0.309394 -0.084114 0.768000 13281960
0.326238 -0.120516 0.806000 10060190
0.320167 -0.113753 0.791000 9791881
0.318952 -0.108819 0.788000 9790343
0.316524 -0.103522 0.782000 9469832
0.316524 -0.099053 0.782000 9735327
0.315714 -0.094343 0.780000 9930909
0.310857 -0.088503 0.768000 11379122
0.327773 -0.120516 0.806000 12233381
0.321673 -0.113753 0.791000 11179167
0.320453 -0.108819 0.788000 11178906
0.317200 -0.103257 0.780000 11771804
0.318827 -0.099307 0.784000 11643308
0.317200 -0.094343 0.780000 11838887
0.320320 -0.108267 0.784000 11969453
0.318686 -0.103257 0.780000 12364720
0.320320 -0.099307 0.784000 12365240
0.320320 -0.094827 0.784000 12429746
0.321813 -0.108267 0.784000 12756137
0.135039 -0.080704 0.839000 8939344
0.134683 -0.084275 0.827000 8013373
0.136311 -0.080511 0.837000 7161916
0.136311 -0.075729 0.837000 7032135
0.136258 -0.112630 0.827000 10388365
0.135270 -0.088355 0.821000 7619646
0.136258 -0.084275 0.827000 7089958
0.136917 -0.079934 0.831000 7157544
0.136917 -0.075186 0.831000 7424071
0.139833 -0.128647 0.839000 9391420
0.139167 -0.123262 0.835000 12030085
0.138167 -0.117639 0.829000 12555929
0.137167 -0.112085 0.823000 12227473
0.135667 -0.096905 0.814000 7690062
0.136167 -0.092593 0.817000 7493718
0.136833 -0.088355 0.821000 6634312
0.137167 -0.083868 0.823000 6173997
0.137833 -0.079550 0.827000 7155760
0.138167 -0.075005 0.829000 7753023
0.141431 -0.128647 0.839000 9523248
0.140757 -0.123262 0.835000 12293000
0.139409 -0.117355 0.827000 12490395
0.138734 -0.112085 0.823000 12163221
0.137386 -0.106338 0.815000 10519445
0.137217 -0.101556 0.814000 8674910
0.137217 -0.096905 0.814000 8281431
0.137723 -0.092593 0.817000 7821654
0.138397 -0.088355 0.821000 6965329
0.138734 -0.083868 0.823000 6305588
0.139071 -0.079357 0.825000 7158328
0.139746 -0.075005 0.829000 8343864
0.144564 -0.134872 0.848000 5119817
0.143030 -0.128647 0.839000 9656885
0.142348 -0.123262 0.835000 12555670
0.140984 -0.117355 0.827000 12424862
0.139961 -0.111812 0.821000 12031125
0.138768 -0.106208 0.814000 11637138
0.138768 -0.101556 0.814000 8481647
0.138086 -0.096429 0.810000 8871518
0.138427 -0.092027 0.812000 8084054
0.139961 -0.088355 0.821000 7230547
0.139961 -0.083664 0.821000 6371140
0.140302 -0.079165 0.823000 7156284
0.140643 -0.074643 0.825000 8934209
0.146179 -0.139718 0.848000 10578764
0.146179 -0.134872 0.848000 5646426
0.144972 -0.128953 0.841000 9460794
0.143593 -0.122967 0.833000 12886436
0.142559 -0.117355 0.827000 12754593
0.141525 -0.111812 0.821000 12161429
0.140318 -0.106208 0.814000 11898766
0.139629 -0.101057 0.810000 9992833
0.139284 -0.096190 0.808000 8608100
0.138939 -0.091347 0.806000 8150101
0.141525 -0.088355 0.821000 7558741
0.141525 -0.083664 0.821000 6567764
0.141525 -0.078972 0.821000 7289919
0.141870 -0.074462 0.823000 8672073
0.141870 -0.069759 0.823000 8079159
0.142214 -0.065214 0.825000 7883313
0.147794 -0.139718 0.848000 10249824
0.148143 -0.135190 0.850000 6179162
0.146574 -0.128953 0.841000 9332555
0.145529 -0.123262 0.835000 13144957
0.143786 -0.117071 0.825000 13084050
0.143089 -0.111812 0.821000 12294042
0.141869 -0.106208 0.814000 12160143
0.140474 -0.100558 0.806000 11437191
0.140474 -0.095952 0.806000 8344413
0.140474 -0.091347 0.806000 8215125
0.140474 -0.086741 0.806000 7819603
0.143089 -0.083664 0.821000 6702928
0.142391 -0.078588 0.817000 7353659
0.142740 -0.074100 0.819000 8409915
0.143089 -0.069590 0.821000 8471350
0.143437 -0.065056 0.823000 7883829
0.144483 -0.060793 0.829000 7748655
0.150114 -0.140377 0.852000 10775923
0.149762 -0.135190 0.850000 8221529
0.148529 -0.129260 0.843000 8477787
0.147119 -0.123262 0.835000 12090710
0.145357 -0.117071 0.825000 12292995
0.144652 -0.111812 0.821000 12361119
0.143419 -0.106208 0.814000 12161680
0.142010 -0.100558 0.806000 11636621
0.141657 -0.095714 0.804000 8871766
0.141657 -0.091120 0.804000 8345941
0.140952 -0.086095 0.800000 7951440
0.140952 -0.081524 0.800000 6902861
0.143948 -0.078588 0.817000 6763318
0.143948 -0.073919 0.817000 8475692
0.144300 -0.069420 0.819000 8077365
0.144300 -0.064740 0.819000 7949369
0.145710 -0.060647 0.827000 7815719
0.151737 -0.140377 0.852000 11367287
0.151737 -0.135509 0.852000 10188398
0.150134 -0.129260 0.843000 7687743
0.148710 -0.123262 0.835000 10970197
0.147285 -0.117355 0.827000 11566463
0.146216 -0.111812 0.821000 12357771
0.144970 -0.106208 0.814000 12096657
0.143545 -0.100558 0.806000 11832975
0.142832 -0.095476 0.802000 9397618
0.142832 -0.090893 0.802000 8410188
0.142476 -0.086095 0.800000 8017741
0.142476 -0.081524 0.800000 7098446
0.145148 -0.078395 0.815000 6108986
0.145148 -0.073738 0.815000 8535345
0.145504 -0.069250 0.817000 7684146
0.145860 -0.064740 0.819000 8012853
0.146572 -0.060353 0.823000 7949347
0.156060 -0.147803 0.867000 10703939
0.153720 -0.140707 0.854000 11962491
0.153000 -0.135190 0.850000 9664386
0.151740 -0.129260 0.843000 7024163
0.150300 -0.123262 0.835000 10183507
0.148860 -0.117355 0.827000 11106171
0.147780 -0.111812 0.821000 11501686
0.146520 -0.106208 0.814000 11700370
0.145080 -0.100558 0.806000 11833232
0.144000 -0.095238 0.800000 10253453
0.144000 -0.090667 0.800000 8343364
0.143640 -0.085880 0.798000 8148298
0.144000 -0.081524 0.800000 7294798
0.146160 -0.078107 0.812000 6306877
0.146520 -0.073648 0.814000 7285046
0.146520 -0.068996 0.814000 7355183
0.147060 -0.064582 0.817000 8011568
0.147420 -0.060060 0.819000 7815455
0.147780 -0.055515 0.821000 7285546
0.158075 -0.153110 0.869000 10979214
0.157711 -0.147803 0.867000 11031899
0.155347 -0.140707 0.854000 12491149
0.154619 -0.135190 0.850000 9132646
0.153346 -0.129260 0.843000 6365231
0.151890 -0.123262 0.835000 9325388
0.150435 -0.117355 0.827000 10714491
0.149344 -0.111812 0.821000 10648951
0.148070 -0.106208 0.814000 11369084
0.146251 -0.100309 0.804000 11832962
0.145160 -0.095000 0.798000 11108741
0.145160 -0.090440 0.798000 8213074
0.145160 -0.085880 0.798000 8213321
0.145160 -0.081320 0.798000 7425872
0.147707 -0.078107 0.812000 6503759
0.147343 -0.073286 0.810000 5975346
0.147707 -0.068827 0.812000 7091760
0.148070 -0.064345 0.814000 8013368
0.148252 -0.059767 0.815000 7683884
0.148616 -0.055245 0.817000 6959915
0.160098 -0.153462 0.871000 10178413
0.159363 -0.147803 0.867000 11628403
0.157341 -0.141036 0.856000 11962782
0.156606 -0.135509 0.852000 8604745
0.155319 -0.129567 0.845000 6698299
0.153849 -0.123557 0.837000 8657477
0.152378 -0.117639 0.829000 10846330
0.150908 -0.111812 0.821000 10580600
0.149621 -0.106208 0.814000 10644837
0.147783 -0.100309 0.804000 11964787
0.146680 -0.095000 0.798000 11436413
0.146496 -0.090327 0.797000 8212320
0.146496 -0.085772 0.797000 8278344
0.146496 -0.081218 0.797000 7622482
0.147048 -0.076952 0.800000 6637152
0.148518 -0.073105 0.808000 5910061
0.148518 -0.068488 0.808000 6762801
0.149253 -0.064187 0.812000 8475712
0.149621 -0.059693 0.814000 7816504
0.149621 -0.055042 0.814000 7026988
0.161757 -0.153462 0.871000 9375820
0.161014 -0.147803 0.867000 12221306
0.158971 -0.141036 0.856000 11498103
0.157857 -0.135190 0.850000 8013132
0.156557 -0.129260 0.843000 7024184
0.155443 -0.123557 0.837000 7945558
0.153957 -0.117639 0.829000 10979696
0.152471 -0.111812 0.821000 10513780
0.151171 -0.106208 0.814000 9986148
0.149314 -0.100309 0.804000 12025708
0.148014 -0.094881 0.797000 11829376
0.147643 -0.090100 0.795000 8152942
0.147271 -0.085342 0.793000 8277828
0.148014 -0.081218 0.797000 7818573
0.148014 -0.076664 0.797000 6773076
0.149314 -0.072743 0.804000 5777965
0.149686 -0.068318 0.806000 6434352
0.150057 -0.063870 0.808000 8866101
0.150429 -0.059400 0.810000 8013618
0.150800 -0.054907 0.812000 7026733
0.163416 -0.153462 0.871000 9255466
0.162290 -0.147462 0.865000 12293249
0.160977 -0.141366 0.858000 10839887
0.159476 -0.135190 0.850000 7223374
0.158163 -0.129260 0.843000 7157813
0.156662 -0.123262 0.835000 9195111
0.155536 -0.117639 0.829000 10385765
0.154035 -0.111812 0.821000 9460592
0.152722 -0.106208 0.814000 9657443
0.151221 -0.100558 0.806000 10775653
0.149532 -0.094881 0.797000 11831170
0.148782 -0.089873 0.793000 9797501
0.148407 -0.085127 0.791000 8341824
0.148782 -0.080810 0.793000 7884615
0.149532 -0.076664 0.797000 7032135
0.150095 -0.072381 0.800000 5973805
0.151221 -0.068318 0.806000 6236975
0.151221 -0.063712 0.806000 8471594
0.151596 -0.059253 0.808000 7948843
0.151971 -0.054771 0.810000 7025455
0.152722 -0.050390 0.814000 7357479
0.165075 -0.153462 0.871000 9192259
0.164317 -0.147803 0.867000 12351351
0.162611 -0.141366 0.858000 10248021
0.161095 -0.135190 0.850000 6371908
0.159769 -0.129260 0.843000 7285811
0.158252 -0.123262 0.835000 10381149
0.157115 -0.117639 0.829000 9860227
0.155599 -0.111812 0.821000 8347273
0.154272 -0.106208 0.814000 9328207
0.153135 -0.100808 0.808000 9463134
0.151050 -0.094881 0.797000 11897708
0.149913 -0.089647 0.791000 11436418
0.149913 -0.085127 0.791000 8340288
0.149913 -0.080607 0.791000 7950664
0.150671 -0.076471 0.795000 7292997
0.151240 -0.072200 0.798000 6173499
0.151619 -0.067810 0.800000 6105648
0.151998 -0.063396 0.802000 8075817
0.152756 -0.059107 0.806000 7885367
0.153514 -0.054771 0.810000 6960423
0.153893 -0.050267 0.812000 7490095
0.166734 -0.153462 0.871000 9458268
0.165969 -0.147803 0.867000 10903917
0.164246 -0.141366 0.858000 10314587
0.162331 -0.134872 0.848000 5907258
0.160991 -0.128953 0.841000 7157553
0.159843 -0.123262 0.835000 10777684
0.158694 -0.117639 0.829000 10981024
0.156780 -0.111540 0.819000 9993891
0.155823 -0.106208 0.814000 8867386
0.154291 -0.100558 0.806000 9198423
0.152186 -0.094643 0.795000 10776406
0.151420 -0.089647 0.791000 11898247
0.151037 -0.084911 0.789000 8540479
0.151037 -0.080403 0.789000 8082249
0.151803 -0.076279 0.793000 7359811
0.152569 -0.072110 0.797000 6368840
0.152760 -0.067640 0.798000 6040369
0.153143 -0.063238 0.800000 7219497
0.153909 -0.058960 0.804000 8014915
0.154291 -0.054501 0.806000 6894880
0.155057 -0.050143 0.810000 7092534
0.168393 -0.153462 0.871000 9721455
0.167620 -0.147803 0.867000 9461608
0.165880 -0.141366 0.858000 10315619
0.163947 -0.134872 0.848000 5454402
0.162593 -0.128953 0.841000 7023925
0.161433 -0.123262 0.835000 11103582
0.160273 -0.117639 0.829000 12102066
0.158727 -0.111812 0.821000 11639469
0.156987 -0.105947 0.812000 8475256
0.156213 -0.100808 0.808000 8935498
0.154087 -0.094881 0.797000 9714732
0.152540 -0.089420 0.789000 12357251
0.152347 -0.084804 0.788000 8672611
0.152347 -0.080301 0.788000 8147017
0.152927 -0.076087 0.791000 7490113
0.153700 -0.071929 0.795000 6504516
0.154087 -0.067555 0.797000 6040624
0.154280 -0.063080 0.798000 6368296
0.155053 -0.058813 0.802000 8146229
0.155440 -0.054366 0.804000 6764329
0.156213 -0.050019 0.808000 6695735
0.170833 -0.159167 0.875000 10375795
0.170443 -0.153814 0.873000 9858178
0.169271 -0.147803 0.867000 9326692
0.167514 -0.141366 0.858000 10512235
0.165562 -0.134872 0.848000 7097162
0.164195 -0.128953 0.841000 6893880
0.163024 -0.123262 0.835000 11298409
0.161852 -0.117639 0.829000 11772868
0.160290 -0.111812 0.821000 11379640
0.158533 -0.105947 0.812000 9403573
0.157752 -0.100808 0.808000 8606525
0.155605 -0.094881 0.797000 9387265
0.154043 -0.089420 0.789000 12424062
0.153457 -0.084589 0.786000 9463687
0.153067 -0.079893 0.784000 8278090
0.153848 -0.075798 0.788000 7620414
0.154433 -0.071567 0.791000 6705728
0.155214 -0.067386 0.795000 5908782
0.155605 -0.063001 0.797000 6236711
0.156190 -0.058667 0.800000 7682855
0.156971 -0.054366 0.804000 7027506
0.157362 -0.049895 0.806000 7159096
0.172500 -0.159167 0.875000 10182508
0.172106 -0.153814 0.873000 9994118
0.170923 -0.147803 0.867000 9129820
0.169149 -0.141366 0.858000 10773343
0.167177 -0.134872 0.848000 8737348
0.165797 -0.128953 0.841000 6758965
0.164614 -0.123262 0.835000 11436665
0.163037 -0.117355 0.827000 11442361
0.161854 -0.111812 0.821000 11112623
0.160474 -0.106208 0.814000 10395569
0.158897 -0.100558 0.806000 8277085
0.157123 -0.094881 0.797000 9046062
0.155546 -0.089420 0.789000 12422524
0.154560 -0.084373 0.784000 10253703
0.154560 -0.079893 0.784000 8343887
0.154954 -0.075606 0.786000 7753026
0.155546 -0.071386 0.789000 6901312
0.155940 -0.067047 0.791000 5776422
0.156729 -0.062843 0.795000 6039078
0.157320 -0.058520 0.798000 7286566
0.158109 -0.054230 0.802000 7289903
0.158503 -0.049771 0.804000 7553331
0.174167 -0.159167 0.875000 10508645
0.173769 -0.153814 0.873000 9793418
0.172972 -0.148144 0.869000 8931156
0.170783 -0.141366 0.858000 10576979
0.168792 -0.134872 0.848000 8671038
0.167399 -0.128953 0.841000 6759985
0.166205 -0.123262 0.835000 11508361
0.164612 -0.117355 0.827000 11311021
0.163020 -0.111540 0.819000 10912422
0.161627 -0.105947 0.812000 10918573
0.160432 -0.100558 0.806000 8212094
0.158840 -0.095000 0.798000 9258586
0.157447 -0.089647 0.791000 12226171
0.156053 -0.084373 0.784000 10452614
0.155655 -0.079690 0.782000 8475988
0.156053 -0.075413 0.784000 7884102
0.157049 -0.071386 0.789000 7164479
0.157447 -0.067047 0.791000 5580318
0.158243 -0.062843 0.795000 5709348
0.158840 -0.058520 0.798000 7024421
0.159238 -0.054095 0.800000 7617580
0.160034 -0.049771 0.804000 7486765
0.160432 -0.045290 0.806000 8145960
0.175833 -0.159167 0.875000 10769758
0.175431 -0.153814 0.873000 9599088
0.174226 -0.147803 0.867000 8735566
0.172417 -0.141366 0.858000 10446421
0.169805 -0.134395 0.845000 8604735
0.169001 -0.128953 0.841000 6756894
0.167795 -0.123262 0.835000 11571858
0.165786 -0.117071 0.825000 11246243
0.164580 -0.111540 0.819000 10649754
0.163173 -0.105947 0.812000 11506585
0.161566 -0.100309 0.804000 8088189
0.160360 -0.095000 0.798000 9526112
0.158953 -0.089647 0.791000 11961718
0.157145 -0.084158 0.782000 10653066
0.156743 -0.079486 0.780000 8607068
0.156743 -0.075029 0.780000 8080716
0.157547 -0.070933 0.784000 7424064
0.158551 -0.066877 0.789000 5383208
0.159355 -0.062685 0.793000 5382431
0.160159 -0.058447 0.797000 6762528
0.160762 -0.054095 0.800000 7943721
0.161164 -0.049648 0.802000 7355172
0.161566 -0.045177 0.804000 7749929
0.178109 -0.164730 0.878000 11635611
0.178109 -0.159712 0.878000 11232344
0.176689 -0.153462 0.871000 9331542
0.176283 -0.148144 0.869000 8737352
0.174051 -0.141366 0.858000 10182742
0.171414 -0.134395 0.845000 8077121
0.170197 -0.128647 0.839000 6956298
0.169386 -0.123262 0.835000 11639707
0.167357 -0.117071 0.825000 11243161
0.166140 -0.111540 0.819000 10517902
0.164720 -0.105947 0.812000 11110532
0.163503 -0.100558 0.806000 9533565
0.161880 -0.095000 0.798000 9394790
0.160866 -0.089873 0.793000 11960945
0.158634 -0.084158 0.782000 11439502
0.158229 -0.079486 0.780000 8606565
0.158026 -0.074932 0.779000 8212561
0.158634 -0.070752 0.782000 7027778
0.159040 -0.066453 0.784000 5584178
0.160460 -0.062527 0.791000 4858394
0.161677 -0.058447 0.797000 6565403
0.161880 -0.053960 0.798000 7352870
0.162286 -0.049524 0.800000 6960410
0.162691 -0.045065 0.802000 7288618
0.180190 -0.165105 0.880000 11371409
0.179781 -0.159712 0.878000 11628392
0.178757 -0.153814 0.873000 9000781
0.177529 -0.147803 0.867000 8737617
0.175686 -0.141366 0.858000 9854807
0.173024 -0.134395 0.845000 7488840
0.171795 -0.128647 0.839000 7212314
0.170976 -0.123262 0.835000 11705510
0.168929 -0.117071 0.825000 11307641
0.167700 -0.111540 0.819000 10320260
0.165857 -0.105686 0.810000 10779278
0.164629 -0.100309 0.804000 10915985
0.163400 -0.095000 0.798000 9264219
0.162376 -0.089873 0.793000 11964283
0.160124 -0.084158 0.782000 12226964
0.159714 -0.079486 0.780000 8544106
0.159510 -0.074932 0.779000 8409938
0.160124 -0.070752 0.782000 6571072
0.160124 -0.066284 0.782000 5719101
0.161352 -0.062290 0.788000 4268578
0.161967 -0.058007 0.791000 6303517
0.163195 -0.053892 0.797000 6696743
0.163400 -0.049400 0.798000 6630684
0.163810 -0.044952 0.800000 6827816
0.181867 -0.165105 0.880000 11104646
0.181453 -0.159712 0.878000 11961464
0.180007 -0.153462 0.871000 8606275
0.179180 -0.147803 0.867000 8868442
0.177320 -0.141366 0.858000 9723991
0.174633 -0.134395 0.845000 8079439
0.173807 -0.128953 0.841000 7549226
0.171740 -0.122671 0.831000 11573936
0.170500 -0.117071 0.825000 11172952
0.168847 -0.111268 0.817000 10123643
0.167400 -0.105686 0.810000 10320791
0.166160 -0.100309 0.804000 11709349
0.164920 -0.095000 0.798000 8934992
0.163887 -0.089873 0.793000 12037252
0.162027 -0.084373 0.784000 12161945
0.160993 -0.079384 0.779000 8609647
0.160993 -0.074932 0.779000 8410451
0.161200 -0.070571 0.780000 7095615
0.161613 -0.066284 0.782000 5848903
0.162853 -0.062290 0.788000 4662057
0.163060 -0.057860 0.789000 6237726
0.164300 -0.053757 0.795000 6499881
0.164713 -0.049338 0.797000 6236701
0.164920 -0.044840 0.798000 6564391
0.183543 -0.165105 0.880000 10834792
0.183543 -0.160076 0.880000 12286837
0.182083 -0.153814 0.873000 8141615
