# .PCD v.7 - Point Cloud Data file format
VERSION .7
FIELDS x y z rgb
SIZE 4 4 4 4
TYPE F F F I
COUNT 1 1 1 1
WIDTH 1338
HEIGHT 1
POINTS 1338
DATA ascii
0.323300 -0.018929 0.795000 10462615
0.320860 -0.014277 0.789000 8011082
0.319640 -0.009731 0.786000 7489598
0.317200 -0.005200 0.780000 9269093
0.315167 -0.000738 0.775000 9133933
0.313133 0.003667 0.770000 8209996
0.312320 0.008046 0.768000 7159111
0.310287 0.012353 0.763000 5125700
0.308253 0.016604 0.758000 8813703
0.307033 0.020852 0.755000 7357258
0.305000 0.025000 0.750000 7482171
0.304187 0.029208 0.748000 9402477
0.302153 0.033258 0.743000 9854043
0.300527 0.037302 0.739000 10247506
0.299307 0.041356 0.736000 9984847
0.297680 0.045314 0.732000 8670799
0.296053 0.049227 0.728000 8465454
0.295240 0.053240 0.726000 8092068
0.296460 0.057626 0.729000 8881295
0.297273 0.061961 0.731000 11309994
0.300933 0.066952 0.740000 7622487
0.302153 0.071470 0.743000 8212314
0.304187 0.076225 0.748000 8475479
0.307440 0.081360 0.756000 7489615
0.342791 -0.067919 0.839000 11765380
0.341157 -0.062824 0.835000 11898765
0.340340 -0.057913 0.833000 9463431
0.337889 -0.052770 0.827000 10781294
0.334620 -0.047580 0.819000 10321566
0.332986 -0.042690 0.815000 11368050
0.331760 -0.037893 0.812000 11106405
0.329309 -0.033008 0.806000 10909034
0.326857 -0.028190 0.800000 7685733
0.326040 -0.023560 0.798000 5440802
0.324814 -0.018929 0.795000 10124162
0.322363 -0.014277 0.789000 8210246
0.321137 -0.009731 0.786000 7423303
0.319503 -0.005213 0.782000 9799026
0.317460 -0.000740 0.777000 9266294
0.314600 0.003667 0.770000 8079686
0.313783 0.008046 0.768000 6831426
0.312557 0.012386 0.765000 5512765
0.309697 0.016604 0.758000 9271928
0.308471 0.020852 0.755000 7357511
0.306429 0.025000 0.750000 7616574
0.305203 0.029169 0.747000 9863529
0.303569 0.033258 0.743000 10051934
0.302343 0.037352 0.740000 10313299
0.301117 0.041412 0.737000 9985357
0.299074 0.045314 0.732000 8602957
0.297440 0.049227 0.728000 8076583
0.296623 0.053240 0.726000 7560595
0.297849 0.057626 0.729000 9010323
0.299074 0.062046 0.732000 10984093
0.302343 0.066952 0.740000 7818333
0.303569 0.071470 0.743000 8277591
0.305611 0.076225 0.748000 8541017
0.343569 -0.067757 0.837000 11961490
0.342748 -0.062824 0.835000 11701125
0.341927 -0.057913 0.833000 10123668
0.339464 -0.052770 0.827000 10117980
0.336180 -0.047580 0.819000 10519978
0.334538 -0.042690 0.815000 11698318
0.333307 -0.037893 0.812000 11237506
0.330844 -0.033008 0.806000 11041411
0.328381 -0.028190 0.800000 7026048
0.327560 -0.023560 0.798000 5520736
0.325508 -0.018881 0.793000 9795418
0.323866 -0.014277 0.789000 8341831
0.322634 -0.009731 0.786000 7358539
0.320992 -0.005213 0.782000 10253932
0.318940 -0.000740 0.777000 9332045
0.316067 0.003667 0.770000 7882051
0.315246 0.008046 0.768000 6503486
0.314014 0.012386 0.765000 5914955
0.311962 0.016648 0.760000 9795961
0.309910 0.020852 0.755000 7361618
0.307857 0.025000 0.750000 7746630
0.306626 0.029169 0.747000 10254702
0.304984 0.033258 0.743000 10249825
0.303752 0.037352 0.740000 10379093
0.302110 0.041356 0.736000 9985102
0.300469 0.045314 0.732000 8538957
0.298827 0.049227 0.728000 7743282
0.298006 0.053240 0.726000 6976675
0.299237 0.057626 0.729000 9151146
0.300469 0.062046 0.732000 10650775
0.304573 0.067133 0.742000 8016731
0.305805 0.071662 0.745000 8277590
0.307857 0.076429 0.750000 8671830
0.345988 -0.067919 0.839000 11899296
0.343513 -0.062673 0.833000 11700606
0.342689 -0.057774 0.831000 10715809
0.341039 -0.052770 0.827000 8993866
0.338565 -0.047696 0.821000 10916277
0.336090 -0.042690 0.815000 11506090
0.334853 -0.037893 0.812000 11241631
0.332379 -0.033008 0.806000 11108764
0.329905 -0.028190 0.800000 8408731
0.329080 -0.023560 0.798000 8425374
0.327843 -0.018929 0.795000 9591346
0.324956 -0.014259 0.788000 8408392
0.323307 -0.009707 0.784000 7685967
0.322482 -0.005213 0.782000 10386790
0.320420 -0.000740 0.777000 8866340
0.317533 0.003667 0.770000 7554369
0.316709 0.008046 0.768000 6437178
0.315471 0.012386 0.765000 6576217
0.313410 0.016648 0.760000 9137529
0.311348 0.020852 0.755000 7033181
0.309286 0.025000 0.750000 7752526
0.308461 0.029208 0.748000 9918066
0.306399 0.033258 0.743000 10316388
0.305162 0.037352 0.740000 10444887
0.303925 0.041412 0.737000 10116687
0.301863 0.045314 0.732000 8275790
0.300213 0.049227 0.728000 7814717
0.299389 0.053240 0.726000 8290740
0.300626 0.057626 0.729000 10067393
0.301450 0.061961 0.731000 9860754
0.305987 0.067133 0.742000 8278360
0.307224 0.071662 0.745000 8211797
0.310523 0.076734 0.753000 8539730
0.347586 -0.067919 0.839000 11902626
0.345100 -0.062673 0.833000 11699587
0.344271 -0.057774 0.831000 11309975
0.342614 -0.052770 0.827000 7822436
0.340129 -0.047696 0.821000 11309961
0.337643 -0.042690 0.815000 11244208
0.335571 -0.037800 0.810000 11310249
0.333914 -0.033008 0.806000 11112366
0.332257 -0.028261 0.802000 9803965
0.330600 -0.023560 0.798000 11311514
0.329357 -0.018929 0.795000 9450813
0.326871 -0.014277 0.789000 8407619
0.325629 -0.009731 0.786000 8080201
0.323971 -0.005213 0.782000 10511968
0.321900 -0.000740 0.777000 8405068
0.320243 0.003681 0.773000 7159627
0.318171 0.008046 0.768000 6371897
0.316100 0.012353 0.763000 7228755
0.314857 0.016648 0.760000 8550781
0.312786 0.020852 0.755000 6634080
0.310714 0.025000 0.750000 7815749
0.309886 0.029208 0.748000 9594744
0.307814 0.033258 0.743000 10382444
0.306571 0.037352 0.740000 10445659
0.305329 0.041412 0.737000 10247507
0.303257 0.045314 0.732000 7949135
0.301600 0.049227 0.728000 7873602
0.300771 0.053240 0.726000 9538999
0.302014 0.057626 0.729000 10982844
0.303257 0.062046 0.732000 9009040
0.307400 0.067133 0.742000 8541015
0.309471 0.071854 0.747000 8080207
0.311957 0.076734 0.753000 8341840
0.345854 -0.062523 0.831000 11765129
0.345022 -0.057635 0.829000 11570572
0.344190 -0.052770 0.827000 8874111
0.341692 -0.047696 0.821000 11043933
0.340860 -0.042900 0.819000 11310005
0.337114 -0.037800 0.810000 11309747
0.335450 -0.033008 0.806000 11443392
0.333785 -0.028261 0.802000 11451102
0.332120 -0.023560 0.798000 10327959
0.330871 -0.018929 0.795000 9191751
0.328374 -0.014277 0.789000 8472638
0.327126 -0.009731 0.786000 8144963
0.325461 -0.005213 0.782000 10442843
0.323380 -0.000740 0.777000 9601652
0.321715 0.003681 0.773000 6962005
0.320467 0.008067 0.770000 6174264
0.317553 0.012353 0.763000 8015437
0.316305 0.016648 0.760000 9142144
0.314224 0.020852 0.755000 6696803
0.312143 0.025000 0.750000 7947836
0.311310 0.029208 0.748000 9993342
0.309230 0.033258 0.743000 10121588
0.308813 0.037453 0.742000 10511711
0.306732 0.041412 0.737000 10313558
0.304651 0.045314 0.732000 8079185
0.302987 0.049227 0.728000 7749447
0.302987 0.053387 0.728000 9342394
0.303403 0.057626 0.729000 10854070
0.304651 0.062046 0.732000 8541326
0.308813 0.067133 0.742000 8541014
0.310894 0.071854 0.747000 7882570
0.314224 0.076938 0.755000 8540238
0.347437 -0.062523 0.831000 11765386
0.346601 -0.057635 0.829000 11897229
0.345765 -0.052770 0.827000 9862028
0.343256 -0.047696 0.821000 10775644
0.340748 -0.042690 0.815000 11376808
0.339493 -0.037893 0.812000 11244475
0.336985 -0.033008 0.806000 11773123
0.335312 -0.028261 0.802000 13153746
0.333640 -0.023560 0.798000 9327968
0.333222 -0.018976 0.797000 8932682
0.329877 -0.014277 0.789000 8472898
0.328623 -0.009731 0.786000 8211007
0.326950 -0.005213 0.782000 10321772
0.324860 -0.000740 0.777000 10786897
0.322770 0.003676 0.772000 6702915
0.321933 0.008067 0.770000 5977647
0.319007 0.012353 0.763000 8739918
0.317752 0.016648 0.760000 9658222
0.316080 0.020880 0.756000 6764873
0.313571 0.025000 0.750000 8077373
0.312735 0.029208 0.748000 10387568
0.311481 0.033348 0.745000 9792101
0.310227 0.037453 0.742000 10512736
0.308136 0.041412 0.737000 10313046
0.306046 0.045314 0.732000 8210767
0.304373 0.049227 0.728000 7547204
0.304373 0.053387 0.728000 9078710
0.305628 0.057784 0.731000 10655422
0.306046 0.062046 0.732000 8019590
0.310645 0.067224 0.743000 8606550
0.312735 0.071950 0.748000 7621455
0.315662 0.076938 0.755000 8804179
0.349020 -0.062523 0.831000 11896460
0.348180 -0.057635 0.829000 11832205
0.347340 -0.052770 0.827000 10849689
0.345660 -0.047812 0.823000 10579291
0.343980 -0.042900 0.819000 11181724
0.341040 -0.037893 0.812000 11377090
0.338520 -0.033008 0.806000 12169158
0.336840 -0.028261 0.802000 11443397
0.335160 -0.023560 0.798000 8397098
0.333900 -0.018929 0.795000 8932940
0.331380 -0.014277 0.789000 8407111
0.329280 -0.009707 0.784000 8340026
0.328440 -0.005213 0.782000 10658941
0.326340 -0.000740 0.777000 9135150
0.324240 0.003676 0.772000 6764337
0.322560 0.008046 0.768000 5715238
0.320460 0.012353 0.763000 9072464
0.319200 0.016648 0.760000 8802908
0.317520 0.020880 0.756000 6631983
0.315000 0.025000 0.750000 8342334
0.314160 0.029208 0.748000 10584674
0.312900 0.033348 0.745000 9791573
0.311640 0.037453 0.742000 10775906
0.309540 0.041412 0.737000 10379349
0.308280 0.045438 0.734000 8078670
0.305760 0.049227 0.728000 7619649
0.305760 0.053387 0.728000 9141425
0.307020 0.057784 0.731000 10855109
0.308280 0.062215 0.734000 8078463
0.312060 0.067224 0.743000 8672085
0.315000 0.072143 0.750000 8277332
0.317100 0.076938 0.755000 9132375
0.349759 -0.057635 0.829000 11831434
0.348915 -0.052770 0.827000 11768215
0.346384 -0.047696 0.821000 10448745
0.344696 -0.042795 0.817000 10979203
0.342587 -0.037893 0.812000 11574688
0.340899 -0.033090 0.808000 12495788
0.339211 -0.028331 0.804000 9794404
0.336680 -0.023560 0.798000 7416883
0.336258 -0.018976 0.797000 8998732
0.332883 -0.014277 0.789000 8341577
0.331617 -0.009731 0.786000 8537402
0.329930 -0.005213 0.782000 10983808
0.327820 -0.000740 0.777000 7486010
0.325710 0.003676 0.772000 6830395
0.324023 0.008046 0.768000 5454368
0.321913 0.012353 0.763000 9398131
0.320648 0.016648 0.760000 7949657
0.318960 0.020880 0.756000 6502461
0.316429 0.025000 0.750000 8606790
0.315585 0.029208 0.748000 10779489
0.314319 0.033348 0.745000 9725024
0.313053 0.037453 0.742000 11038310
0.310944 0.041412 0.737000 10379863
0.309678 0.045438 0.734000 7883084
0.307147 0.049227 0.728000 7680059
0.307147 0.053387 0.728000 9208242
0.308412 0.057784 0.731000 11048645
0.309678 0.062215 0.734000 8082561
0.313475 0.067224 0.743000 8737622
0.316429 0.072143 0.750000 8868691
0.318960 0.077040 0.756000 9525588
0.351338 -0.057635 0.829000 11700615
0.350490 -0.052770 0.827000 12032660
0.347948 -0.047696 0.821000 10780023
0.346252 -0.042795 0.817000 10973035
0.344981 -0.037987 0.814000 11175550
0.342438 -0.033090 0.808000 10458259
0.340743 -0.028331 0.804000 6894082
0.338200 -0.023560 0.798000 7947324
0.337776 -0.018976 0.797000 8998732
0.334386 -0.014277 0.789000 8537932
0.333114 -0.009731 0.786000 8801082
0.331419 -0.005213 0.782000 11052932
0.329300 -0.000740 0.777000 7553862
0.327605 0.003681 0.773000 6765126
0.325486 0.008046 0.768000 5973018
0.323367 0.012353 0.763000 10191510
0.322095 0.016648 0.760000 8212053
0.320400 0.020880 0.756000 6765644
0.317857 0.025000 0.750000 8868685
0.317010 0.029208 0.748000 10518113
0.315738 0.033348 0.745000 9923690
0.314467 0.037453 0.742000 11171178
0.313195 0.041525 0.739000 10314329
0.311076 0.045438 0.734000 7948106
0.308533 0.049227 0.728000 7685429
0.308533 0.053387 0.728000 9274802
0.309805 0.057784 0.731000 10918341
0.311924 0.062385 0.736000 8607107
0.315738 0.067405 0.745000 8803158
0.317857 0.072143 0.750000 8935251
0.320400 0.077040 0.756000 9328464
0.352917 -0.057635 0.829000 11504269
0.352066 -0.052770 0.827000 12226449
0.349511 -0.047696 0.821000 11176578
0.347809 -0.042795 0.817000 10972774
0.346531 -0.037987 0.814000 10772833
0.343977 -0.033090 0.808000 8405603
0.342274 -0.028331 0.804000 4067872
0.340571 -0.023619 0.800000 8471614
0.339294 -0.018976 0.797000 8999249
0.336740 -0.014313 0.791000 8670027
0.335463 -0.009756 0.788000 9060926
0.332909 -0.005213 0.782000 11110784
0.330780 -0.000740 0.777000 7552323
0.329077 0.003681 0.773000 6700096
0.327800 0.008067 0.770000 6561855
0.324820 0.012353 0.763000 10981767
0.323543 0.016648 0.760000 8534120
0.321840 0.020880 0.756000 7028299
0.319286 0.025000 0.750000 9196881
0.318434 0.029208 0.748000 10252126
0.317157 0.033348 0.745000 10053757
0.315880 0.037453 0.742000 11303534
0.313751 0.041412 0.737000 10250082
0.312474 0.045438 0.734000 8014409
0.310346 0.049294 0.729000 7682113
0.310346 0.053460 0.729000 9341109
0.311623 0.057863 0.732000 10853567
0.313751 0.062470 0.737000 9135739
0.317157 0.067405 0.745000 8802641
0.320563 0.072431 0.753000 8934994
0.322691 0.077244 0.758000 9131857
0.354496 -0.057635 0.829000 11701394
0.352786 -0.052643 0.825000 11962510
0.351075 -0.047696 0.821000 11176333
0.349365 -0.042795 0.817000 9857121
0.348082 -0.037987 0.814000 10510915
0.345516 -0.033090 0.808000 6821171
0.343806 -0.028331 0.804000 4990781
0.342095 -0.023619 0.800000 8670527
0.340812 -0.018976 0.797000 9064790
0.338247 -0.014313 0.791000 8801611
0.336964 -0.009756 0.788000 9195329
0.334398 -0.005213 0.782000 11113341
0.333115 -0.000742 0.779000 7420735
0.330550 0.003681 0.773000 6700602
0.328411 0.008046 0.768000 7296611
0.327984 0.012418 0.767000 10455416
0.324990 0.016648 0.760000 8803450
0.323280 0.020880 0.756000 7553099
0.321570 0.025067 0.752000 9788501
0.320714 0.029286 0.750000 10118747
0.318576 0.033348 0.745000 10517904
0.317293 0.037453 0.742000 11304563
0.316010 0.041525 0.739000 10118762
0.313872 0.045438 0.734000 8145479
0.311734 0.049294 0.729000 7950412
0.311734 0.053460 0.729000 9142457
0.313872 0.058021 0.734000 10787256
0.315155 0.062470 0.737000 9134195
0.318576 0.067405 0.745000 8868939
0.322852 0.072624 0.755000 8606288
0.324135 0.077244 0.758000 9066577
0.356075 -0.057635 0.829000 11898008
0.355216 -0.052770 0.827000 11634828
0.352639 -0.047696 0.821000 11244436
0.351780 -0.042900 0.819000 8673369
0.349632 -0.037987 0.814000 10251082
0.347055 -0.033090 0.808000 5255222
0.346196 -0.028402 0.806000 5911854
0.343619 -0.023619 0.800000 8866622
0.342330 -0.018976 0.797000 9130575
0.339753 -0.014313 0.791000 8867661
0.338465 -0.009756 0.788000 9260108
0.335888 -0.005213 0.782000 11041410
0.334599 -0.000742 0.779000 7289916
0.332022 0.003681 0.773000 6699835
0.329874 0.008046 0.768000 7965533
0.328586 0.012386 0.765000 9857918
0.326868 0.016670 0.761000 9004916
0.324720 0.020880 0.756000 8013899
0.323002 0.025067 0.752000 10312268
0.322143 0.029286 0.750000 9990236
0.319995 0.033348 0.745000 10978692
0.318707 0.037453 0.742000 11304564
0.317418 0.041525 0.739000 10055276
0.315270 0.045438 0.734000 8210498
0.313123 0.049294 0.729000 8213855
0.313123 0.053460 0.729000 8952509
0.315270 0.058021 0.734000 10722489
0.316559 0.062470 0.737000 9134438
0.320854 0.067586 0.747000 8934737
0.324720 0.072720 0.756000 8213336
0.326438 0.077448 0.760000 9002073
0.355929 -0.052643 0.825000 11634315
0.354203 -0.047696 0.821000 11374490
0.353340 -0.042900 0.819000 8735570
0.351183 -0.037987 0.814000 9722704
0.348594 -0.033090 0.808000 5385785
0.347731 -0.028402 0.806000 5780254
0.345143 -0.023619 0.800000 8934461
0.343849 -0.018976 0.797000 9196103
0.341260 -0.014313 0.791000 9130575
0.339103 -0.009731 0.786000 9393495
0.337377 -0.005213 0.782000 10649992
0.336514 -0.000743 0.780000 7159096
0.333494 0.003681 0.773000 6700092
0.331337 0.008046 0.768000 8353622
0.330043 0.012386 0.765000 8669829
0.328317 0.016670 0.761000 9465709
0.326160 0.020880 0.756000 8736586
0.324434 0.025067 0.752000 10510658
0.323571 0.029286 0.750000 10647901
0.321414 0.033348 0.745000 11174520
0.320120 0.037453 0.742000 11436406
0.318826 0.041525 0.739000 9988462
0.316669 0.045438 0.734000 8211773
0.314511 0.049294 0.729000 8412786
0.315374 0.053607 0.731000 10666177
0.317531 0.058179 0.736000 10458553
0.318826 0.062639 0.739000 9065049
0.322709 0.067676 0.748000 8869463
0.326160 0.072720 0.756000 8476256
0.328317 0.077550 0.761000 9068384
0.357500 -0.052643 0.825000 11635853
0.356633 -0.047812 0.823000 11573392
0.354900 -0.042900 0.819000 8740196
0.352733 -0.037987 0.814000 9263183
0.350133 -0.033090 0.808000 5453626
0.349267 -0.028402 0.806000 5714220
0.346667 -0.023619 0.800000 8997691
0.345367 -0.018976 0.797000 9327170
0.342767 -0.014313 0.791000 9327952
0.341467 -0.009756 0.788000 9587812
0.338867 -0.005213 0.782000 10188922
0.338000 -0.000743 0.780000 7028291
0.335833 0.003690 0.775000 6699582
0.332800 0.008046 0.768000 8745021
0.331500 0.012386 0.765000 7424353
0.329767 0.016670 0.761000 9930616
0.327600 0.020880 0.756000 9393752
0.326300 0.025100 0.753000 10708282
0.325000 0.029286 0.750000 11236956
0.322833 0.033348 0.745000 11371381
0.320667 0.037352 0.740000 11568244
0.319367 0.041412 0.737000 9990763
0.317200 0.045314 0.732000 8210751
0.315467 0.049227 0.728000 8610685
0.315900 0.053460 0.729000 12365481
0.318067 0.058021 0.734000 10259106
0.320233 0.062639 0.739000 8932700
0.325867 0.068038 0.752000 8804442
0.328467 0.072912 0.758000 8674658
0.358201 -0.052515 0.823000 11702926
0.357330 -0.047696 0.821000 11570053
0.356460 -0.042900 0.819000 9592439
0.354284 -0.037987 0.814000 9131085
0.351672 -0.033090 0.808000 5386812
0.349931 -0.028331 0.804000 6042682
0.348190 -0.023619 0.800000 8338745
0.346014 -0.018929 0.795000 9393469
0.344273 -0.014313 0.791000 9591122
0.342968 -0.009756 0.788000 9658993
0.340356 -0.005213 0.782000 9928300
0.339050 -0.000742 0.779000 6896717
0.336004 0.003676 0.772000 6503233
0.333828 0.008035 0.767000 7812900
0.332087 0.012353 0.763000 7210557
0.330781 0.016648 0.760000 10192259
0.328605 0.020852 0.755000 9721702
0.327299 0.025067 0.752000 8929842
0.325558 0.029208 0.748000 11301978
0.323382 0.033258 0.743000 11501681
0.322076 0.037352 0.740000 11700082
0.321641 0.041525 0.739000 9987943
0.318594 0.045314 0.732000 8079937
0.316853 0.049227 0.728000 9206407
0.318159 0.053607 0.731000 10587537
0.320335 0.058179 0.736000 9730187
0.322076 0.062724 0.740000 9130591
0.326429 0.067857 0.750000 8871772
0.329910 0.072912 0.758000 8872037
0.332087 0.077753 0.763000 8873058
0.359769 -0.052515 0.823000 11768721
0.358894 -0.047696 0.821000 11567236
0.357146 -0.042795 0.817000 10451324
0.355834 -0.037987 0.814000 9066832
0.351463 -0.032926 0.804000 5255988
0.350589 -0.028261 0.802000 6436154
0.348840 -0.023560 0.798000 7617344
0.347529 -0.018929 0.795000 9525062
0.344906 -0.014277 0.789000 9853009
0.343594 -0.009731 0.786000 9791846
0.340971 -0.005200 0.780000 9593701
0.340534 -0.000742 0.779000 6830923
0.337474 0.003676 0.772000 6241343
0.335726 0.008046 0.768000 6897971
0.333540 0.012353 0.763000 6970730
0.331354 0.016604 0.758000 10451076
0.330043 0.020852 0.755000 10052976
0.328731 0.025067 0.752000 7151137
0.326983 0.029208 0.748000 11300174
0.325671 0.033348 0.745000 11698288
0.323486 0.037352 0.740000 11830906
0.323049 0.041525 0.739000 9987675
0.319551 0.045252 0.731000 7883074
0.318240 0.049227 0.728000 9795691
0.318677 0.053460 0.729000 8806524
0.321737 0.058179 0.736000 9274769
0.323486 0.062724 0.740000 9262945
0.327857 0.067857 0.750000 9004914
0.331354 0.072912 0.758000 9003882
0.359580 -0.047580 0.819000 11502978
0.358702 -0.042795 0.817000 10849665
0.356507 -0.037893 0.812000 9000530
0.352994 -0.032926 0.804000 5254700
0.352116 -0.028261 0.802000 6567993
0.350360 -0.023560 0.798000 7681607
0.349043 -0.018929 0.795000 9259854
0.346409 -0.014277 0.789000 10246736
0.345091 -0.009731 0.786000 9725531
0.342457 -0.005200 0.780000 9392223
0.341140 -0.000740 0.777000 6831688
0.338945 0.003676 0.772000 6372413
0.337189 0.008046 0.768000 7821634
0.334993 0.012353 0.763000 9414550
0.332798 0.016604 0.758000 10716804
0.331481 0.020852 0.755000 10517882
0.330164 0.025067 0.752000 6625552
0.328408 0.029208 0.748000 11167555
0.327090 0.033348 0.745000 11764078
0.324895 0.037352 0.740000 11896707
0.324456 0.041525 0.739000 9920334
0.321383 0.045314 0.732000 7948611
0.320066 0.049294 0.729000 8998990
0.320944 0.053607 0.731000 9067624
0.323139 0.058179 0.736000 9402518
0.325773 0.062893 0.742000 9263714
0.330603 0.068129 0.753000 9268872
0.332798 0.072912 0.758000 9003886
0.361140 -0.047580 0.819000 11503749
0.360258 -0.042795 0.817000 11174270
0.358935 -0.037987 0.814000 8937302
0.355408 -0.033008 0.806000 5255218
0.353644 -0.028261 0.802000 6700604
0.352762 -0.023619 0.800000 7684674
0.350557 -0.018929 0.795000 9061200
0.347911 -0.014277 0.789000 10640212
0.345707 -0.009707 0.784000 9727077
0.343943 -0.005200 0.780000 9132144
0.342620 -0.000740 0.777000 6831684
0.340415 0.003676 0.772000 6502971
0.338651 0.008046 0.768000 8731456
0.337329 0.012386 0.765000 11831153
0.334242 0.016604 0.758000 10979968
0.332919 0.020852 0.755000 10910070
0.331596 0.025067 0.752000 6168123
0.329832 0.029208 0.748000 11035217
0.327628 0.033258 0.743000 11829607
0.326305 0.037352 0.740000 11961977
0.325864 0.041525 0.739000 9918801
0.322777 0.045314 0.732000 8015177
0.321454 0.049294 0.729000 8273748
0.322336 0.053607 0.731000 9330802
0.324541 0.058179 0.736000 9600894
0.329832 0.063402 0.748000 9264225
0.332919 0.068310 0.755000 9599613
0.334242 0.072912 0.758000 9004394
0.362700 -0.047580 0.819000 11503496
0.361814 -0.042795 0.817000 10909819
0.360929 -0.038033 0.815000 8738649
0.358714 -0.033171 0.810000 5452344
0.355171 -0.028261 0.802000 6700350
0.354286 -0.023619 0.800000 8738365
0.352071 -0.018929 0.795000 9589585
0.349414 -0.014277 0.789000 10378584
0.348086 -0.009731 0.786000 9859951
0.345429 -0.005200 0.780000 9527426
0.344100 -0.000740 0.777000 6896959
0.341886 0.003676 0.772000 6502201
0.340114 0.008046 0.768000 7880254
0.338786 0.012386 0.765000 10243148
0.335686 0.016604 0.758000 10847099
0.334357 0.020852 0.755000 10844018
0.333029 0.025067 0.752000 8277093
0.331257 0.029208 0.748000 10773343
0.329929 0.033348 0.745000 11565919
0.327714 0.037352 0.740000 11961711
0.326386 0.041412 0.737000 10051156
0.325057 0.045438 0.734000 8211536
0.322843 0.049294 0.729000 8738650
0.323729 0.053607 0.731000 8604028
0.327271 0.058416 0.739000 9662822
0.331257 0.063402 0.748000 8936799
0.334800 0.068400 0.756000 9334642
0.364260 -0.047580 0.819000 11504516
0.364260 -0.042900 0.819000 10580076
0.362036 -0.037987 0.814000 8541540
0.359368 -0.033090 0.808000 5649209
0.357589 -0.028331 0.804000 6763836
0.355810 -0.023619 0.800000 9786430
0.353586 -0.018929 0.795000 10115155
0.350917 -0.014277 0.789000 10051678
0.349583 -0.009731 0.786000 9927788
0.346914 -0.005200 0.780000 9925482
0.345580 -0.000740 0.777000 7027531
0.343356 0.003676 0.772000 6436925
0.341577 0.008046 0.768000 6963519
0.340243 0.012386 0.765000 8670290
0.337130 0.016604 0.758000 10714484
0.335795 0.020852 0.755000 10777970
0.334461 0.025067 0.752000 10380387
0.332682 0.029208 0.748000 10444895
0.331348 0.033348 0.745000 11369057
0.330013 0.037453 0.742000 11895657
0.327790 0.041412 0.737000 10182746
0.326455 0.045438 0.734000 8343891
0.324231 0.049294 0.729000 9263462
0.325121 0.053607 0.731000 7824510
0.328679 0.058416 0.739000 9726057
0.330458 0.062978 0.743000 8544362
0.336240 0.068400 0.756000 9137013
0.365820 -0.047580 0.819000 11701119
0.365820 -0.042900 0.819000 10313310
0.363587 -0.037987 0.814000 8213870
0.360907 -0.033090 0.808000 5255482
0.359120 -0.028331 0.804000 5711673
0.357333 -0.023619 0.800000 9852991
0.355100 -0.018929 0.795000 10312789
0.352420 -0.014277 0.789000 10051683
0.351080 -0.009731 0.786000 9794921
0.349293 -0.005213 0.782000 9531987
0.347060 -0.000740 0.777000 7162198
0.344827 0.003676 0.772000 6568001
0.343040 0.008046 0.768000 7225408
0.342593 0.012418 0.767000 9461079
0.338573 0.016604 0.758000 10974572
0.337680 0.020880 0.756000 10974578
0.336340 0.025100 0.753000 10446432
0.334107 0.029208 0.748000 10576480
0.332767 0.033348 0.745000 11171427
0.331427 0.037453 0.742000 11108451
0.329193 0.041412 0.737000 10249567
0.327853 0.045438 0.734000 8606550
0.326513 0.049430 0.731000 9265777
0.326960 0.053680 0.732000 8416640
0.329193 0.058258 0.737000 9463147
0.331873 0.062978 0.743000 8937844
0.337680 0.068400 0.756000 9006200
0.366483 -0.042795 0.817000 10052703
0.365137 -0.037987 0.814000 7952719
0.362446 -0.033090 0.808000 4798790
0.360651 -0.028331 0.804000 4663876
0.358857 -0.023619 0.800000 9915462
0.356614 -0.018929 0.795000 10509652
0.353923 -0.014277 0.789000 10054238
0.352577 -0.009731 0.786000 9725277
0.350783 -0.005213 0.782000 9133647
0.347643 -0.000738 0.775000 7356240
0.345400 0.003667 0.770000 6633531
0.344503 0.008046 0.768000 7553348
0.344054 0.012418 0.767000 10247514
0.340914 0.016648 0.760000 11236973
0.339120 0.020880 0.756000 11172206
0.337774 0.025100 0.753000 10577765
0.335531 0.029208 0.748000 10643555
0.335083 0.033437 0.747000 11039591
0.331943 0.037352 0.740000 10252640
0.330597 0.041412 0.737000 10382428
0.329251 0.045438 0.734000 8803673
0.328354 0.049497 0.732000 9266798
0.328354 0.053680 0.732000 9006963
0.330597 0.058258 0.737000 9200489
0.368940 -0.042900 0.819000 10182496
0.365787 -0.037893 0.812000 7226159
0.363985 -0.033090 0.808000 5521491
0.362183 -0.028331 0.804000 5846606
0.360381 -0.023619 0.800000 9984078
0.358129 -0.018929 0.795000 10510418
0.355426 -0.014277 0.789000 9662297
0.354975 -0.009756 0.788000 9590864
0.352272 -0.005213 0.782000 8933707
0.350020 -0.000740 0.777000 7290441
0.347768 0.003676 0.772000 6239285
0.345966 0.008046 0.768000 7749960
0.345515 0.012418 0.767000 10511965
0.342362 0.016648 0.760000 11237742
0.340560 0.020880 0.756000 11172202
0.339209 0.025100 0.753000 10709865
0.336956 0.029208 0.748000 10841447
0.336506 0.033437 0.747000 10908779
0.334253 0.037453 0.742000 9987164
0.332001 0.041412 0.737000 10447448
0.330650 0.045438 0.734000 9196893
0.329749 0.049497 0.732000 9333355
0.330650 0.053827 0.734000 9204582
0.331550 0.058179 0.736000 9332326
0.368238 -0.042638 0.814000 10250087
0.367333 -0.037893 0.812000 6501938
0.365524 -0.033090 0.808000 6243649
0.363714 -0.028331 0.804000 6963280
0.361905 -0.023619 0.800000 10049103
0.360548 -0.018976 0.797000 10511187
0.356929 -0.014277 0.789000 9265239
0.356476 -0.009756 0.788000 9459035
0.354667 -0.005227 0.784000 8739423
0.351500 -0.000740 0.777000 7289665
0.349238 0.003676 0.772000 5781052
0.347429 0.008046 0.768000 8010314
0.346976 0.012418 0.767000 10775138
0.343810 0.016648 0.760000 11238254
0.342000 0.020880 0.756000 11106153
0.340643 0.025100 0.753000 10841706
0.338381 0.029208 0.748000 10973547
0.337024 0.033348 0.745000 10777960
0.334762 0.037352 0.740000 9660251
0.332952 0.041356 0.736000 10447194
0.332048 0.045438 0.734000 9591138
0.332048 0.049632 0.734000 9402474
0.332048 0.053827 0.734000 9334388
0.332952 0.058179 0.736000 9528693
0.369789 -0.042638 0.814000 10250606
0.368880 -0.037893 0.812000 5842997
0.367063 -0.033090 0.808000 6245424
0.365246 -0.028331 0.804000 7753297
0.363429 -0.023619 0.800000 10050641
0.362066 -0.018976 0.797000 10576724
0.358431 -0.014277 0.789000 9131349
0.357977 -0.009756 0.788000 9329766
0.356160 -0.005227 0.784000 8944756
0.352980 -0.000740 0.777000 7093049
0.350709 0.003676 0.772000 6108739
0.348891 0.008046 0.768000 8340555
0.347529 0.012386 0.765000 10974312
0.345257 0.016648 0.760000 11172461
0.343440 0.020880 0.756000 11040360
0.342077 0.025100 0.753000 10973290
0.339806 0.029208 0.748000 11040111
0.338443 0.033348 0.745000 10645604
0.336171 0.037352 0.740000 10119002
0.334354 0.041356 0.736000 10578523
0.334354 0.045562 0.736000 9853799
0.334354 0.049768 0.736000 9269097
0.333446 0.053827 0.734000 9730435
0.369514 -0.037800 0.810000 5251115
0.368602 -0.033090 0.808000 6174258
0.366777 -0.028331 0.804000 8541784
0.364952 -0.023619 0.800000 10050901
0.363584 -0.018976 0.797000 10707800
0.360847 -0.014313 0.791000 8935508
0.359478 -0.009756 0.788000 9196891
0.357653 -0.005227 0.784000 9138023
0.354460 -0.000740 0.777000 6895419
0.352635 0.003681 0.773000 6437958
0.350354 0.008046 0.768000 8733522
0.348986 0.012386 0.765000 11169635
0.346705 0.016648 0.760000 11172203
0.344880 0.020880 0.756000 10974307
0.343511 0.025100 0.753000 11104619
0.341230 0.029208 0.748000 11106161
0.339862 0.033348 0.745000 10579297
0.337581 0.037352 0.740000 10512988
0.335756 0.041356 0.736000 10775132
0.335756 0.045562 0.736000 10118503
0.335756 0.049768 0.736000 9202281
0.371057 -0.037800 0.810000 5187361
0.369225 -0.033008 0.806000 5904692
0.368309 -0.028331 0.804000 8805214
0.366476 -0.023619 0.800000 10116185
0.365102 -0.018976 0.797000 10577243
0.361437 -0.014277 0.789000 9262419
0.360979 -0.009756 0.788000 9000272
0.359147 -0.005227 0.784000 8807770
0.355940 -0.000740 0.777000 6831676
0.354108 0.003681 0.773000 6831689
0.352733 0.008067 0.770000 9327960
0.351359 0.012418 0.767000 11039070
0.348152 0.016648 0.760000 11105640
0.346320 0.020880 0.756000 10973791
0.344946 0.025100 0.753000 11236460
0.342655 0.029208 0.748000 11106420
0.342197 0.033437 0.747000 10052446
0.338990 0.037352 0.740000 10711647
0.337158 0.041356 0.736000 10709597
0.337158 0.045562 0.736000 10318183
0.337616 0.049835 0.737000 9004905
0.372600 -0.037800 0.810000 5121125
0.370760 -0.033008 0.806000 5645867
0.369840 -0.028331 0.804000 9001813
0.368000 -0.023619 0.800000 10183770
0.367080 -0.019000 0.798000 10446686
0.362940 -0.014277 0.789000 9591891
0.362480 -0.009756 0.788000 8804434
0.361560 -0.005240 0.786000 8416863
0.358340 -0.000742 0.779000 6762798
0.355580 0.003681 0.773000 7160651
0.354200 0.008067 0.770000 9984597
0.352820 0.012418 0.767000 10907486
0.349600 0.016648 0.760000 11038823
0.347760 0.020880 0.756000 10973281
0.346380 0.025100 0.753000 11301991
0.344080 0.029208 0.748000 11105642
0.342700 0.033348 0.745000 9591629
0.340400 0.037352 0.740000 10840666
0.338560 0.041356 0.736000 10709086
0.338560 0.045562 0.736000 10449253
0.339020 0.049835 0.737000 8804731
0.372295 -0.033008 0.806000 5781538
0.370448 -0.028261 0.802000 9130572
0.369524 -0.023619 0.800000 10186076
0.368138 -0.018976 0.797000 10578273
0.365367 -0.014313 0.791000 9789267
0.363981 -0.009756 0.788000 8738387
0.362133 -0.005227 0.784000 8090725
0.359824 -0.000742 0.779000 6829855
0.357976 0.003690 0.775000 7620429
0.356590 0.008088 0.772000 10248785
0.353357 0.012386 0.765000 10972767
0.351048 0.016648 0.760000 10907493
0.349200 0.020880 0.756000 10972515
0.347814 0.025100 0.753000 11104866
0.346429 0.029286 0.750000 10777697
0.344119 0.033348 0.745000 9656123
0.341810 0.037352 0.740000 10708822
0.339962 0.041356 0.736000 10709343
0.339962 0.045562 0.736000 10187364
0.340424 0.049835 0.737000 9466764
0.373830 -0.033008 0.806000 5846859
0.372903 -0.028331 0.804000 9326416
0.371048 -0.023619 0.800000 10183765
0.369656 -0.018976 0.797000 10710383
0.366873 -0.014313 0.791000 9985365
0.365482 -0.009756 0.788000 8670285
0.363627 -0.005227 0.784000 7753553
0.361308 -0.000742 0.779000 6961452
0.358525 0.003681 0.773000 8013900
0.358061 0.008088 0.772000 10511697
0.355742 0.012418 0.767000 10972252
0.352495 0.016648 0.760000 10841442
0.350640 0.020880 0.756000 10906211
0.349249 0.025100 0.753000 10907748
0.347857 0.029286 0.750000 10381663
0.345538 0.033348 0.745000 9786695
0.343219 0.037352 0.740000 10577237
0.341828 0.041412 0.737000 10775139
0.341364 0.045562 0.736000 9855091
0.344147 0.050173 0.742000 10065052
0.374434 -0.032926 0.804000 7094132
0.373503 -0.028261 0.802000 9328212
0.372571 -0.023619 0.800000 9722445
0.371640 -0.019000 0.798000 10449276
0.368380 -0.014313 0.791000 10050902
0.366983 -0.009756 0.788000 8539206
0.366051 -0.005240 0.786000 7354941
0.362791 -0.000742 0.779000 6830393
0.360929 0.003690 0.775000 8540747
0.359531 0.008088 0.772000 10576720
0.357203 0.012418 0.767000 10906201
0.354409 0.016670 0.761000 10840671
0.353011 0.020935 0.758000 10708579
0.350683 0.025100 0.753000 10381413
0.349286 0.029286 0.750000 9591644
0.346026 0.033258 0.743000 9919571
0.344629 0.037352 0.740000 10510677
0.343231 0.041412 0.737000 10513254
0.342766 0.045562 0.736000 8278915
0.347889 0.050511 0.747000 11312812
0.375966 -0.032926 0.804000 8354190
0.375030 -0.028261 0.802000 9394002
0.374095 -0.023619 0.800000 9264980
0.372692 -0.018976 0.797000 10252650
0.369887 -0.014313 0.791000 10119257
0.368484 -0.009756 0.788000 8408136
0.367549 -0.005240 0.786000 6962245
0.364275 -0.000742 0.779000 6699822
0.362405 0.003690 0.775000 8998477
0.361002 0.008088 0.772000 10707789
0.358664 0.012418 0.767000 10839896
0.355858 0.016670 0.761000 10905438
0.354455 0.020935 0.758000 10511457
0.353052 0.025167 0.755000 9790560
0.350714 0.029286 0.750000 8739671
0.347441 0.033258 0.743000 10051923
0.346973 0.037453 0.742000 10379606
0.345570 0.041525 0.739000 10317167
0.344168 0.045562 0.736000 6713481
0.349311 0.050511 0.747000 12560295
0.376558 -0.028261 0.802000 9856847
0.374680 -0.023560 0.798000 9988955
0.374210 -0.018976 0.797000 10052184
0.372332 -0.014350 0.793000 9924188
0.369985 -0.009756 0.788000 8475210
0.369046 -0.005240 0.786000 7027533
0.366229 -0.000743 0.780000 7158306
0.363881 0.003690 0.775000 9523790
0.362472 0.008088 0.772000 10640970
0.360594 0.012434 0.768000 10708311
0.357308 0.016670 0.761000 10642781
0.354960 0.020880 0.756000 10445151
0.353551 0.025100 0.753000 9658714
0.352143 0.029286 0.750000 9395795
0.348856 0.033258 0.743000 10117459
0.348387 0.037453 0.742000 10313560
0.346978 0.041525 0.739000 9463159
0.345570 0.045562 0.736000 9339792
0.346039 0.049835 0.737000 12690338
0.378086 -0.028261 0.802000 10387074
0.375729 -0.023530 0.797000 10644836
0.374786 -0.018929 0.795000 9919829
0.372900 -0.014313 0.791000 9656656
0.371486 -0.009756 0.788000 8607562
0.370543 -0.005240 0.786000 7094860
0.367243 -0.000742 0.779000 7682098
0.365357 0.003690 0.775000 9983053
0.363943 0.008088 0.772000 10574670
0.361586 0.012418 0.767000 10576215
0.358757 0.016670 0.761000 10380645
0.357343 0.020935 0.758000 10380382
0.354986 0.025100 0.753000 9526857
0.353571 0.029286 0.750000 10050639
0.350271 0.033258 0.743000 10248787
0.348857 0.037352 0.740000 10183004
0.348386 0.041525 0.739000 8545391
0.347443 0.045624 0.737000 11965854
0.379613 -0.028261 0.802000 11309748
0.377247 -0.023530 0.797000 10775916
0.376300 -0.018929 0.795000 10184274
0.374407 -0.014313 0.791000 9453380
0.372987 -0.009756 0.788000 8015177
0.372040 -0.005240 0.786000 7425612
0.368727 -0.000742 0.779000 8145986
0.366833 0.003690 0.775000 9853004
0.365413 0.008088 0.772000 10509394
0.363047 0.012418 0.767000 10575959
0.360207 0.016670 0.761000 10119277
0.358787 0.020935 0.758000 9528669
0.356420 0.025100 0.753000 9196087
0.355000 0.029286 0.750000 10050636
0.352633 0.033348 0.745000 10379603
0.351213 0.037453 0.742000 9855073
0.349793 0.041525 0.739000 9204327
0.381141 -0.028261 0.802000 12297388
0.378765 -0.023530 0.797000 10846089
0.376864 -0.018881 0.793000 10448983
0.374963 -0.014277 0.789000 9258565
0.374488 -0.009756 0.788000 7420484
0.373537 -0.005240 0.786000 7687227
0.370210 -0.000742 0.779000 8607051
0.368310 0.003690 0.775000 9656909
0.367359 0.008098 0.773000 10444371
0.364508 0.012418 0.767000 10511189
0.361656 0.016670 0.761000 9857368
0.360230 0.020935 0.758000 8607053
0.357854 0.025100 0.753000 8867906
0.356429 0.029286 0.750000 9985102
0.353102 0.033258 0.743000 10445651
0.351676 0.037352 0.740000 9528169
0.351676 0.041581 0.740000 9865100
0.380283 -0.023530 0.797000 11833767
0.377420 -0.018833 0.791000 10512988
0.376466 -0.014277 0.789000 9062981
0.375989 -0.009756 0.788000 7420990
0.374080 -0.005227 0.784000 7551787
0.371694 -0.000742 0.779000 8540499
0.369786 0.003690 0.775000 9459790
0.368354 0.008088 0.772000 9590868
0.365969 0.012418 0.767000 9592404
0.363106 0.016670 0.761000 8998723
0.361674 0.020935 0.758000 8801085
0.359289 0.025100 0.753000 9065293
0.357857 0.029286 0.750000 9919056
0.354517 0.033258 0.743000 9920595
0.354040 0.037453 0.742000 9267825
0.380843 -0.023471 0.795000 12754598
0.378927 -0.018833 0.791000 10645899
0.377969 -0.014277 0.789000 8865872
0.377490 -0.009756 0.788000 7357759
0.374615 -0.005213 0.782000 7423040
0.373178 -0.000742 0.779000 8538451
0.371262 0.003690 0.775000 9262152
0.369825 0.008088 0.772000 8737616
0.367430 0.012418 0.767000 8672072
0.364076 0.016648 0.760000 8208712
0.363118 0.020935 0.758000 8932931
0.360723 0.025100 0.753000 9262407
0.358328 0.029208 0.748000 9852494
0.355932 0.033258 0.743000 9395818
0.354495 0.037352 0.740000 8946833
0.382357 -0.023471 0.795000 12886437
0.380433 -0.018833 0.791000 11439546
0.379471 -0.014277 0.789000 8536155
0.378029 -0.009731 0.786000 7880767
0.376105 -0.005213 0.782000 8739412
0.374662 -0.000742 0.779000 9197139
0.372738 0.003690 0.775000 9391427
0.371295 0.008088 0.772000 9065036
0.368890 0.012418 0.767000 9065021
0.365524 0.016648 0.760000 8736332
0.364562 0.020935 0.758000 8999241
0.362157 0.025100 0.753000 8998721
0.359752 0.029208 0.748000 9325901
0.357348 0.033258 0.743000 9794432
0.355905 0.037352 0.740000 11050417
0.379526 -0.009731 0.786000 8468318
0.376629 -0.005200 0.780000 10050904
0.376146 -0.000742 0.779000 9855572
0.373249 0.003681 0.773000 9459790
0.371800 0.008067 0.770000 9327953
0.370351 0.012418 0.767000 9459272
0.366971 0.016648 0.760000 9262417
0.366006 0.020935 0.758000 8998729
0.363591 0.025100 0.753000 8735297
0.361177 0.029208 0.748000 8738930
0.357314 0.033124 0.740000 10261143
0.357314 0.037352 0.740000 13150382
0.381023 -0.009731 0.786000 9527933
0.378114 -0.005200 0.780000 10052445
0.375690 -0.000738 0.775000 9921108
0.374236 0.003676 0.772000 9790041
0.373267 0.008067 0.770000 9656918
0.371812 0.012418 0.767000 9721939
0.368419 0.016648 0.760000 9327701
0.367450 0.020935 0.758000 8735817
0.365026 0.025100 0.753000 8865601
0.362602 0.029208 0.748000 10452632
0.358724 0.033124 0.740000 11575214
0.377167 -0.000738 0.775000 9986667
0.375707 0.003676 0.772000 10051422
0.374733 0.008067 0.770000 9985877
0.373273 0.012418 0.767000 9919058
0.369867 0.016648 0.760000 9391962
0.368893 0.020935 0.758000 8473447
0.367433 0.025167 0.755000 9067641
0.365000 0.029286 0.750000 12099492
0.360133 0.033124 0.740000 12888234
0.377666 -0.000736 0.773000 10712450
0.374734 0.003652 0.767000 10181476
0.374734 0.008035 0.767000 9986387
0.372780 0.012353 0.763000 9787729
0.370337 0.016604 0.758000 9854047
0.369360 0.020880 0.756000 9921670
0.367406 0.025067 0.752000 11178929
0.366429 0.029286 0.750000 12561839
0.366429 0.033571 0.750000 12821670
0.379138 -0.000736 0.773000 11440791
0.376195 0.003652 0.767000 10323081
0.376195 0.008035 0.767000 10055810
0.374233 0.012353 0.763000 9662847
0.371781 0.016604 0.758000 10323082
0.370800 0.020880 0.756000 11311262
0.368838 0.025067 0.752000 13350829
0.380118 0.003676 0.772000 11642543
0.373225 0.016604 0.758000 11640244
0.372240 0.020880 0.756000 12300471
0.374669 0.016604 0.758000 13019055
0.186069 0.005360 0.804000 6502450
0.187133 0.005347 0.802000 6371117
0.187133 0.009930 0.802000 5975593
0.186667 0.014476 0.800000 5647143
0.188067 0.019190 0.806000 5451035
0.188661 0.005347 0.802000 6305578
0.188661 0.009930 0.802000 5844770
0.188190 0.014476 0.800000 5385254
0.189131 0.019143 0.804000 4861731
0.190189 0.005347 0.802000 6239783
0.190189 0.009930 0.802000 6106652
0.189240 0.014440 0.798000 6636068
0.190189 0.019095 0.802000 6305578
0.191238 0.005333 0.800000 6107692
0.191238 0.009905 0.800000 6303778
0.190760 0.014440 0.798000 7950137
0.191238 0.019048 0.800000 7750701
0.190593 -0.021847 0.791000 6769219
0.190593 -0.017327 0.791000 6573371
0.192762 0.005333 0.800000 5909809
0.192280 0.009880 0.798000 5843241
0.192039 0.014422 0.797000 8278861
0.192039 0.018976 0.797000 7818288
0.192762 0.023619 0.800000 6831404
0.194286 -0.040381 0.800000 9332054
0.194286 -0.035810 0.800000 6240319
0.193071 -0.026500 0.795000 7620668
0.191614 -0.021791 0.789000 7095869
0.191371 -0.017261 0.788000 6571569
0.190886 -0.012726 0.786000 5650218
0.191371 -0.003752 0.788000 7228727
0.191614 0.000751 0.789000 6440764
0.193557 0.005313 0.797000 5777208
0.193557 0.009868 0.797000 5384475
0.193071 0.014386 0.795000 8607287
0.193071 0.018929 0.795000 7818027
0.193557 0.023530 0.797000 6569003
0.197278 -0.045290 0.806000 9525590
0.195810 -0.040381 0.800000 7880234
0.195810 -0.035810 0.800000 6894891
0.195320 -0.031160 0.798000 7948099
0.194586 -0.026500 0.795000 7749689
0.193117 -0.021791 0.789000 6961974
0.192383 -0.017217 0.786000 6504231
0.191404 -0.012661 0.782000 6109487
0.191404 -0.008192 0.782000 5911350
0.191893 -0.003733 0.784000 5847061
0.192383 0.000749 0.786000 6249540
0.193607 0.005273 0.791000 5913406
0.194096 0.009818 0.793000 4793613
0.193607 0.014313 0.791000 7618337
0.193607 0.018833 0.791000 8014886
0.193607 0.023353 0.791000 7490346
0.193607 0.027873 0.791000 7354922
0.194096 0.032475 0.793000 6895153
0.198813 -0.045290 0.806000 7356234
0.197827 -0.040482 0.802000 6435130
0.197333 -0.035810 0.800000 7552562
0.196840 -0.031160 0.798000 8275779
0.195607 -0.026433 0.793000 7815997
0.194373 -0.021764 0.788000 6831162
0.193880 -0.017217 0.786000 6436912
0.192400 -0.012629 0.780000 6567717
0.192153 -0.008161 0.779000 5847094
0.192153 -0.003710 0.779000 4468515
0.192893 0.000745 0.782000 5979953
0.194373 0.005253 0.788000 6116662
0.194373 0.009756 0.788000 4204571
0.194373 0.014259 0.788000 6630183
0.194620 0.018786 0.789000 8212260
0.194620 0.023294 0.789000 8410429
0.194620 0.027803 0.789000 7486765
0.195113 0.032393 0.791000 6963249
0.195113 0.036913 0.791000 6959659
0.200349 -0.045290 0.806000 7946815
0.199354 -0.040482 0.802000 6961738
0.198857 -0.035810 0.800000 7749689
0.198111 -0.031121 0.797000 8538434
0.196123 -0.026300 0.789000 7947586
0.195874 -0.021764 0.788000 6963262
0.194383 -0.017130 0.782000 6502969
0.193637 -0.012612 0.779000 6173978
0.193140 -0.008140 0.777000 5977911
0.193140 -0.003700 0.777000 5257265
0.193637 0.000742 0.779000 5841181
0.194383 0.005213 0.782000 5981741
0.194383 0.009682 0.782000 4992553
0.194383 0.014150 0.782000 6039085
0.195874 0.018762 0.788000 7818530
0.195874 0.023265 0.788000 8476240
0.195874 0.027768 0.788000 7485232
0.196123 0.032311 0.789000 7686961
0.196620 0.036913 0.791000 7424555
0.202385 -0.045402 0.808000 8538178
0.200882 -0.040482 0.802000 7486798
0.199880 -0.035720 0.798000 7881284
0.199630 -0.031121 0.797000 8800842
0.198127 -0.026367 0.791000 8012357
0.197375 -0.021764 0.788000 7094341
0.195872 -0.017130 0.782000 6569532
0.194620 -0.012580 0.777000 5847595
0.194119 -0.008119 0.775000 6043196
0.194119 -0.003690 0.775000 6044730
0.194620 0.000740 0.777000 5714213
0.195121 0.005193 0.779000 5911088
0.194620 0.009620 0.777000 5785404
0.195371 0.014114 0.780000 5448250
0.196373 0.018667 0.784000 7420191
0.196874 0.023206 0.786000 8542017
0.196874 0.027697 0.786000 7485747
0.197375 0.032270 0.788000 8343600
0.197626 0.036820 0.789000 7819057
0.204933 -0.050267 0.812000 9129805
0.203419 -0.045290 0.806000 8604742
0.202914 -0.040583 0.804000 7683921
0.201400 -0.035720 0.798000 8077136
0.200643 -0.031043 0.795000 8734801
0.199633 -0.026367 0.791000 7945800
0.198876 -0.021764 0.788000 7159372
0.197362 -0.017130 0.782000 6700864
0.196100 -0.012580 0.777000 6372924
0.195595 -0.008119 0.775000 6633794
0.195090 -0.003681 0.773000 6372163
0.195090 0.000736 0.773000 6175789
0.195595 0.005167 0.775000 6041395
0.195595 0.009595 0.775000 6117455
0.196605 0.014096 0.779000 5976903
0.196857 0.018571 0.780000 7023132
0.197362 0.023088 0.782000 7618097
0.197362 0.027556 0.782000 6958646
0.197867 0.032107 0.784000 8672302
0.198876 0.036773 0.788000 8016696
0.206480 -0.050267 0.812000 9392715
0.205463 -0.045402 0.808000 8604236
0.204446 -0.040583 0.804000 7947094
0.202920 -0.035720 0.798000 8211281
0.202157 -0.031043 0.795000 8669537
0.201140 -0.026367 0.791000 7882319
0.200377 -0.021764 0.788000 7224145
0.198851 -0.017130 0.782000 6831684
0.197071 -0.012548 0.775000 6897478
0.196563 -0.008098 0.773000 7225154
0.196309 -0.003676 0.772000 6699068
0.196309 0.000735 0.772000 6634293
0.196563 0.005153 0.773000 6172722
0.196563 0.009570 0.773000 6371893
0.196563 0.013988 0.773000 6572606
0.197580 0.018500 0.777000 6631716
0.198089 0.022999 0.779000 6763311
0.198343 0.027486 0.780000 6434863
0.198851 0.032025 0.782000 9066035
0.199869 0.036680 0.786000 8213306
0.208795 -0.055110 0.815000 10312528
0.208027 -0.050267 0.812000 9392713
0.207002 -0.045402 0.808000 8734547
0.205977 -0.040583 0.804000 8407131
0.204952 -0.035810 0.800000 8478546
0.203671 -0.031043 0.795000 9200241
0.202647 -0.026367 0.791000 8413271
0.201878 -0.021764 0.788000 7358293
0.200341 -0.017130 0.782000 7093065
0.198548 -0.012548 0.775000 7290448
0.198035 -0.008098 0.773000 7817027
0.197267 -0.003667 0.770000 7882548
0.196754 0.000731 0.768000 7027774
0.197267 0.005133 0.770000 6435377
0.197779 0.009558 0.772000 6434075
0.197779 0.013970 0.772000 6768437
0.197779 0.018381 0.772000 6960940
0.198035 0.022822 0.773000 6895660
0.198548 0.027310 0.775000 6236969
0.199060 0.031820 0.777000 8935223
0.200853 0.036587 0.784000 8344892
0.201366 0.041171 0.786000 8343617
0.210864 -0.055245 0.817000 10377808
0.209573 -0.050267 0.812000 9458250
0.209057 -0.045514 0.810000 8867930
0.207509 -0.040583 0.804000 8867931
0.206476 -0.035810 0.800000 8673875
0.205186 -0.031043 0.795000 9660759
0.204153 -0.026367 0.791000 8871502
0.203379 -0.021764 0.788000 7559251
0.202347 -0.017173 0.784000 7293018
0.200024 -0.012548 0.775000 7617871
0.199508 -0.008098 0.773000 8408142
0.198733 -0.003667 0.770000 9000256
0.198217 0.000731 0.768000 7355707
0.198217 0.005120 0.768000 6698552
0.198733 0.009533 0.770000 6502693
0.198733 0.013933 0.770000 6961723
0.198733 0.018333 0.770000 7228209
0.199250 0.022792 0.772000 7028019
0.199250 0.027204 0.772000 5976362
0.200024 0.031738 0.775000 8804424
0.201056 0.036353 0.779000 8475968
0.201830 0.040962 0.782000 8605505
0.212420 -0.055245 0.817000 10443856
0.211640 -0.050390 0.814000 9654346
0.210600 -0.045514 0.810000 8938848
0.209040 -0.040583 0.804000 8608091
0.208000 -0.035810 0.800000 8079956
0.207220 -0.031121 0.797000 8867644
0.205660 -0.026367 0.791000 7815493
0.204880 -0.021764 0.788000 7359056
0.203840 -0.017173 0.784000 7494251
0.201500 -0.012548 0.775000 7885389
0.200980 -0.008098 0.773000 8801882
0.200200 -0.003667 0.770000 9393483
0.199420 0.000730 0.767000 8539192
0.199420 0.005113 0.767000 6960447
0.199420 0.009496 0.767000 6899504
0.199680 0.013897 0.768000 6372416
0.199680 0.018286 0.768000 7560502
0.200200 0.022733 0.770000 7290681
0.200200 0.027133 0.770000 6500908
0.200980 0.031656 0.773000 8804952
0.202020 0.036260 0.777000 8607300
0.202800 0.040857 0.780000 8278080
0.202800 0.045314 0.780000 7292712
0.214500 -0.060060 0.819000 10575186
0.213976 -0.055245 0.817000 10508627
0.213452 -0.050452 0.815000 9850465
0.212143 -0.045514 0.810000 9002070
0.210571 -0.040583 0.804000 8345684
0.210048 -0.035899 0.802000 7423046
0.208738 -0.031121 0.797000 8078141
0.206643 -0.026300 0.789000 6765376
0.206381 -0.021764 0.788000 7157815
0.205333 -0.017173 0.784000 7687246
0.203500 -0.012580 0.777000 8217682
0.202452 -0.008098 0.773000 9198168
0.201667 -0.003667 0.770000 9721168
0.200881 0.000730 0.767000 9720902
0.200357 0.005100 0.765000 7288389
0.200357 0.009471 0.765000 7292467
0.200357 0.013843 0.765000 5849148
0.200881 0.018262 0.767000 7816505
0.201143 0.022674 0.768000 7618354
0.201143 0.027063 0.768000 6960682
0.202190 0.031615 0.772000 8805692
0.202976 0.036167 0.775000 8673082
0.204024 0.040805 0.779000 7950389
0.204286 0.045314 0.780000 6174766
0.216588 -0.064898 0.821000 10308674
0.216060 -0.060060 0.819000 10640208
0.215532 -0.055245 0.817000 10639703
0.215005 -0.050452 0.815000 9856631
0.214213 -0.045627 0.812000 8668236
0.212630 -0.040684 0.806000 8143949
0.211575 -0.035899 0.802000 7749688
0.210256 -0.031121 0.797000 8407101
0.208673 -0.026367 0.791000 6961212
0.207882 -0.021764 0.788000 6764574
0.207354 -0.017217 0.786000 7354161
0.204980 -0.012580 0.777000 8146774
0.203925 -0.008098 0.773000 9532503
0.203133 -0.003667 0.770000 9786709
0.202342 0.000730 0.767000 9789012
0.201814 0.005100 0.765000 8078923
0.200759 0.009422 0.761000 7488823
0.201287 0.013807 0.763000 6439736
0.202342 0.018262 0.767000 6957884
0.202342 0.022645 0.767000 7556906
0.202606 0.027063 0.768000 7353896
0.203133 0.031533 0.770000 8869151
0.203925 0.036073 0.773000 8739377
0.204452 0.040595 0.775000 7619626
0.204980 0.045140 0.777000 5904692
0.219214 -0.065214 0.825000 10308421
0.217620 -0.060060 0.819000 10705745
