# .PCD v.7 - Point Cloud Data file format
VERSION .7
FIELDS x y z rgb
SIZE 4 4 4 4
TYPE F F F I
COUNT 1 1 1 1
WIDTH 1324
HEIGHT 1
POINTS 1324
DATA ascii
0.219796 -0.242032 0.898000 7620699
0.217593 -0.234527 0.889000 7225686
0.214901 -0.226608 0.878000 9198937
0.213677 -0.220329 0.873000 7355199
0.213677 -0.215340 0.873000 6833980
0.214167 -0.210833 0.875000 6702930
0.215390 -0.207010 0.880000 6565179
0.215880 -0.202440 0.882000 6040113
0.217104 -0.198519 0.887000 5843242
0.217593 -0.193887 0.889000 5512458
0.219307 -0.190293 0.896000 5580084
0.219796 -0.185587 0.898000 5316909
0.244447 -0.323727 0.991000 8147281
0.242473 -0.315496 0.983000 8344415
0.239020 -0.305466 0.969000 6962248
0.237047 -0.297452 0.961000 7223876
0.234333 -0.288619 0.950000 7949903
0.232360 -0.280806 0.942000 8541534
0.229400 -0.271914 0.930000 8806500
0.227427 -0.264307 0.922000 8345186
0.225207 -0.256510 0.913000 8481924
0.222740 -0.248540 0.903000 9337486
0.221507 -0.242032 0.898000 7425118
0.219287 -0.234527 0.889000 6633554
0.216573 -0.226608 0.878000 9588814
0.215340 -0.220329 0.873000 7552827
0.215340 -0.215340 0.873000 6831413
0.215833 -0.210833 0.875000 6841194
0.217067 -0.207010 0.880000 6499631
0.217560 -0.202440 0.882000 5842988
0.218793 -0.198519 0.887000 6039837
0.219287 -0.193887 0.889000 5642027
0.221013 -0.190293 0.896000 5715764
0.221507 -0.185587 0.898000 5316656
0.246334 -0.323727 0.991000 7818830
0.244346 -0.315496 0.983000 7952496
0.240866 -0.305466 0.969000 6829385
0.238877 -0.297452 0.961000 6961987
0.236143 -0.288619 0.950000 7621971
0.234154 -0.280806 0.942000 8279390
0.231171 -0.271914 0.930000 8675683
0.229183 -0.264307 0.922000 8544613
0.226946 -0.256510 0.913000 9670292
0.224460 -0.248540 0.903000 9270411
0.223217 -0.242032 0.898000 7492448
0.220980 -0.234527 0.889000 6371405
0.218246 -0.226608 0.878000 8868931
0.217003 -0.220329 0.873000 7421751
0.217003 -0.215340 0.873000 6830638
0.217500 -0.210833 0.875000 6904962
0.218743 -0.207010 0.880000 6500132
0.219737 -0.202899 0.884000 5318695
0.220483 -0.198519 0.887000 6237713
0.221477 -0.194323 0.891000 7293515
0.222720 -0.190293 0.896000 6965811
0.223217 -0.185587 0.898000 6501939
0.247470 -0.322747 0.988000 7489347
0.246218 -0.315496 0.983000 7561818
0.242711 -0.305466 0.969000 6698561
0.240708 -0.297452 0.961000 6700097
0.237952 -0.288619 0.950000 7228494
0.235949 -0.280806 0.942000 8016988
0.233444 -0.272499 0.932000 8544873
0.230939 -0.264307 0.922000 8809577
0.228685 -0.256510 0.913000 10846078
0.226180 -0.248540 0.903000 9269639
0.224928 -0.242032 0.898000 7557980
0.222673 -0.234527 0.889000 6174789
0.219918 -0.226608 0.878000 8143937
0.218666 -0.220329 0.873000 7224886
0.218666 -0.215340 0.873000 6763821
0.219167 -0.210833 0.875000 6979702
0.220419 -0.207010 0.880000 6433318
0.221421 -0.202899 0.884000 4794922
0.222673 -0.198967 0.889000 6437406
0.223174 -0.194323 0.891000 9003326
0.224427 -0.190293 0.896000 8145211
0.224928 -0.185587 0.898000 7748657
0.249352 -0.322747 0.988000 7358777
0.247333 -0.314533 0.980000 7095620
0.244557 -0.305466 0.969000 6239801
0.242538 -0.297452 0.961000 6503230
0.239762 -0.288619 0.950000 6835017
0.237743 -0.280806 0.942000 7621209
0.235219 -0.272499 0.932000 8480878
0.232695 -0.264307 0.922000 8743788
0.230424 -0.256510 0.913000 9464169
0.228405 -0.249090 0.905000 9334914
0.226638 -0.242032 0.898000 7821144
0.224367 -0.234527 0.889000 6371644
0.221590 -0.226608 0.878000 7487295
0.220329 -0.220329 0.873000 6962484
0.220329 -0.215340 0.873000 6304045
0.221590 -0.211556 0.878000 7102570
0.222095 -0.207010 0.880000 6304040
0.223862 -0.203588 0.887000 4924460
0.224367 -0.198967 0.889000 8018218
0.225629 -0.194977 0.894000 8344369
0.226133 -0.190293 0.896000 7882051
0.227395 -0.186207 0.901000 8277294
0.251234 -0.322747 0.988000 7162179
0.249963 -0.315496 0.983000 6696265
0.246403 -0.305466 0.969000 5714995
0.244369 -0.297452 0.961000 6241080
0.241571 -0.288619 0.950000 6440788
0.239029 -0.280210 0.940000 7159899
0.236486 -0.271914 0.930000 8347498
0.234451 -0.264307 0.922000 8740969
0.231400 -0.255667 0.910000 8084323
0.229620 -0.248540 0.903000 9401965
0.228349 -0.242032 0.898000 8017238
0.226060 -0.234527 0.889000 6568518
0.223263 -0.226608 0.878000 6765370
0.221991 -0.220329 0.873000 6699319
0.222500 -0.215833 0.875000 5780269
0.223263 -0.211556 0.878000 7298418
0.224280 -0.207480 0.882000 6172458
0.225551 -0.203588 0.887000 5120823
0.226060 -0.198967 0.889000 9523770
0.227331 -0.194977 0.894000 7753275
0.228349 -0.190718 0.898000 7552825
0.229111 -0.186207 0.901000 8805950
0.253116 -0.322747 0.988000 7228750
0.251067 -0.314533 0.980000 6567245
0.248249 -0.305466 0.969000 6042413
0.246199 -0.297452 0.961000 6833458
0.243381 -0.288619 0.950000 6046302
0.240819 -0.280210 0.940000 7163484
0.238770 -0.272499 0.932000 8347493
0.236208 -0.264307 0.922000 8609893
0.233133 -0.255667 0.910000 8015710
0.231340 -0.248540 0.903000 8870744
0.230059 -0.242032 0.898000 8280660
0.227753 -0.234527 0.889000 6832719
0.225448 -0.227124 0.880000 6370613
0.223654 -0.220329 0.873000 6240826
0.224167 -0.215833 0.875000 5386541
0.224935 -0.211556 0.878000 7296378
0.225960 -0.207480 0.882000 6173228
0.227241 -0.203588 0.887000 5777217
0.228266 -0.199414 0.891000 9463626
0.229034 -0.194977 0.894000 8080709
0.230059 -0.190718 0.898000 8142384
0.230828 -0.186207 0.901000 8805454
0.254224 -0.321767 0.985000 7294548
0.252933 -0.314533 0.980000 6501967
0.250094 -0.305466 0.969000 6304567
0.248030 -0.297452 0.961000 7487824
0.245190 -0.288619 0.950000 5593973
0.242610 -0.280210 0.940000 7102832
0.239254 -0.271037 0.927000 8347751
0.237964 -0.264307 0.922000 8479595
0.234350 -0.255105 0.908000 7885920
0.233060 -0.248540 0.903000 8343632
0.231253 -0.241493 0.896000 8542548
0.228930 -0.233999 0.887000 7162189
0.226608 -0.226608 0.878000 5911615
0.225317 -0.220329 0.873000 5782339
0.225833 -0.215833 0.875000 4994101
0.226608 -0.211556 0.878000 7235694
0.227640 -0.207480 0.882000 6171952
0.228156 -0.202899 0.884000 6496824
0.229447 -0.198967 0.889000 9397327
0.230737 -0.194977 0.894000 8408137
0.231253 -0.190293 0.896000 8671800
0.232544 -0.186207 0.901000 8804436
0.256100 -0.321767 0.985000 7688282
0.253240 -0.312608 0.974000 7160912
0.250380 -0.303574 0.963000 6173504
0.249080 -0.296524 0.958000 8084334
0.246480 -0.288011 0.948000 7699083
0.243620 -0.279315 0.937000 7959171
0.241020 -0.271037 0.927000 8413545
0.239720 -0.264307 0.922000 8677489
0.236080 -0.255105 0.908000 8213857
0.234780 -0.248540 0.903000 8541000
0.232960 -0.241493 0.896000 8805204
0.229840 -0.233208 0.884000 7753802
0.228280 -0.226608 0.878000 5712968
0.226980 -0.220329 0.873000 6111308
0.227500 -0.215833 0.875000 5124669
0.228280 -0.211556 0.878000 7361633
0.229320 -0.207480 0.882000 6107189
0.230620 -0.203588 0.887000 7753263
0.231660 -0.199414 0.891000 9593172
0.232440 -0.194977 0.894000 8541516
0.233480 -0.190718 0.898000 8740673
0.234260 -0.186207 0.901000 8936537
0.257976 -0.321767 0.985000 8015455
0.255095 -0.312608 0.974000 7753807
0.253000 -0.304520 0.966000 6042689
0.250905 -0.296524 0.958000 8742767
0.248810 -0.288619 0.950000 9731705
0.245405 -0.279315 0.937000 8812408
0.242786 -0.271037 0.927000 8478055
0.241476 -0.264307 0.922000 8810874
0.238333 -0.255667 0.910000 8476515
0.236500 -0.248540 0.903000 8803153
0.234143 -0.240954 0.894000 9066836
0.231524 -0.233208 0.884000 8344909
0.229952 -0.226608 0.878000 5518670
0.228643 -0.220329 0.873000 6506826
0.229167 -0.215833 0.875000 5255513
0.229952 -0.211556 0.878000 7492439
0.231000 -0.207480 0.882000 5973822
0.232310 -0.203588 0.887000 9005629
0.233357 -0.199414 0.891000 9790032
0.234143 -0.194977 0.894000 8674122
0.235190 -0.190718 0.898000 8802615
0.256950 -0.312608 0.974000 8477006
0.254840 -0.304520 0.966000 7157569
0.252730 -0.296524 0.958000 8807279
0.250619 -0.288619 0.950000 9470055
0.247190 -0.279315 0.937000 8680300
0.244551 -0.271037 0.927000 8343141
0.243232 -0.264307 0.922000 8940419
0.240067 -0.255667 0.910000 8802661
0.238220 -0.248540 0.903000 9001050
0.235846 -0.240954 0.894000 9329492
0.233208 -0.233208 0.884000 8673103
0.231625 -0.226608 0.878000 6763604
0.230833 -0.220833 0.875000 6966087
0.230833 -0.215833 0.875000 6494069
0.231625 -0.211556 0.878000 7290957
0.233208 -0.207950 0.884000 6037576
0.233999 -0.203588 0.887000 9332042
0.235846 -0.200086 0.894000 9528909
0.236373 -0.195413 0.896000 8344647
0.237692 -0.191355 0.901000 8467245
0.258806 -0.312608 0.974000 9199950
0.256680 -0.304520 0.966000 8277068
0.253757 -0.295595 0.955000 8876648
0.251897 -0.288011 0.948000 9203306
0.249771 -0.280210 0.940000 8613737
0.245786 -0.270452 0.925000 8212062
0.244457 -0.263733 0.920000 9070957
0.242597 -0.256510 0.913000 9068903
0.239940 -0.248540 0.903000 9263964
0.236751 -0.240146 0.891000 9525846
0.234891 -0.233208 0.884000 9000532
0.233297 -0.226608 0.878000 7948119
0.232500 -0.220833 0.875000 7424840
0.232500 -0.215833 0.875000 7758704
0.233297 -0.211556 0.878000 7078200
0.234891 -0.207950 0.884000 6110014
0.236220 -0.204047 0.889000 9658442
0.237549 -0.200086 0.894000 9196605
0.238080 -0.195413 0.896000 8084036
0.239940 -0.191780 0.903000 8079167
0.260661 -0.312608 0.974000 9264205
0.258520 -0.304520 0.966000 9265750
0.255576 -0.295595 0.955000 9596769
0.254238 -0.288619 0.950000 8807790
0.251562 -0.280210 0.940000 8018022
0.247548 -0.270452 0.925000 7752536
0.246745 -0.264307 0.922000 8278358
0.243533 -0.255667 0.910000 9405290
0.241125 -0.247990 0.901000 9460830
0.238449 -0.240146 0.891000 9722456
0.236575 -0.233208 0.884000 9197656
0.234970 -0.226608 0.878000 8081498
0.234167 -0.220833 0.875000 7423817
0.234970 -0.216573 0.878000 9080683
0.235505 -0.212038 0.880000 6693922
0.237378 -0.208656 0.887000 7621683
0.238449 -0.204506 0.891000 8933194
0.239251 -0.200086 0.894000 8998189
0.239787 -0.195413 0.896000 8542272
0.241660 -0.191780 0.903000 8215121
0.262516 -0.312608 0.974000 9395028
0.260360 -0.304520 0.966000 10248791
0.257395 -0.295595 0.955000 10379362
0.256048 -0.288619 0.950000 8349290
0.253352 -0.280210 0.940000 7425887
0.249310 -0.270452 0.925000 7292501
0.247962 -0.263733 0.920000 7487853
0.246075 -0.256510 0.913000 9729907
0.242841 -0.247990 0.901000 9723228
0.240954 -0.240954 0.894000 9919321
0.238259 -0.233208 0.884000 9394259
0.236642 -0.226608 0.878000 8213848
0.235833 -0.220833 0.875000 7424589
0.235833 -0.215833 0.875000 10318706
0.237181 -0.212038 0.880000 6237221
0.239068 -0.208656 0.887000 9062456
0.240954 -0.205194 0.894000 8148296
0.240954 -0.200086 0.894000 8734265
0.242032 -0.195850 0.898000 8936762
0.243380 -0.191780 0.903000 8341836
0.264371 -0.312608 0.974000 9197403
0.262200 -0.304520 0.966000 10249049
0.259214 -0.295595 0.955000 10383715
0.257314 -0.288011 0.948000 8611942
0.255143 -0.280210 0.940000 7030872
0.251071 -0.270452 0.925000 7291731
0.249714 -0.263733 0.920000 8021636
0.247000 -0.255667 0.910000 9532797
0.244557 -0.247990 0.901000 9723226
0.241843 -0.240146 0.891000 9985113
0.239943 -0.233208 0.884000 9394765
0.238314 -0.226608 0.878000 8277846
0.237500 -0.220833 0.875000 7489616
0.238314 -0.216573 0.878000 10127225
0.239400 -0.212520 0.882000 6302759
0.241300 -0.209127 0.889000 8277308
0.242657 -0.205194 0.894000 8803398
0.243200 -0.200533 0.896000 8801349
0.243743 -0.195850 0.898000 8406579
0.245643 -0.192205 0.905000 7483208
0.266227 -0.312608 0.974000 8999241
0.264040 -0.304520 0.966000 10184291
0.261033 -0.295595 0.955000 10451055
0.259120 -0.288011 0.948000 8873061
0.256113 -0.279315 0.937000 6636120
0.253380 -0.271037 0.927000 7296607
0.251467 -0.263733 0.920000 8616827
0.248733 -0.255667 0.910000 9335409
0.245453 -0.247164 0.898000 9788507
0.243540 -0.240146 0.891000 10051930
0.241627 -0.233208 0.884000 9394003
0.239167 -0.225833 0.875000 8278359
0.239987 -0.221590 0.878000 7555911
0.239987 -0.216573 0.878000 9862026
0.241627 -0.213002 0.884000 6301997
0.243540 -0.209597 0.891000 7487297
0.244360 -0.205194 0.894000 9524292
0.244907 -0.200533 0.896000 8867914
0.246273 -0.196504 0.901000 7812925
0.268908 -0.313570 0.977000 8933431
0.265880 -0.304520 0.966000 10183789
0.262852 -0.295595 0.955000 10582138
0.260926 -0.288011 0.948000 9003364
0.257898 -0.279315 0.937000 7950679
0.255146 -0.271037 0.927000 8287338
0.253219 -0.263733 0.920000 8546673
0.250467 -0.255667 0.910000 9204837
0.247164 -0.247164 0.898000 9787484
0.245237 -0.240146 0.891000 10118747
0.243310 -0.233208 0.884000 9460568
0.241659 -0.226608 0.878000 8343897
0.241659 -0.221590 0.878000 7877694
0.242210 -0.217067 0.880000 9675675
0.244136 -0.213725 0.887000 6435122
0.246063 -0.210303 0.894000 7415878
0.246613 -0.205653 0.896000 9394753
0.246613 -0.200533 0.896000 9000015
0.247990 -0.196504 0.901000 8406855
0.269937 -0.312608 0.974000 8931646
0.267720 -0.304520 0.966000 10119267
0.264671 -0.295595 0.955000 10712941
0.262731 -0.288011 0.948000 9067618
0.259683 -0.279315 0.937000 9197146
0.256911 -0.271037 0.927000 9204591
0.254971 -0.263733 0.920000 8478059
0.252200 -0.255667 0.910000 9003105
0.249706 -0.247990 0.901000 9719896
0.246934 -0.240146 0.891000 10118237
0.244994 -0.233208 0.884000 9461619
0.243331 -0.226608 0.878000 8344149
0.243886 -0.222095 0.880000 8204864
0.244440 -0.217560 0.882000 9397881
0.246934 -0.214689 0.891000 6569275
0.247766 -0.210303 0.894000 7353931
0.248320 -0.205653 0.896000 9332039
0.248874 -0.200981 0.898000 9067084
0.250260 -0.196940 0.903000 8998729
0.271234 -0.311966 0.972000 8736068
0.268723 -0.303574 0.963000 9856857
0.267328 -0.296524 0.958000 10581088
0.264537 -0.288011 0.948000 7882080
0.260072 -0.277825 0.932000 9397340
0.258677 -0.271037 0.927000 9203828
0.256724 -0.263733 0.920000 8346213
0.253375 -0.255105 0.908000 8868957
0.251422 -0.247990 0.901000 9655636
0.248631 -0.240146 0.891000 10183774
0.246678 -0.233208 0.884000 9527181
0.245562 -0.227124 0.880000 8475730
0.245562 -0.222095 0.880000 8936257
0.246678 -0.218053 0.884000 7548758
0.248631 -0.214689 0.891000 7027779
0.249469 -0.210303 0.894000 7751761
0.250027 -0.205653 0.896000 9659469
0.250585 -0.200981 0.898000 8935754
0.252538 -0.197376 0.905000 9329483
0.273086 -0.311966 0.972000 8539470
0.270557 -0.303574 0.963000 9593171
0.268310 -0.295595 0.955000 10448989
0.266343 -0.288011 0.948000 6639962
0.261848 -0.277825 0.932000 9529695
0.259881 -0.270452 0.925000 9138549
0.258476 -0.263733 0.920000 8214115
0.255667 -0.255667 0.910000 8738136
0.253700 -0.248540 0.903000 9588295
0.250329 -0.240146 0.891000 10183007
0.248362 -0.233208 0.884000 9531266
0.247238 -0.227124 0.880000 8540755
0.247800 -0.222600 0.882000 9719654
0.249205 -0.218793 0.887000 5719398
0.251171 -0.215411 0.894000 7488326
0.251733 -0.210773 0.896000 8149081
0.252295 -0.206112 0.898000 10052944
0.253138 -0.201652 0.901000 8802890
0.254262 -0.197376 0.905000 9658974
0.274937 -0.311966 0.972000 8606807
0.272391 -0.303574 0.963000 9397325
0.270129 -0.295595 0.955000 10317145
0.268149 -0.288011 0.948000 7162708
0.263623 -0.277825 0.932000 9989730
0.261643 -0.270452 0.925000 9468790
0.260229 -0.263733 0.920000 8673377
0.256834 -0.255105 0.908000 8934739
0.254854 -0.247990 0.901000 9589562
0.252026 -0.240146 0.891000 10181984
0.250894 -0.233999 0.887000 9661303
0.248914 -0.227124 0.880000 8606805
0.250046 -0.223105 0.884000 9728906
0.250894 -0.218793 0.887000 6104695
0.252874 -0.215411 0.894000 7619912
0.254006 -0.211244 0.898000 9268321
0.254006 -0.206112 0.898000 9263954
0.255986 -0.202548 0.905000 8406858
0.257400 -0.198467 0.910000 9988720
0.274226 -0.303574 0.963000 9131601
0.271948 -0.295595 0.955000 10185061
0.269954 -0.288011 0.948000 7690845
0.265398 -0.277825 0.932000 10513766
0.263405 -0.270452 0.925000 9728116
0.261981 -0.263733 0.920000 9132385
0.259133 -0.255667 0.910000 9065811
0.257140 -0.248540 0.903000 9588810
0.253153 -0.239607 0.889000 10115942
0.251730 -0.233208 0.884000 9792876
0.251160 -0.227640 0.882000 8606807
0.251730 -0.223105 0.884000 9802141
0.252584 -0.218793 0.887000 6503260
0.254577 -0.215411 0.894000 7752267
0.255716 -0.211244 0.898000 10380632
0.256570 -0.206801 0.901000 8541267
0.257710 -0.202548 0.905000 7952204
0.259133 -0.198467 0.910000 10317922
0.276060 -0.303574 0.963000 8670549
0.273767 -0.295595 0.955000 9922929
0.271760 -0.288011 0.948000 8872550
0.267173 -0.277825 0.932000 10319465
0.265167 -0.270452 0.925000 9792113
0.263733 -0.263733 0.920000 9395296
0.260867 -0.255667 0.910000 9131603
0.258860 -0.248540 0.903000 9590617
0.254847 -0.239607 0.889000 10180461
0.253413 -0.233208 0.884000 9593697
0.252840 -0.227640 0.882000 8277850
0.254273 -0.223862 0.887000 9340592
0.254847 -0.219287 0.889000 6765890
0.256853 -0.215893 0.896000 8013902
0.257427 -0.211244 0.898000 10382415
0.258860 -0.207260 0.903000 8869716
0.260867 -0.203667 0.910000 8940111
0.261727 -0.199121 0.913000 9395028
0.277317 -0.302944 0.961000 8211286
0.275586 -0.295595 0.955000 9660515
0.273566 -0.288011 0.948000 9987173
0.268371 -0.277229 0.930000 10190196
0.266929 -0.270452 0.925000 9792625
0.265486 -0.263733 0.920000 9592160
0.262600 -0.255667 0.910000 9196886
0.260580 -0.248540 0.903000 9657175
0.256540 -0.239607 0.889000 10251122
0.255097 -0.233208 0.884000 9326943
0.255097 -0.228156 0.884000 7949664
0.255963 -0.223862 0.887000 8879286
0.256540 -0.219287 0.889000 7026501
0.258560 -0.215893 0.896000 8211024
0.260003 -0.211950 0.901000 10313295
0.261157 -0.207719 0.905000 9262932
0.263466 -0.204338 0.913000 9855826
0.279729 -0.303574 0.963000 8209496
0.277405 -0.295595 0.955000 9462101
0.275371 -0.288011 0.948000 9986661
0.270143 -0.277229 0.930000 10321534
0.268690 -0.270452 0.925000 9924464
0.267238 -0.263733 0.920000 9657439
0.264333 -0.255667 0.910000 9196632
0.262300 -0.248540 0.903000 9722452
0.258233 -0.239607 0.889000 10845815
0.257652 -0.233999 0.887000 9001052
0.257652 -0.228930 0.887000 7946342
0.258233 -0.224367 0.889000 8809660
0.259686 -0.220520 0.894000 7226184
0.261719 -0.217098 0.901000 8277073
0.262300 -0.212420 0.903000 9460047
0.263752 -0.208408 0.908000 9066579
0.265205 -0.204338 0.913000 9067093
0.280978 -0.302944 0.961000 8211561
0.279224 -0.295595 0.955000 9328698
0.277177 -0.288011 0.948000 9987422
0.271914 -0.277229 0.930000 10452850
0.270452 -0.270452 0.925000 9990253
0.268990 -0.263733 0.920000 9656160
0.266067 -0.255667 0.910000 9197143
0.263435 -0.247990 0.901000 9788505
0.260511 -0.240146 0.891000 11365739
0.259342 -0.233999 0.887000 8673372
0.259342 -0.228930 0.887000 7892854
0.260511 -0.224871 0.891000 8801911
0.261973 -0.221013 0.896000 7423302
0.264020 -0.217580 0.903000 8343887
0.264605 -0.212890 0.905000 8606794
0.266067 -0.208867 0.910000 8869718
0.267529 -0.204786 0.915000 8214614
0.281926 -0.301998 0.958000 8342906
0.280454 -0.294976 0.953000 9131551
0.278983 -0.288011 0.948000 9790551
0.273686 -0.277229 0.930000 10516837
0.272214 -0.270452 0.925000 10055530
0.270743 -0.263733 0.920000 9459809
0.267800 -0.255667 0.910000 9065813
0.264269 -0.247164 0.898000 9722462
0.262209 -0.240146 0.891000 10248543
0.261620 -0.234527 0.889000 8018012
0.262209 -0.229963 0.891000 9674374
0.263091 -0.225629 0.894000 7553842
0.264269 -0.221507 0.898000 7685956
0.266329 -0.218062 0.905000 8344141
0.267211 -0.213596 0.908000 8277060
0.268683 -0.209555 0.913000 8869465
0.269860 -0.205233 0.917000 8412503
0.284639 -0.302944 0.961000 8480385
0.282270 -0.294976 0.953000 8999741
0.279900 -0.287100 0.945000 9592923
0.275457 -0.277229 0.930000 10581352
0.273976 -0.270452 0.925000 10120556
0.272495 -0.263733 0.920000 9262686
0.269533 -0.255667 0.910000 8934223
0.265979 -0.247164 0.898000 9655387
0.263906 -0.240146 0.891000 9134950
0.263906 -0.235054 0.891000 7428446
0.264794 -0.230737 0.894000 11437442
0.265387 -0.226133 0.896000 6368834
0.266868 -0.222247 0.901000 7884622
0.269533 -0.219267 0.910000 8345166
0.271014 -0.215243 0.915000 7884362
0.271014 -0.210014 0.915000 8870230
0.271607 -0.205233 0.917000 8608344
0.285575 -0.301998 0.958000 9337224
0.284085 -0.294976 0.953000 9000794
0.281700 -0.287100 0.945000 8867679
0.277825 -0.277825 0.932000 10187883
0.275738 -0.270452 0.925000 10054510
0.274248 -0.263733 0.920000 9001050
0.270670 -0.255105 0.908000 8802632
0.267690 -0.247164 0.898000 9526104
0.266497 -0.240954 0.894000 8939118
0.266497 -0.235846 0.894000 7821152
0.267093 -0.231253 0.896000 9931647
0.267690 -0.226638 0.898000 7028050
0.269180 -0.222740 0.903000 8149081
0.272161 -0.219990 0.913000 8278606
0.273353 -0.215713 0.917000 8476239
0.273353 -0.210473 0.917000 8674899
0.274248 -0.205905 0.920000 7491673
0.287400 -0.301998 0.958000 10127257
0.285000 -0.294048 0.950000 9002330
0.283500 -0.287100 0.945000 8147804
0.279600 -0.277825 0.932000 9794402
0.277500 -0.270452 0.925000 9986909
0.276000 -0.263733 0.920000 8673368
0.271500 -0.254262 0.905000 8671564
0.269400 -0.247164 0.898000 9396309
0.268200 -0.240954 0.894000 8740964
0.268200 -0.235846 0.894000 8147562
0.268800 -0.231253 0.896000 8346740
0.269400 -0.226638 0.898000 7686741
0.270900 -0.222740 0.903000 8345694
0.274500 -0.220471 0.915000 8277604
0.276000 -0.216419 0.920000 9070190
0.275100 -0.210473 0.917000 8544626
0.286810 -0.294048 0.950000 9462873
0.284394 -0.286189 0.942000 9069402
0.281375 -0.277825 0.932000 9330009
0.279262 -0.270452 0.925000 8932940
0.276243 -0.262300 0.915000 8278357
0.273224 -0.254262 0.905000 8343631
0.271110 -0.247164 0.898000 8540498
0.269903 -0.240954 0.894000 8411739
0.269903 -0.235846 0.894000 7954547
0.271110 -0.231770 0.898000 8210026
0.272016 -0.227395 0.901000 8346455
0.274130 -0.223973 0.908000 9199716
0.276243 -0.220471 0.915000 9596794
0.278356 -0.216890 0.922000 10453134
0.276847 -0.210473 0.917000 9862033
0.288011 -0.293429 0.948000 9986949
0.286189 -0.286189 0.942000 9987419
0.283150 -0.277825 0.932000 8935258
0.281024 -0.270452 0.925000 7884625
0.277378 -0.261727 0.913000 7819092
0.274948 -0.254262 0.905000 8014166
0.272821 -0.247164 0.898000 7751795
0.272213 -0.241493 0.896000 8088451
0.272213 -0.236373 0.896000 7692930
0.273732 -0.232544 0.901000 8085108
0.273732 -0.227395 0.901000 9070968
0.275859 -0.223973 0.908000 10058881
0.278593 -0.220953 0.917000 10916494
0.280112 -0.216890 0.922000 11768985
0.289817 -0.293429 0.948000 10518704
0.287371 -0.285581 0.940000 10184029
0.284314 -0.277229 0.930000 9134426
0.281869 -0.269575 0.922000 7950678
0.279117 -0.261727 0.913000 7096403
0.276671 -0.254262 0.905000 8206429
0.274531 -0.247164 0.898000 8879252
0.273920 -0.241493 0.896000 8818347
0.273920 -0.236373 0.896000 9074576
0.276060 -0.233060 0.903000 9730431
0.276060 -0.227900 0.903000 10585753
0.277589 -0.223973 0.908000 11115166
0.280340 -0.220953 0.917000 11507874
0.281869 -0.216890 0.922000 11967141
0.289162 -0.285581 0.940000 10317945
0.285163 -0.276334 0.927000 9265999
0.283625 -0.269575 0.922000 7949389
0.279318 -0.260293 0.908000 6373455
0.277780 -0.253700 0.903000 8347514
0.276242 -0.247164 0.898000 10064782
0.275011 -0.240954 0.894000 9537685
0.276242 -0.236901 0.898000 10522010
0.277780 -0.233060 0.903000 11309200
0.277780 -0.227900 0.903000 12099226
0.290952 -0.285581 0.940000 10913174
0.286310 -0.275738 0.925000 8936771
0.284762 -0.268990 0.920000 7290692
0.281667 -0.260867 0.910000 7096651
0.280119 -0.254262 0.905000 8488343
0.277952 -0.247164 0.898000 9467272
0.276714 -0.240954 0.894000 10784894
0.277952 -0.236901 0.898000 11377315
0.280119 -0.233576 0.905000 11771553
0.288071 -0.275738 0.925000 8611949
0.287137 -0.269575 0.922000 6572399
0.283400 -0.260867 0.910000 7891575
0.281843 -0.254262 0.905000 8554646
0.279663 -0.247164 0.898000 8806800
0.278417 -0.240954 0.894000 12031888
0.279040 -0.236373 0.896000 12229794
0.281843 -0.233576 0.905000 12164001
0.288893 -0.269575 0.922000 9405081
0.285133 -0.260867 0.910000 10064291
0.283567 -0.254262 0.905000 10195350
0.281373 -0.247164 0.898000 10454935
0.280120 -0.240954 0.894000 11967395
0.286867 -0.260867 0.910000 12295585
0.285290 -0.254262 0.905000 11834517
0.284030 -0.247990 0.901000 12031381
0.099583 -0.273629 0.942000 8205899
0.099371 -0.267676 0.940000 7294805
0.098843 -0.260910 0.935000 6570057
0.099900 -0.236700 0.945000 6309713
0.101377 -0.273629 0.942000 8404264
0.101162 -0.267676 0.940000 7622983
0.100301 -0.260072 0.932000 7228495
0.100301 -0.254747 0.932000 8007250
0.100301 -0.249421 0.932000 8215105
0.101162 -0.246190 0.940000 7951691
0.102023 -0.242869 0.948000 6964813
0.101700 -0.236700 0.945000 6308940
0.102238 -0.232524 0.950000 5846840
0.104924 -0.289225 0.958000 7812159
0.104048 -0.281381 0.950000 8535085
0.103171 -0.273629 0.942000 8604984
0.102952 -0.267676 0.940000 7884616
0.102076 -0.260072 0.932000 7884366
0.102076 -0.254747 0.932000 7094861
0.102076 -0.249421 0.932000 7558471
0.102952 -0.246190 0.940000 7687752
0.103500 -0.242100 0.945000 6899009
0.103500 -0.236700 0.945000 6241343
0.103829 -0.232034 0.948000 5714736
0.104048 -0.227095 0.950000 5781043
0.107083 -0.295622 0.961000 9195101
0.106414 -0.288319 0.955000 8272971
0.105857 -0.281381 0.950000 8799035
0.104966 -0.273629 0.942000 8866632
0.104409 -0.266822 0.937000 8671817
0.103851 -0.260072 0.932000 7948621
0.103851 -0.254747 0.932000 7424841
0.103851 -0.249421 0.932000 7425612
0.104409 -0.245405 0.937000 7358278
0.104966 -0.241331 0.942000 6569781
0.104966 -0.235949 0.942000 5978675
0.105634 -0.232034 0.948000 5517352
0.105857 -0.227095 0.950000 5584429
0.108913 -0.295622 0.961000 8803938
0.108233 -0.288319 0.955000 8798825
0.107667 -0.281381 0.950000 9000805
0.106760 -0.273629 0.942000 9063491
0.106193 -0.266822 0.937000 9392458
0.105400 -0.259514 0.930000 8078665
0.105400 -0.254200 0.930000 7687240
0.105400 -0.248886 0.930000 7293508
0.106193 -0.245405 0.937000 7031615
0.106533 -0.240819 0.940000 6239290
0.106760 -0.235949 0.942000 5715504
0.107440 -0.232034 0.948000 5384996
0.107440 -0.226617 0.948000 5322282
0.107667 -0.221667 0.950000 5647660
0.112011 -0.304560 0.972000 11043461
0.111666 -0.298083 0.969000 9853544
0.110398 -0.289225 0.958000 9399174
0.109476 -0.281381 0.950000 9534863
0.108900 -0.274500 0.945000 9196094
0.107978 -0.266822 0.937000 9523276
0.106826 -0.258677 0.927000 8408901
0.106826 -0.253380 0.927000 7687496
0.107171 -0.248886 0.930000 7359547
0.107402 -0.244095 0.932000 7098424
0.107978 -0.240050 0.937000 5975103
0.108324 -0.235448 0.940000 5648941
0.108554 -0.230566 0.942000 5188128
0.108900 -0.225900 0.945000 5322279
0.108900 -0.220500 0.945000 5648172
0.113863 -0.304560 0.972000 10910854
0.113511 -0.298083 0.969000 10845322
0.112574 -0.290130 0.961000 10058877
0.111286 -0.281381 0.950000 10055549
0.110349 -0.273629 0.942000 9326400
0.109529 -0.266252 0.935000 9589837
0.108591 -0.258677 0.927000 8804682
0.108006 -0.252013 0.922000 7619908
0.108357 -0.247548 0.925000 7424567
0.108591 -0.242786 0.927000 7096891
0.109529 -0.239538 0.935000 5710653
0.109529 -0.234195 0.935000 5516328
0.109763 -0.229342 0.937000 4990753
0.110114 -0.224705 0.940000 5254186
0.110349 -0.219800 0.942000 5714493
0.115952 -0.310752 0.974000 11507861
0.115952 -0.305187 0.974000 11371655
0.115714 -0.299006 0.972000 11182509
0.114405 -0.290130 0.961000 9663347
0.113452 -0.282270 0.953000 9726572
0.112500 -0.274500 0.945000 8733761
0.111548 -0.266822 0.937000 9853006
0.109762 -0.257282 0.922000 9329486
0.109167 -0.250647 0.917000 7486272
0.108929 -0.244871 0.915000 7358002
0.109762 -0.241476 0.922000 6897214
0.110714 -0.238257 0.930000 5453114
0.110952 -0.233444 0.932000 5253666
0.111310 -0.228852 0.935000 4531233
0.111905 -0.224705 0.940000 4921901
0.111905 -0.219333 0.940000 5649485
0.112143 -0.214417 0.942000 5843234
0.117808 -0.310752 0.974000 11373450
0.117808 -0.305187 0.974000 11765671
0.117566 -0.299006 0.972000 11438244
0.116235 -0.290130 0.961000 9269879
0.115268 -0.282270 0.953000 9333349
0.114663 -0.275371 0.948000 8140358
0.113332 -0.266822 0.937000 10113857
0.111276 -0.256724 0.920000 9919584
0.110671 -0.250100 0.915000 7357000
0.110671 -0.244871 0.915000 7290677
0.111276 -0.240952 0.920000 6634553
0.111881 -0.236976 0.925000 5261388
0.112123 -0.232191 0.927000 4990756
0.112123 -0.226894 0.927000 4136994
0.113090 -0.223510 0.935000 4529441
0.113332 -0.218633 0.937000 5517881
0.113695 -0.213962 0.940000 5711902
0.120769 -0.313624 0.983000 11239295
0.120031 -0.306127 0.977000 12231622
0.119417 -0.299006 0.972000 10056091
0.118066 -0.290130 0.961000 8608891
0.117083 -0.282270 0.953000 8346463
0.116100 -0.274500 0.945000 7681867
0.114871 -0.266252 0.935000 8998196
0.113029 -0.256724 0.920000 10052209
0.112414 -0.250100 0.915000 7749199
0.112169 -0.244336 0.913000 6895928
0.112414 -0.239643 0.915000 6502196
0.113029 -0.235695 0.920000 5587806
0.113643 -0.231690 0.925000 4990246
0.113643 -0.226405 0.925000 4530466
0.114257 -0.222314 0.930000 4660758
0.114503 -0.217467 0.932000 5516069
0.114871 -0.212824 0.935000 5711898
0.122890 -0.314262 0.985000 11043984
0.122267 -0.307067 0.980000 12696002
0.121269 -0.299006 0.972000 8677769
0.119896 -0.290130 0.961000 8010837
0.118898 -0.282270 0.953000 7289671
0.118274 -0.275371 0.948000 7223109
0.116652 -0.266252 0.935000 7816763
0.115030 -0.257282 0.922000 10183777
0.113908 -0.249553 0.913000 8079439
0.113908 -0.244336 0.913000 6566204
0.113908 -0.239119 0.913000 6304818
0.114407 -0.234927 0.917000 5918537
0.114781 -0.230438 0.920000 4989229
0.115030 -0.225670 0.922000 4923936
0.115654 -0.221597 0.927000 4792601
0.116029 -0.217000 0.930000 5515040
0.116278 -0.212141 0.932000 5711638
0.124767 -0.314262 0.985000 11503266
0.124133 -0.307067 0.980000 12167358
0.123120 -0.299006 0.972000 7689590
0.121980 -0.290734 0.963000 7286831
0.120713 -0.282270 0.953000 7024688
0.119700 -0.274500 0.945000 7419454
0.118053 -0.265398 0.932000 8080706
0.116787 -0.257282 0.922000 9657424
0.115647 -0.249553 0.913000 8476496
0.115267 -0.243533 0.910000 6434623
0.115267 -0.238333 0.910000 6239023
0.115900 -0.234414 0.915000 6109236
0.116153 -0.229687 0.917000 5315636
0.116533 -0.225181 0.920000 5055774
0.117167 -0.221119 0.925000 5055004
0.117420 -0.216300 0.927000 5514522
0.118053 -0.212141 0.932000 5580561
0.126643 -0.314262 0.985000 11966116
0.126386 -0.308007 0.983000 11701687
0.124971 -0.299006 0.972000 6635616
0.123814 -0.290734 0.963000 6565402
0.122529 -0.282270 0.953000 6760746
0.121114 -0.273629 0.942000 7614776
0.119829 -0.265398 0.932000 8275514
0.118543 -0.257282 0.922000 9132109
0.117386 -0.249553 0.913000 8804176
0.117000 -0.243533 0.910000 6303302
0.117000 -0.238333 0.910000 6107696
0.117386 -0.233902 0.913000 6233649
0.117643 -0.229186 0.915000 5582396
0.117900 -0.224447 0.917000 5252896
0.118286 -0.219924 0.920000 5251868
0.118929 -0.215833 0.925000 5513758
0.119571 -0.211686 0.930000 5448467
0.119829 -0.206815 0.932000 5449243
0.128519 -0.319890 0.985000 11177101
0.128519 -0.314262 0.985000 12167846
0.128258 -0.308007 0.983000 10584239
0.126431 -0.298083 0.969000 6564171
0.125388 -0.290130 0.961000 6364165
0.124344 -0.282270 0.953000 7543332
0.122909 -0.273629 0.942000 7353905
0.121604 -0.265398 0.932000 8011314
0.120299 -0.257282 0.922000 8801865
0.119386 -0.250100 0.915000 8607568
0.118733 -0.243533 0.910000 6500941
0.118472 -0.237810 0.908000 5976368
0.118733 -0.233133 0.910000 5975854
0.119125 -0.228685 0.913000 5714755
0.119386 -0.223957 0.915000 5383970
0.119647 -0.219207 0.917000 5251613
0.120299 -0.215133 0.922000 5317409
0.121343 -0.211686 0.930000 5316117
0.121604 -0.206815 0.932000 5383708
0.130395 -0.319890 0.985000 11108739
0.130395 -0.314262 0.985000 12362162
0.130130 -0.308007 0.983000 9528472
0.128277 -0.298083 0.969000 6427706
0.127483 -0.290734 0.963000 6166850
0.126159 -0.282270 0.953000 8284268
0.124438 -0.273048 0.940000 7104109
0.123114 -0.264829 0.930000 7748425
0.122055 -0.257282 0.922000 8405575
0.121129 -0.250100 0.915000 8345169
0.120467 -0.243533 0.910000 6697290
0.119805 -0.237024 0.905000 5844528
0.120202 -0.232621 0.908000 5779757
0.120864 -0.228685 0.913000 5782074
0.120864 -0.223468 0.913000 5514788
0.121393 -0.219207 0.917000 5186332
0.121790 -0.214667 0.920000 5121053
0.122717 -0.211003 0.927000 5117966
0.123114 -0.206371 0.930000 5318170
0.132003 -0.319241 0.983000 11501945
0.132003 -0.313624 0.983000 12430782
0.132003 -0.308007 0.983000 8803456
0.130123 -0.298083 0.969000 6489130
0.129049 -0.290130 0.961000 8615806
0.127974 -0.282270 0.953000 9284788
0.126229 -0.273048 0.940000 8815016
0.124483 -0.263974 0.927000 7553120
0.123811 -0.257282 0.922000 7881028
0.122871 -0.250100 0.915000 8280402
0.122200 -0.243533 0.910000 6634823
0.121260 -0.236500 0.903000 5647665
0.121260 -0.231340 0.903000 5319724
0.122200 -0.227933 0.910000 6310449
0.122200 -0.222733 0.910000 5448485
0.122603 -0.218250 0.913000 5120540
0.123140 -0.213967 0.917000 4857881
0.123811 -0.209865 0.922000 5116423
0.124483 -0.205706 0.927000 5317912
0.133875 -0.319241 0.983000 11825533
0.134148 -0.314262 0.985000 12427443
0.133875 -0.308007 0.983000 8138337
0.131969 -0.298083 0.969000 6571605
0.131151 -0.290734 0.963000 11118215
0.129790 -0.282270 0.953000 10186619
0.128019 -0.273048 0.940000 10450813
0.126249 -0.263974 0.927000 7302013
0.125568 -0.257282 0.922000 7422521
0.123933 -0.248733 0.910000 8212305
0.123252 -0.242195 0.905000 6638664
0.122980 -0.236500 0.903000 5450286
0.122980 -0.231340 0.903000 4860713
0.123661 -0.227432 0.908000 6832435
0.123933 -0.222733 0.910000 5447212
0.124342 -0.218250 0.913000 4989469
0.124342 -0.213033 0.913000 4530714
0.125295 -0.209410 0.920000 5118740
0.125976 -0.205262 0.925000 5317656
0.136024 -0.319890 0.985000 11767936
0.136024 -0.314262 0.985000 11572904
0.135748 -0.308007 0.983000 7812161
0.133814 -0.298083 0.969000 8953472
0.132986 -0.290734 0.963000 10124943
0.131605 -0.282270 0.953000 9847874
0.129810 -0.273048 0.940000 9988434
0.128014 -0.263974 0.927000 8950937
0.127324 -0.257282 0.922000 7290158
0.126081 -0.249553 0.913000 8080976
0.124976 -0.242195 0.905000 6702921
0.124424 -0.235976 0.901000 5383979
0.124424 -0.230828 0.901000 5122597
0.124976 -0.226681 0.905000 6311988
0.125390 -0.222244 0.908000 5448498
0.125667 -0.217533 0.910000 5054494
0.126081 -0.213033 0.913000 4858394
0.126633 -0.208727 0.917000 5251617
0.127048 -0.204152 0.920000 5448472
0.127324 -0.199328 0.922000 4660760
0.139580 -0.323788 0.997000 11700637
0.138320 -0.315219 0.988000 10652063
0.137620 -0.308007 0.983000 7484995
0.135240 -0.297160 0.966000 11307399
0.134820 -0.290734 0.963000 9134454
0.133420 -0.282270 0.953000 9459530
0.131880 -0.273629 0.942000 9529684
0.129780 -0.263974 0.927000 10585495
0.129080 -0.257282 0.922000 7223125
0.128100 -0.250100 0.915000 7949135
0.126420 -0.241660 0.903000 6836312
0.125720 -0.235190 0.898000 5318966
0.126140 -0.230828 0.901000 5384746
0.126420 -0.226180 0.903000 5781552
0.127120 -0.222244 0.908000 5513773
0.127400 -0.217533 0.910000 5120031
0.127820 -0.213033 0.913000 5120278
0.128100 -0.208271 0.915000 5382685
0.128800 -0.204152 0.920000 5644828
0.129080 -0.199328 0.922000 4725783
0.141479 -0.323788 0.997000 11902905
0.140628 -0.316176 0.991000 9140630
0.139067 -0.307067 0.980000 8411461
0.137080 -0.297160 0.966000 9532814
0.136370 -0.290130 0.961000 9199197
0.135235 -0.282270 0.953000 9921362
0.133674 -0.273629 0.942000 9529686
0.131546 -0.263974 0.927000 10124438
0.130836 -0.257282 0.922000 7886460
0.129843 -0.250100 0.915000 7948878
0.128140 -0.241660 0.903000 7229799
0.127430 -0.235190 0.898000 5514816
0.127856 -0.230828 0.901000 5385262
0.128140 -0.226180 0.903000 4857901
0.128424 -0.221510 0.905000 5584168
0.128850 -0.217055 0.908000 5119776
0.129133 -0.212333 0.910000 5120018
0.129843 -0.208271 0.915000 5381913
0.130552 -0.204152 0.920000 5579296
0.130552 -0.198895 0.920000 4726294
0.143378 -0.323788 0.997000 12106936
0.142515 -0.316176 0.991000 7622784
0.140933 -0.307067 0.980000 9335417
0.138920 -0.297160 0.966000 7687274
0.138201 -0.290130 0.961000 9263960
0.137050 -0.282270 0.953000 10314064
0.135469 -0.273629 0.942000 9592154
0.133311 -0.263974 0.927000 9598338
0.132305 -0.256724 0.920000 8547220
0.130867 -0.248733 0.910000 7882572
0.129860 -0.241660 0.903000 7688284
0.128853 -0.234667 0.896000 5648966
0.128566 -0.229034 0.894000 5385776
0.129141 -0.224928 0.898000 3941925
0.129572 -0.220530 0.901000 5653545
0.130148 -0.216338 0.905000 5119518
0.130579 -0.211867 0.908000 5185811
0.130867 -0.207133 0.910000 5382167
0.131586 -0.203043 0.915000 5514268
0.131873 -0.198247 0.917000 4726039
0.145714 -0.324762 1.000000 11708599
0.143966 -0.315219 0.988000 7418475
0.141926 -0.305187 0.974000 9733293
0.140323 -0.296237 0.963000 6230854
0.139594 -0.289225 0.958000 8539218
0.138429 -0.281381 0.950000 9461070
0.136971 -0.273048 0.940000 9527390
0.135077 -0.263974 0.927000 9399406
0.134057 -0.256724 0.920000 8878508
0.132600 -0.248733 0.910000 7751497
0.131580 -0.241660 0.903000 7884881
0.130560 -0.234667 0.896000 6173261
0.130269 -0.229034 0.894000 5648433
0.130851 -0.224928 0.898000 4728094
0.131289 -0.220530 0.901000 5717546
0.131580 -0.215860 0.903000 5119004
0.131871 -0.211167 0.905000 5185299
0.132600 -0.207133 0.910000 5382165
0.133329 -0.203043 0.915000 5579544
0.133620 -0.198247 0.917000 4725785
0.148062 -0.331468 1.003000 10779010
0.147176 -0.323788 0.997000 11320009
0.145848 -0.315219 0.988000 7156587
0.143781 -0.305187 0.974000 10198168
0.142600 -0.297160 0.966000 4728918
0.141419 -0.289225 0.958000 7750991
0.140238 -0.281381 0.950000 8608061
0.139057 -0.273629 0.942000 9462114
0.136843 -0.263974 0.927000 9201254
0.136105 -0.257282 0.922000 9277352
0.134333 -0.248733 0.910000 7553880
0.133005 -0.241125 0.901000 8147023
0.132267 -0.234667 0.896000 6700624
0.131971 -0.229034 0.894000 5844787
0.132267 -0.224427 0.896000 5449765
0.132562 -0.219796 0.898000 5852732
0.133005 -0.215382 0.901000 5053217
0.133300 -0.210700 0.903000 5185558
0.134038 -0.206678 0.908000 5382165
0.134776 -0.202599 0.913000 5644832
0.135071 -0.197814 0.915000 4725785
0.149972 -0.331468 1.003000 10448251
0.149075 -0.323788 0.997000 10722266
0.147730 -0.315219 0.988000 8139628
0.145636 -0.305187 0.974000 9927298
0.143991 -0.296237 0.963000 6898534
0.143244 -0.289225 0.958000 7487052
0.142048 -0.281381 0.950000 8539693
0.140552 -0.273048 0.940000 9266278
0.139057 -0.264829 0.930000 9068894
0.137562 -0.256724 0.920000 9668516
0.136067 -0.248733 0.910000 6961766
0.134721 -0.241125 0.901000 8277580
0.133973 -0.234667 0.896000 7359060
0.133226 -0.228266 0.891000 5778996
0.133226 -0.223174 0.891000 5646892
0.134272 -0.219796 0.898000 6046542
0.134721 -0.215382 0.901000 5052966
0.135020 -0.210700 0.903000 5054232
0.135768 -0.206678 0.908000 5382165
0.136067 -0.201933 0.910000 5448231
0.136814 -0.197814 0.915000 4660249
0.151883 -0.331468 1.003000 10057347
0.150520 -0.322813 0.994000 10197936
0.149157 -0.314262 0.985000 9068145
0.147491 -0.305187 0.974000 9655159
0.145826 -0.296237 0.963000 9065821
0.144614 -0.288319 0.955000 7160644
0.143857 -0.281381 0.950000 8475199
0.142343 -0.273048 0.940000 9138282
0.140829 -0.264829 0.930000 8867414
0.139314 -0.256724 0.920000 10129577
0.137800 -0.248733 0.910000 6307431
0.136740 -0.241660 0.903000 8473933
0.135680 -0.234667 0.896000 7949390
0.134923 -0.228266 0.891000 5712948
0.134923 -0.223174 0.891000 5844014
0.135680 -0.219307 0.896000 6311483
0.135983 -0.214665 0.898000 5053483
0.136437 -0.210233 0.901000 4988188
0.137043 -0.205995 0.905000 5382424
0.137800 -0.201933 0.910000 5251364
0.138254 -0.197382 0.913000 4528921
0.138557 -0.192586 0.915000 4068371
0.152413 -0.322813 0.994000 9597829
0.151033 -0.314262 0.985000 9602934
0.149347 -0.305187 0.974000 9856107
0.147353 -0.295622 0.961000 9923411
0.146433 -0.288319 0.955000 7029051
0.145360 -0.280789 0.948000 9330257
0.144133 -0.273048 0.940000 9266797
0.142140 -0.263974 0.927000 8402766
0.141067 -0.256724 0.920000 10325166
0.139533 -0.248733 0.910000 6499176
0.138460 -0.241660 0.903000 8342606
0.137387 -0.234667 0.896000 8016968
0.136313 -0.227753 0.889000 5713204
0.136313 -0.222673 0.889000 5845040
0.137080 -0.218817 0.894000 6044455
0.137693 -0.214665 0.898000 5118768
0.137693 -0.209533 0.898000 5119776
0.138460 -0.205540 0.903000 5317403
0.139227 -0.201490 0.908000 4857633
0.139533 -0.196733 0.910000 4463386
0.154307 -0.322813 0.994000 9072526
0.152599 -0.313624 0.983000 10058882
0.151202 -0.305187 0.974000 10118765
0.149494 -0.296237 0.963000 10774867
0.148718 -0.289225 0.958000 6899017
0.147166 -0.280789 0.948000 10182742
0.145924 -0.273048 0.940000 9400672
0.143906 -0.263974 0.927000 7881289
0.143130 -0.257282 0.922000 10586542
0.141267 -0.248733 0.910000 6637170
0.140180 -0.241660 0.903000 8277075
0.138783 -0.234143 0.894000 8081485
0.138007 -0.227753 0.889000 5777703
0.138007 -0.222673 0.889000 5779247
0.138317 -0.218083 0.891000 5783087
0.139093 -0.214187 0.896000 5120822
0.139404 -0.209533 0.898000 5185309
0.139870 -0.205085 0.901000 5186333
0.140490 -0.200824 0.905000 4529699
0.140956 -0.196301 0.908000 4398106
0.141267 -0.191533 0.910000 4068367
0.156200 -0.322813 0.994000 9399702
0.154471 -0.313624 0.983000 9999245
0.153057 -0.305187 0.974000 10250350
0.151329 -0.296237 0.963000 10447442
0.150543 -0.289225 0.958000 8145495
0.148971 -0.280789 0.948000 9924188
0.147714 -0.273048 0.940000 9134931
0.145671 -0.263974 0.927000 7418949
0.144571 -0.256724 0.920000 10786989
0.143000 -0.248733 0.910000 7423613
0.141586 -0.241125 0.901000 7817560
0.140014 -0.233357 0.891000 8016467
0.139386 -0.227241 0.887000 5712409
0.139700 -0.222673 0.889000 5715247
0.140014 -0.218083 0.891000 5648950
0.140486 -0.213709 0.894000 5251900
0.141114 -0.209533 0.898000 5185561
0.141586 -0.205085 0.901000 5317407
0.142214 -0.200824 0.905000 4858149
0.142686 -0.196301 0.908000 4464155
0.143000 -0.191533 0.910000 4003342
0.158570 -0.329485 0.997000 10781069
0.158093 -0.322813 0.994000 9795209
0.156662 -0.314262 0.985000 9863564
0.154912 -0.305187 0.974000 10446697
0.152845 -0.295622 0.961000 10118736
0.152368 -0.289225 0.958000 9390929
0.150777 -0.280789 0.948000 9594460
0.149505 -0.273048 0.940000 8937554
0.147437 -0.263974 0.927000 6964811
0.146324 -0.256724 0.920000 11050131
0.144415 -0.248187 0.908000 8146811
0.143620 -0.241660 0.903000 7357016
0.142189 -0.234143 0.894000 7884879
0.141075 -0.227241 0.887000 5712167
0.141393 -0.222673 0.889000 5583409
0.141711 -0.218083 0.891000 5447985
0.142189 -0.213709 0.894000 5318453
0.142507 -0.209067 0.896000 5185309
0.143302 -0.205085 0.901000 5382689
0.143938 -0.200824 0.905000 5120550
0.143938 -0.195652 0.905000 4529436
0.144415 -0.191112 0.908000 4004116
0.160470 -0.329485 0.997000 10977683
0.159987 -0.322813 0.994000 9596540
0.158538 -0.314262 0.985000 9730186
0.156446 -0.304560 0.972000 10381923
0.154675 -0.295622 0.961000 10117710
0.154192 -0.289225 0.958000 9460554
0.152583 -0.280789 0.948000 9726044
0.151295 -0.273048 0.940000 9132880
0.149203 -0.263974 0.927000 7751505
0.148076 -0.256724 0.920000 10848632
0.146467 -0.248733 0.910000 8013946
0.145340 -0.241660 0.903000 6963543
0.143891 -0.234143 0.894000 7426635
0.142765 -0.227241 0.887000 5713205
0.143087 -0.222673 0.889000 5583666
0.143409 -0.218083 0.891000 5646892
0.143409 -0.212991 0.891000 5248558
0.144213 -0.209067 0.896000 5251105
0.144535 -0.204402 0.898000 5381924
0.145340 -0.200380 0.903000 5251878
0.145662 -0.195652 0.905000 4529693
0.146145 -0.191112 0.908000 4003866
0.162369 -0.329485 0.997000 11110030
0.161880 -0.322813 0.994000 9454962
0.160414 -0.314262 0.985000 9597558
0.158297 -0.304560 0.972000 10318172
0.156831 -0.296237 0.963000 10116173
0.156017 -0.289225 0.958000 9594440
0.154389 -0.280789 0.948000 9856082
0.153086 -0.273048 0.940000 9329980
0.150969 -0.263974 0.927000 8540756
0.149829 -0.256724 0.920000 10712448
0.148200 -0.248733 0.910000 7886712
0.147060 -0.241660 0.903000 6636118
0.145594 -0.234143 0.894000 6899786
0.144454 -0.227241 0.887000 5779003
0.144454 -0.222172 0.887000 5517361
0.144780 -0.217593 0.889000 5773341
0.145106 -0.212991 0.891000 5187126
0.145594 -0.208600 0.894000 5317150
0.146246 -0.204402 0.898000 5382174
0.147060 -0.200380 0.903000 5448223
0.147386 -0.195652 0.905000 4463900
0.147874 -0.191112 0.908000 4004117
0.164268 -0.329485 0.997000 11109769
0.163773 -0.322813 0.994000 9592936
0.162290 -0.314262 0.985000 8349026
0.160149 -0.304560 0.972000 9332052
0.158666 -0.296237 0.963000 9196109
0.157842 -0.289225 0.958000 8803398
0.156194 -0.280789 0.948000 9527625
0.154876 -0.273048 0.940000 8473895
0.152734 -0.263974 0.927000 9460054
0.151581 -0.256724 0.920000 10582407
0.149933 -0.248733 0.910000 7489653
0.148780 -0.241660 0.903000 6701653
0.147297 -0.234143 0.894000 6834506
0.146144 -0.227241 0.887000 5781057
0.146144 -0.222172 0.887000 5451311
0.146473 -0.217593 0.889000 5842958
0.146803 -0.212991 0.891000 5316157
0.147297 -0.208600 0.894000 5251098
0.147956 -0.204402 0.898000 5381657
0.148450 -0.199936 0.901000 5382680
0.148780 -0.195220 0.903000 4528668
0.149604 -0.191112 0.908000 3872271
0.166167 -0.329485 0.997000 11043976
0.165667 -0.322813 0.994000 9722226
0.164167 -0.314262 0.985000 7033429
0.162000 -0.304560 0.972000 8283213
0.160500 -0.296237 0.963000 8277840
0.159667 -0.289225 0.958000 8020052
0.158000 -0.280789 0.948000 9130570
0.156667 -0.273048 0.940000 7614006
0.154500 -0.263974 0.927000 10313302
0.153333 -0.256724 0.920000 10514812
0.151333 -0.248187 0.908000 7033211
0.150167 -0.241125 0.901000 6767958
0.149000 -0.234143 0.894000 6768458
0.147833 -0.227241 0.887000 5780802
0.147333 -0.221421 0.884000 5385519
0.147833 -0.217104 0.887000 5971228
0.148167 -0.212513 0.889000 5451058
0.148500 -0.207900 0.891000 5185308
0.149333 -0.203947 0.896000 5381910
0.150167 -0.199936 0.901000 5316633
0.150500 -0.195220 0.903000 4593952
0.151333 -0.191112 0.908000 3806739
0.168571 -0.330476 1.000000 11110279
0.167560 -0.322813 0.994000 9398395
0.166549 -0.315219 0.988000 6501704
0.163851 -0.304560 0.972000 8344645
0.162334 -0.296237 0.963000 8935252
0.161491 -0.289225 0.958000 8477793
0.160143 -0.281381 0.950000 9330508
0.158457 -0.273048 0.940000 8738373
0.156266 -0.263974 0.927000 10182230
0.155086 -0.256724 0.920000 10780272
0.153063 -0.248187 0.908000 7161218
0.151883 -0.241125 0.901000 6899031
0.150197 -0.233357 0.891000 6769482
0.149523 -0.227241 0.887000 5847107
0.148680 -0.220920 0.882000 5254703
0.148680 -0.215880 0.882000 5447721
0.149860 -0.212513 0.889000 5516326
0.150197 -0.207900 0.891000 5053726
0.151040 -0.203947 0.896000 5250580
0.151883 -0.199936 0.901000 5316122
0.152220 -0.195220 0.903000 5117988
0.152557 -0.190481 0.905000 4331799
0.170476 -0.330476 1.000000 11175555
0.169453 -0.322813 0.994000 9073791
0.168430 -0.315219 0.988000 5913172
0.165703 -0.304560 0.972000 8411724
0.163828 -0.295622 0.961000 9526348
0.162805 -0.288319 0.955000 9003870
0.161952 -0.281381 0.950000 9527127
0.160248 -0.273048 0.940000 9860971
0.158031 -0.263974 0.927000 9984340
0.156327 -0.255887 0.917000 11040114
0.154792 -0.248187 0.908000 7230327
0.153599 -0.241125 0.901000 7096409
0.152406 -0.234143 0.894000 6767951
0.150360 -0.225960 0.882000 5912392
0.150360 -0.220920 0.882000 5123632
0.150360 -0.215880 0.882000 4988460
0.150701 -0.211318 0.884000 5519913
0.151894 -0.207900 0.891000 4922144
0.152747 -0.203947 0.896000 5053460
0.153088 -0.199270 0.898000 5315100
0.153599 -0.194788 0.901000 5644826
0.154281 -0.190481 0.905000 4922140
0.172898 -0.331468 1.003000 11110783
0.171864 -0.323788 0.997000 9073539
0.170312 -0.315219 0.988000 6436191
0.167554 -0.304560 0.972000 8211539
0.166003 -0.296237 0.963000 9987653
0.164624 -0.288319 0.955000 9068890
0.163417 -0.280789 0.948000 10384995
0.161521 -0.272176 0.937000 9268113
0.159797 -0.263974 0.927000 8474450
0.158073 -0.255887 0.917000 10842739
0.156522 -0.248187 0.908000 7687020
0.155315 -0.241125 0.901000 7424859
0.154109 -0.234143 0.894000 6832981
0.152040 -0.225960 0.882000 5913420
0.152040 -0.220920 0.882000 5123378
0.152040 -0.215880 0.882000 4529454
0.152385 -0.211318 0.884000 6114860
0.153247 -0.207433 0.889000 4922146
0.153591 -0.202809 0.891000 4987413
0.154798 -0.199270 0.898000 6039582
0.155315 -0.194788 0.901000 6503440
0.156005 -0.190481 0.905000 5183776
0.174809 -0.331468 1.003000 10978179
0.173763 -0.323788 0.997000 9074309
0.171671 -0.314262 0.985000 6898529
0.169754 -0.305187 0.974000 8011844
0.167837 -0.296237 0.963000 10448721
0.166443 -0.288319 0.955000 9197916
