# .PCD v.7 - Point Cloud Data file format
VERSION .7
FIELDS x y z rgb
SIZE 4 4 4 4
TYPE F F F I
COUNT 1 1 1 1
WIDTH 1320
HEIGHT 1
POINTS 1320
DATA ascii
0.304689 -0.182483 0.867000 10906988
0.300823 -0.175276 0.856000 11041906
0.294849 -0.167001 0.839000 10249834
0.286414 -0.157567 0.815000 8866126
0.286414 -0.152910 0.815000 7748399
0.286414 -0.148252 0.815000 7801185
0.287117 -0.143948 0.817000 8218775
0.289226 -0.140302 0.823000 6568518
0.290631 -0.136258 0.827000 7750733
0.292037 -0.132169 0.831000 8539211
0.292740 -0.127727 0.833000 8079179
0.293443 -0.123262 0.835000 8207422
0.294849 -0.119058 0.839000 8801618
0.295551 -0.114536 0.841000 8408657
0.314113 -0.197273 0.889000 9788236
0.309167 -0.189167 0.875000 11168878
0.306340 -0.182483 0.867000 11168624
0.302453 -0.175276 0.856000 11107957
0.296447 -0.167001 0.839000 9788508
0.291500 -0.159500 0.825000 8279648
0.288673 -0.153285 0.817000 7094662
0.287967 -0.148252 0.815000 9338269
0.289380 -0.144300 0.819000 8753293
0.291500 -0.140643 0.825000 7879753
0.292913 -0.136588 0.829000 8145233
0.293620 -0.132169 0.831000 8604495
0.294327 -0.127727 0.833000 7686477
0.295740 -0.123557 0.837000 8276294
0.297153 -0.119342 0.841000 8999252
0.297860 -0.114809 0.843000 8211796
0.314030 -0.196164 0.884000 9194540
0.310833 -0.189167 0.875000 10906993
0.307991 -0.182483 0.867000 11235699
0.302663 -0.174457 0.852000 11238264
0.298045 -0.167001 0.839000 9064782
0.292361 -0.159113 0.823000 9405554
0.291650 -0.154035 0.821000 9475036
0.290230 -0.148616 0.817000 10535642
0.291650 -0.144652 0.821000 8612483
0.293782 -0.140984 0.827000 7947852
0.295203 -0.136917 0.831000 8342612
0.296624 -0.132805 0.835000 8539219
0.296624 -0.128033 0.835000 8146255
0.298045 -0.123852 0.839000 8934734
0.299466 -0.119626 0.843000 8802645
0.315000 -0.195720 0.882000 8533310
0.311786 -0.188734 0.873000 10643552
0.309643 -0.182483 0.867000 11300723
0.302857 -0.173638 0.848000 11369073
0.298929 -0.166603 0.837000 8342097
0.293929 -0.159113 0.823000 10514806
0.293214 -0.154035 0.821000 11901355
0.293214 -0.149344 0.821000 11703750
0.293214 -0.144652 0.821000 8472937
0.296071 -0.141325 0.829000 8013904
0.296786 -0.136917 0.831000 8475219
0.298929 -0.133123 0.837000 8408918
0.299643 -0.128647 0.839000 8606295
0.300357 -0.124148 0.841000 9524309
0.301786 -0.119910 0.845000 8541274
0.315962 -0.195276 0.880000 8799056
0.313449 -0.188734 0.873000 10247759
0.312012 -0.182904 0.869000 10842738
0.305190 -0.174048 0.850000 10647914
0.299087 -0.165807 0.833000 7355220
0.295496 -0.159113 0.823000 9397370
0.294778 -0.154035 0.821000 10056826
0.294778 -0.149344 0.821000 10980018
0.296214 -0.145357 0.825000 8407631
0.297650 -0.141325 0.829000 8342613
0.299087 -0.137247 0.833000 8672338
0.300523 -0.133123 0.837000 8670809
0.302677 -0.129260 0.843000 8738142
0.302677 -0.124443 0.843000 8737372
0.303395 -0.119910 0.845000 8541790
0.315111 -0.193723 0.873000 9065040
0.314390 -0.188302 0.871000 9853013
0.312224 -0.182062 0.865000 10381932
0.305005 -0.173024 0.845000 9857118
0.300673 -0.165807 0.833000 6369602
0.297786 -0.159500 0.825000 8220818
0.297064 -0.154410 0.823000 8224410
0.297064 -0.149708 0.823000 10258340
0.297786 -0.145357 0.825000 8337506
0.299951 -0.141666 0.831000 8672088
0.300673 -0.137247 0.833000 8869459
0.302117 -0.133123 0.837000 8868438
0.302117 -0.128340 0.837000 8869980
0.304283 -0.124443 0.843000 7951462
0.306088 -0.120335 0.848000 8544112
0.316049 -0.193279 0.871000 9262927
0.315323 -0.187870 0.869000 9918044
0.313871 -0.182062 0.865000 10381414
0.306614 -0.173024 0.845000 9393491
0.302986 -0.166205 0.835000 7093039
0.300083 -0.159887 0.827000 9014441
0.298631 -0.154410 0.823000 9209786
0.299357 -0.150071 0.825000 9993111
0.300809 -0.146062 0.829000 8604789
0.301534 -0.141666 0.831000 8738395
0.302986 -0.137576 0.835000 8869459
0.303711 -0.133123 0.837000 8935252
0.303711 -0.128340 0.837000 9330522
0.305889 -0.124443 0.843000 9134447
0.309154 -0.120903 0.852000 9072002
0.317708 -0.193279 0.871000 9459066
0.316978 -0.187870 0.869000 9919067
0.313695 -0.181010 0.860000 10315619
0.308224 -0.173024 0.845000 8868688
0.303847 -0.165807 0.833000 7877465
0.302388 -0.160273 0.829000 9801393
0.300929 -0.154786 0.825000 10192066
0.301658 -0.150435 0.827000 9727879
0.302388 -0.146062 0.829000 8871275
0.303847 -0.142007 0.833000 8804711
0.304576 -0.137576 0.835000 8870763
0.305306 -0.133123 0.837000 9004660
0.306765 -0.128953 0.841000 9792895
0.307494 -0.124443 0.843000 10322573
0.311507 -0.121187 0.854000 9667991
0.319367 -0.193279 0.871000 10318757
0.317900 -0.187437 0.867000 10116442
0.313133 -0.179747 0.854000 10512224
0.309833 -0.173024 0.845000 8538190
0.305433 -0.165807 0.833000 8742018
0.303233 -0.159887 0.827000 10325945
0.302500 -0.154786 0.825000 9995209
0.303967 -0.150799 0.829000 9657976
0.303967 -0.146062 0.829000 9593440
0.305433 -0.142007 0.833000 9856114
0.306167 -0.137576 0.835000 10320771
0.306900 -0.133123 0.837000 10716052
0.313133 -0.121187 0.854000 11312043
0.314760 -0.184627 0.854000 10313320
0.314023 -0.179326 0.852000 10709338
0.312549 -0.173638 0.848000 8143436
0.307757 -0.166205 0.835000 9603733
0.305546 -0.160273 0.829000 10780571
0.304809 -0.155161 0.827000 9794964
0.305546 -0.150799 0.829000 9530252
0.305546 -0.146062 0.829000 10251909
0.307020 -0.142007 0.833000 10913425
0.307757 -0.137576 0.835000 11770263
0.314760 -0.121187 0.854000 13016743
0.316387 -0.184627 0.854000 10247543
0.315646 -0.179326 0.852000 10247763
0.314164 -0.173638 0.848000 7615818
0.309348 -0.166205 0.835000 9864616
0.307866 -0.160660 0.831000 8860542
0.307125 -0.155536 0.829000 10188382
0.307125 -0.150799 0.829000 11372959
0.309348 -0.137576 0.835000 12426923
0.317269 -0.179326 0.852000 9788022
0.315779 -0.173638 0.848000 7033717
0.311683 -0.166603 0.837000 10191010
0.310193 -0.161047 0.833000 6901129
0.309449 -0.155911 0.831000 10590093
0.309449 -0.151163 0.831000 13147049
0.318891 -0.179326 0.852000 11107225
0.317394 -0.173638 0.848000 9996960
0.314774 -0.167399 0.841000 11112092
0.312529 -0.161433 0.835000 9335956
0.311031 -0.155911 0.831000 11969468
0.321267 -0.179747 0.854000 12427169
0.319010 -0.173638 0.848000 12951458
0.316376 -0.167399 0.841000 12098210
0.314119 -0.161433 0.835000 11704483
0.312614 -0.155911 0.831000 13413045
0.322893 -0.179747 0.854000 12427176
0.320625 -0.173638 0.848000 12755876
0.319490 -0.168195 0.845000 12492711
0.315710 -0.161433 0.835000 12362675
0.324520 -0.179747 0.854000 12426407
0.130938 -0.159660 0.887000 12688779
0.130495 -0.154069 0.884000 12027264
0.132179 -0.159120 0.884000 10448489
0.131880 -0.153720 0.882000 9986404
0.130833 -0.147500 0.875000 8871252
0.136437 -0.193071 0.901000 9644904
0.136437 -0.187923 0.901000 9195606
0.133257 -0.178514 0.880000 8932434
0.132954 -0.173091 0.878000 9263699
0.133560 -0.158760 0.882000 8274767
0.133560 -0.153720 0.882000 7884362
0.132500 -0.147500 0.875000 6702913
0.134620 -0.144780 0.889000 6637378
0.134620 -0.139700 0.889000 6896698
0.134923 -0.134923 0.891000 7552565
0.138153 -0.193071 0.901000 9980243
0.136007 -0.185003 0.887000 9853524
0.134627 -0.178109 0.878000 9129558
0.133860 -0.172106 0.873000 8605008
0.133860 -0.167117 0.873000 7751250
0.134627 -0.158040 0.878000 7354421
0.134933 -0.153371 0.880000 7026481
0.134167 -0.147500 0.875000 6304814
0.135547 -0.143966 0.884000 6632761
0.136007 -0.139386 0.887000 6897464
0.136313 -0.134620 0.889000 7289398
0.140956 -0.199760 0.908000 8869731
0.140180 -0.193500 0.903000 10312283
0.137230 -0.184377 0.884000 10509914
0.136299 -0.178109 0.878000 9328723
0.135523 -0.172106 0.873000 7947596
0.135212 -0.166734 0.871000 7883850
0.135523 -0.162129 0.873000 7029568
0.136299 -0.158040 0.878000 6437693
0.136299 -0.153023 0.878000 6174517
0.135833 -0.147500 0.875000 5975602
0.137230 -0.143966 0.884000 6632499
0.137230 -0.138914 0.884000 6962227
0.138007 -0.134620 0.889000 6960431
0.142686 -0.199760 0.908000 8996169
0.141900 -0.193500 0.903000 10508899
0.139386 -0.185003 0.887000 10641504
0.137500 -0.177500 0.875000 9524304
0.136871 -0.171711 0.871000 7618633
0.136557 -0.166351 0.869000 7619649
0.136871 -0.161757 0.871000 6893892
0.137186 -0.157140 0.873000 6438980
0.137500 -0.152500 0.875000 6371130
0.137186 -0.147163 0.873000 6107445
0.138286 -0.143314 0.880000 6435117
0.138600 -0.138600 0.882000 6632749
0.139386 -0.134317 0.887000 6763049
0.144733 -0.200200 0.910000 9130331
0.143620 -0.193500 0.903000 10706285
0.141075 -0.185003 0.887000 10708080
0.138849 -0.177094 0.873000 9787481
0.138212 -0.171317 0.869000 7223883
0.137894 -0.165969 0.867000 7289920
0.137894 -0.161014 0.867000 6763839
0.137576 -0.155700 0.865000 6438718
0.138212 -0.151454 0.869000 6501433
0.138530 -0.146826 0.871000 6238258
0.139644 -0.142989 0.878000 6172717
0.139962 -0.138286 0.880000 6369069
0.140598 -0.133863 0.884000 6500388
0.148076 -0.207657 0.920000 10513001
0.146467 -0.200200 0.910000 10052205
0.145662 -0.193929 0.905000 10314870
0.141960 -0.183960 0.882000 10776191
0.140190 -0.176689 0.871000 9984354
0.139546 -0.170923 0.867000 7157070
0.139224 -0.165586 0.865000 6961471
0.138741 -0.160086 0.862000 6567482
0.138741 -0.155160 0.862000 6438455
0.139224 -0.150757 0.865000 6501177
0.139868 -0.146489 0.869000 6238255
0.140511 -0.142174 0.873000 6106670
0.140833 -0.137500 0.875000 5842989
0.141316 -0.132954 0.878000 6237214
0.141316 -0.127937 0.878000 6171681
0.150643 -0.208786 0.925000 9981033
0.148689 -0.200860 0.913000 10975095
0.147386 -0.193929 0.905000 9985392
0.143640 -0.183960 0.882000 10773351
0.141523 -0.176283 0.869000 10249321
0.140871 -0.170529 0.865000 7027535
0.140383 -0.165011 0.862000 6631996
0.139731 -0.159343 0.858000 6305591
0.139731 -0.154440 0.858000 6439228
0.140383 -0.150234 0.862000 6435382
0.141197 -0.146151 0.867000 6237231
0.141849 -0.141849 0.871000 5974829
0.142174 -0.137186 0.873000 5316650
0.142500 -0.132500 0.875000 5908769
0.142500 -0.127500 0.875000 6040098
0.152405 -0.208786 0.925000 10442344
0.150757 -0.201300 0.915000 10982017
0.149604 -0.194571 0.908000 9459817
0.147627 -0.186880 0.896000 9981008
0.143508 -0.176689 0.871000 10052464
0.142519 -0.170529 0.865000 7356497
0.141695 -0.164629 0.860000 6173241
0.141036 -0.158971 0.856000 6174259
0.141036 -0.154080 0.856000 6370881
0.141695 -0.149886 0.860000 6435124
0.142519 -0.145814 0.865000 6171695
0.143178 -0.141523 0.869000 5908524
0.143178 -0.136557 0.869000 5579815
0.143508 -0.131894 0.871000 5974564
0.143508 -0.126917 0.871000 5974562
0.154167 -0.208786 0.925000 10965624
0.152500 -0.201300 0.915000 10912904
0.151333 -0.194571 0.908000 9003105
0.147333 -0.184377 0.884000 9129296
0.144833 -0.176283 0.869000 9856336
0.143667 -0.169937 0.862000 7685203
0.142667 -0.163863 0.856000 5714237
0.142000 -0.158229 0.852000 6042418
0.142333 -0.153720 0.854000 6298664
0.142667 -0.149189 0.856000 6436927
0.143333 -0.144971 0.860000 6040109
0.143667 -0.140383 0.862000 5842986
0.143667 -0.135457 0.862000 5842215
0.144167 -0.130986 0.865000 6040359
0.144833 -0.126626 0.869000 5908770
0.157109 -0.215691 0.932000 12228504
0.155423 -0.208109 0.922000 11103623
0.153906 -0.200860 0.913000 10647951
0.153063 -0.194571 0.908000 9000537
0.148680 -0.183960 0.882000 8998992
0.146826 -0.176689 0.871000 9195312
0.145309 -0.169937 0.862000 7816021
0.143960 -0.163480 0.854000 5976641
0.143286 -0.157857 0.850000 6107697
0.143623 -0.153360 0.852000 6171663
0.143960 -0.148840 0.854000 6437707
0.144297 -0.144297 0.856000 5908778
0.144634 -0.139731 0.858000 5777447
0.144971 -0.135143 0.860000 5842470
0.145309 -0.130531 0.862000 6105643
0.146151 -0.126334 0.867000 5974305
0.146489 -0.121660 0.869000 5120027
0.158884 -0.215691 0.932000 11898267
0.157690 -0.208786 0.925000 11303319
0.155986 -0.201300 0.915000 10384259
0.154792 -0.194571 0.908000 8998235
0.150019 -0.183543 0.880000 8866897
0.148485 -0.176689 0.871000 8534590
0.147462 -0.170529 0.865000 7949652
0.145246 -0.163097 0.852000 6238527
0.144052 -0.156929 0.845000 6107954
0.144905 -0.153000 0.850000 6040862
0.145246 -0.148491 0.852000 6373693
0.145587 -0.143960 0.854000 5842985
0.145928 -0.139406 0.856000 5710886
0.146269 -0.134829 0.858000 5842725
0.146950 -0.130531 0.862000 6170916
0.147462 -0.126043 0.865000 6038817
0.147803 -0.121380 0.867000 5053979
0.160314 -0.215229 0.930000 12093087
0.159452 -0.208786 0.925000 11570854
0.157729 -0.201300 0.915000 9199478
0.156867 -0.195000 0.910000 8537436
0.151695 -0.183543 0.880000 8406098
0.150144 -0.176689 0.871000 8405068
0.148592 -0.169937 0.862000 8214356
0.146179 -0.162331 0.848000 6961980
0.145662 -0.156929 0.845000 6239795
0.145662 -0.152100 0.845000 5845037
0.146179 -0.147794 0.848000 6836528
0.146524 -0.143286 0.850000 5776167
0.146869 -0.138754 0.852000 5644837
0.147558 -0.134514 0.856000 5776931
0.148248 -0.130229 0.860000 6171165
0.148592 -0.125606 0.862000 5908256
0.149110 -0.121100 0.865000 5053468
0.162086 -0.215229 0.930000 12225185
0.161563 -0.209237 0.927000 11903150
0.159471 -0.201300 0.915000 8014693
0.158600 -0.195000 0.910000 8076366
0.153023 -0.183126 0.878000 7947621
0.151803 -0.176689 0.871000 8275283
0.150234 -0.169937 0.862000 8409428
0.147794 -0.162331 0.848000 7685185
0.146923 -0.156557 0.843000 6370356
0.147271 -0.152100 0.845000 5649718
0.147271 -0.147271 0.845000 7292467
0.147794 -0.142949 0.848000 5774379
0.148491 -0.138754 0.852000 5514277
0.148840 -0.134200 0.854000 5776415
0.149189 -0.129623 0.856000 6105371
0.150234 -0.125606 0.862000 5777183
0.149886 -0.120400 0.860000 5053211
0.164210 -0.215691 0.932000 12357028
0.163329 -0.209237 0.927000 11571637
0.161214 -0.201300 0.915000 7485011
0.159981 -0.194571 0.908000 8870208
0.154695 -0.183126 0.878000 9067896
0.153462 -0.176689 0.871000 7880281
0.152405 -0.170529 0.865000 8409428
0.148881 -0.161757 0.845000 7750982
0.148529 -0.156557 0.843000 6435638
0.148529 -0.151740 0.843000 6042431
0.148881 -0.147271 0.845000 6837302
0.148881 -0.142443 0.845000 5775662
0.149762 -0.138429 0.850000 5579557
0.150114 -0.133886 0.852000 5711131
0.150467 -0.129320 0.854000 6039834
0.151171 -0.125023 0.858000 5645597
0.150819 -0.119840 0.856000 4921883
0.166519 -0.216386 0.935000 12425642
0.165094 -0.209237 0.927000 11176111
0.162957 -0.201300 0.915000 6956383
0.162067 -0.195000 0.910000 9734270
0.156368 -0.183126 0.878000 10192533
0.155121 -0.176689 0.871000 7486029
0.153518 -0.169937 0.862000 8408915
0.150490 -0.161757 0.845000 7883335
0.149778 -0.156186 0.841000 6500660
0.149778 -0.151380 0.841000 6370615
0.150134 -0.146923 0.843000 6307380
0.150490 -0.142443 0.845000 5775921
0.151025 -0.138103 0.848000 5645347
0.151381 -0.133571 0.850000 5645599
0.151737 -0.129017 0.852000 5974045
0.152093 -0.124440 0.854000 5448477
0.152450 -0.119840 0.856000 4791066
0.168660 -0.222203 0.937000 12227230
0.168300 -0.216386 0.935000 12953009
0.166860 -0.209237 0.927000 10315945
0.165060 -0.201740 0.917000 7998571
0.164340 -0.195643 0.913000 10389947
0.157500 -0.182500 0.875000 11253170
0.156780 -0.176689 0.871000 8212032
0.155160 -0.169937 0.862000 8408402
0.152640 -0.162331 0.848000 8080199
0.151380 -0.156186 0.841000 6499890
0.151020 -0.151020 0.839000 6370095
0.151740 -0.146923 0.843000 6237747
0.152100 -0.142443 0.845000 5843507
0.152100 -0.137614 0.845000 5579809
0.152100 -0.132786 0.845000 5710882
0.152640 -0.128411 0.848000 5777185
0.153360 -0.124149 0.852000 5382428
0.153720 -0.119560 0.854000 4792090
0.154080 -0.114949 0.856000 4397070
0.170445 -0.222203 0.937000 12161952
0.170081 -0.216386 0.935000 13477813
0.169171 -0.209914 0.930000 9454984
0.166807 -0.201740 0.917000 9067383
0.166079 -0.195643 0.913000 10972804
0.159167 -0.182500 0.875000 12225696
0.158075 -0.176283 0.869000 8938352
0.156438 -0.169543 0.860000 8407626
0.154255 -0.162331 0.848000 8214097
0.152618 -0.155814 0.839000 6434874
0.152254 -0.150660 0.837000 6370351
0.152982 -0.146574 0.841000 6172468
0.153346 -0.142106 0.843000 5842734
0.153710 -0.137614 0.845000 5514017
0.153710 -0.132786 0.845000 5775902
0.153710 -0.127957 0.845000 5515037
0.154255 -0.123566 0.848000 5250849
0.154983 -0.119280 0.852000 4791580
0.155347 -0.114680 0.854000 4396818
0.172230 -0.222203 0.937000 12095905
0.172230 -0.216849 0.937000 13677241
0.170943 -0.209914 0.930000 8993126
0.168186 -0.201300 0.915000 10330244
0.166899 -0.194571 0.908000 10641484
0.160098 -0.181666 0.871000 10911118
0.159730 -0.176283 0.869000 9269407
0.158076 -0.169543 0.860000 8145219
0.156238 -0.162714 0.850000 8474459
0.153849 -0.155443 0.837000 6107459
0.153849 -0.150660 0.837000 6238766
0.154216 -0.146226 0.839000 5905205
0.154584 -0.141769 0.841000 5978153
0.154951 -0.137289 0.843000 5579554
0.154951 -0.132471 0.843000 5776410
0.155319 -0.127957 0.845000 5711641
0.155870 -0.123566 0.848000 5382693
0.156606 -0.119280 0.852000 4791326
0.156973 -0.114680 0.854000 4462613
0.174571 -0.222914 0.940000 12095390
0.174014 -0.216849 0.937000 13806516
0.172157 -0.209237 0.927000 8587349
0.169929 -0.201300 0.915000 11568013
0.167329 -0.193071 0.901000 10310237
0.161757 -0.181666 0.871000 9531524
0.161386 -0.176283 0.869000 9669545
0.159714 -0.169543 0.860000 7816009
0.157857 -0.162714 0.850000 8670806
0.155443 -0.155443 0.837000 5713473
0.155071 -0.150300 0.835000 6172979
0.155443 -0.145877 0.837000 5644087
0.155443 -0.141094 0.837000 6114604
0.156186 -0.136963 0.841000 5644319
0.156557 -0.132471 0.843000 5776926
0.156557 -0.127654 0.843000 5907998
0.156929 -0.123129 0.845000 5448227
0.157857 -0.119000 0.850000 4725792
0.158600 -0.114680 0.854000 4462613
0.176362 -0.222914 0.940000 12226202
0.176362 -0.217543 0.940000 13677486
0.174486 -0.209914 0.930000 8795715
0.171671 -0.201300 0.915000 11237270
0.168482 -0.192429 0.898000 10775662
0.165105 -0.183543 0.880000 9723514
0.163041 -0.176283 0.869000 10191795
0.161352 -0.169543 0.860000 7880528
0.159476 -0.162714 0.850000 8211536
0.156662 -0.155071 0.835000 5972799
0.156287 -0.149940 0.833000 6041912
0.156662 -0.145529 0.835000 5315642
0.156662 -0.140757 0.835000 6373935
0.157037 -0.136311 0.837000 5643804
0.158163 -0.132471 0.843000 5776418
0.158163 -0.127654 0.843000 6038563
0.158538 -0.123129 0.845000 5514529
0.159476 -0.119000 0.850000 4791074
0.159851 -0.114411 0.852000 4396821
0.178152 -0.222914 0.940000 12356502
0.178152 -0.217543 0.940000 13543089
0.175689 -0.209237 0.927000 8986715
0.173414 -0.201300 0.915000 10844561
0.169813 -0.192000 0.896000 11300457
0.166781 -0.183543 0.880000 9923190
0.164696 -0.176283 0.869000 10717872
0.162990 -0.169543 0.860000 7880289
0.161095 -0.162714 0.850000 7752527
0.157873 -0.154700 0.833000 6239290
0.157494 -0.149580 0.831000 5975863
0.157873 -0.145180 0.833000 4989483
0.158252 -0.140757 0.835000 6638916
0.158631 -0.136311 0.837000 5644068
0.159010 -0.131843 0.839000 5776162
0.159769 -0.127654 0.843000 6104353
0.159769 -0.122837 0.843000 5645089
0.160148 -0.118300 0.845000 4791076
0.161474 -0.114411 0.852000 4396821
0.180326 -0.218006 0.942000 12693939
0.177454 -0.209237 0.927000 9193586
0.175157 -0.201300 0.915000 10777741
0.171903 -0.192429 0.898000 10906211
0.168840 -0.183960 0.882000 9789298
0.166351 -0.176283 0.869000 10717357
0.164629 -0.169543 0.860000 7946611
0.162714 -0.162714 0.850000 7621198
0.159460 -0.154700 0.833000 6239286
0.158694 -0.149220 0.829000 5845301
0.159077 -0.144831 0.831000 5317149
0.159843 -0.140757 0.835000 6243929
0.159843 -0.135986 0.835000 5513260
0.160226 -0.131529 0.837000 5645089
0.160991 -0.127351 0.841000 5907486
0.161374 -0.122837 0.843000 5579553
0.161374 -0.118020 0.843000 4724774
0.162331 -0.113874 0.848000 4593941
0.182120 -0.218006 0.942000 11766185
0.178833 -0.208786 0.925000 9400207
0.176900 -0.201300 0.915000 10646651
0.173613 -0.192429 0.898000 10577514
0.170133 -0.183543 0.880000 9589863
0.168007 -0.176283 0.869000 10719664
0.165880 -0.169149 0.858000 7948910
0.163947 -0.162331 0.848000 7554125
0.161433 -0.155071 0.835000 6175036
0.160273 -0.149220 0.829000 5714231
0.160660 -0.144831 0.831000 5580071
0.161047 -0.140420 0.833000 5854276
0.161433 -0.135986 0.835000 5382188
0.161820 -0.131529 0.837000 5580063
0.162207 -0.127049 0.839000 5710620
0.162593 -0.122546 0.841000 5513765
0.162980 -0.118020 0.843000 4596001
0.163947 -0.113874 0.848000 4857372
0.183914 -0.218006 0.942000 10781087
0.180986 -0.209237 0.927000 9599915
0.177667 -0.200200 0.910000 10710634
0.174543 -0.191571 0.894000 10510448
0.172200 -0.183960 0.882000 8928349
0.170052 -0.176689 0.871000 10980787
0.167514 -0.169149 0.858000 7749738
0.165562 -0.162331 0.848000 7423051
0.163024 -0.155071 0.835000 6371393
0.161852 -0.149220 0.829000 5649208
0.161852 -0.144483 0.829000 5384241
0.162633 -0.140420 0.833000 5849391
0.163024 -0.135986 0.835000 5316139
0.163024 -0.131214 0.835000 5382428
0.163805 -0.127049 0.839000 5710105
0.164195 -0.122546 0.841000 6169641
0.164586 -0.118020 0.843000 6175517
0.164976 -0.113471 0.845000 4987939
0.185709 -0.218006 0.942000 9793685
0.182751 -0.209237 0.927000 9867684
0.177626 -0.198220 0.901000 10708064
0.176640 -0.192000 0.896000 10442091
0.173486 -0.183543 0.880000 8277085
0.171711 -0.176689 0.871000 11245209
0.169543 -0.169543 0.860000 7553646
0.166586 -0.161757 0.845000 7356749
0.165009 -0.155443 0.837000 6568771
0.163431 -0.149220 0.829000 5649721
0.163431 -0.144483 0.829000 5187634
0.163826 -0.140083 0.831000 5851181
0.164220 -0.135660 0.833000 5250857
0.164614 -0.131214 0.835000 5184540
0.165009 -0.126746 0.837000 5642784
0.165403 -0.122254 0.839000 6892070
0.166191 -0.118020 0.843000 7682851
0.166586 -0.113471 0.845000 5182498
0.188100 -0.224100 0.945000 12751515
0.187503 -0.218006 0.942000 9264267
0.184119 -0.208786 0.925000 9204892
0.180138 -0.199100 0.905000 10511190
0.178347 -0.192000 0.896000 10774374
0.175162 -0.183543 0.880000 8143709
0.173370 -0.176689 0.871000 11111038
0.170385 -0.168754 0.856000 7418227
0.168792 -0.162331 0.848000 7423054
0.166603 -0.155443 0.837000 6831686
0.164612 -0.148860 0.827000 5715002
0.164612 -0.144134 0.827000 5254450
0.165010 -0.139746 0.829000 5320490
0.165409 -0.135334 0.831000 5118248
0.166205 -0.131214 0.835000 5053212
0.166603 -0.126746 0.837000 5575462
0.167001 -0.122254 0.839000 7750434
0.167399 -0.117740 0.841000 7749417
0.167797 -0.113203 0.843000 6236961
0.189900 -0.224100 0.945000 12815517
0.189297 -0.218006 0.942000 8674962
0.186886 -0.209914 0.930000 8552083
0.181862 -0.199100 0.905000 10310733
0.180053 -0.192000 0.896000 11104113
0.176838 -0.183543 0.880000 7951194
0.175030 -0.176689 0.871000 10911102
0.172015 -0.168754 0.856000 7224947
0.170408 -0.162331 0.848000 7554128
0.168197 -0.155443 0.837000 7028553
0.165786 -0.148500 0.825000 5845823
0.166188 -0.144134 0.827000 5254191
0.166188 -0.139409 0.827000 4791083
0.166991 -0.135334 0.831000 4923689
0.167393 -0.130900 0.833000 4922397
0.167795 -0.126443 0.835000 5514024
0.168197 -0.121963 0.837000 8605749
0.169001 -0.117740 0.841000 7815213
0.169403 -0.113203 0.843000 7288605
0.191700 -0.224100 0.945000 12686494
0.191091 -0.218006 0.942000 8993946
0.188657 -0.209914 0.930000 8938377
0.183586 -0.199100 0.905000 9589828
0.181760 -0.192000 0.896000 10843003
0.178514 -0.183543 0.880000 9131351
0.176689 -0.176689 0.871000 10910846
0.173646 -0.168754 0.856000 7484788
0.172023 -0.162331 0.848000 7816530
0.169791 -0.155443 0.837000 7553868
0.166951 -0.148140 0.823000 5780291
0.167357 -0.143786 0.825000 5386029
0.167763 -0.139409 0.827000 5120812
0.168169 -0.135009 0.829000 4789546
0.168980 -0.130900 0.833000 4593693
0.169386 -0.126443 0.835000 6240042
0.169791 -0.121963 0.837000 8802631
0.170197 -0.117460 0.839000 8013105
0.170603 -0.112934 0.841000 7552024
0.171009 -0.108386 0.843000 6961692
0.193500 -0.224100 0.945000 12555164
0.192886 -0.218006 0.942000 9334927
0.190429 -0.209914 0.930000 9328003
0.185310 -0.199100 0.905000 8866895
0.183467 -0.192000 0.896000 10582127
0.180190 -0.183543 0.880000 10312029
0.177938 -0.176283 0.869000 10912373
0.175276 -0.168754 0.856000 7684984
0.173024 -0.161757 0.845000 8078675
0.171386 -0.155443 0.837000 8013133
0.168110 -0.147780 0.821000 5781311
0.168519 -0.143437 0.823000 5451564
0.168929 -0.139071 0.825000 5508892
0.169338 -0.134683 0.827000 4660776
0.169748 -0.130271 0.829000 4266524
0.170567 -0.126140 0.833000 6895399
0.170976 -0.121671 0.835000 8999461
0.171386 -0.117180 0.837000 8209711
0.172205 -0.112934 0.841000 7814945
0.172614 -0.108386 0.843000 7419679
0.195300 -0.224100 0.945000 12094874
0.194267 -0.217543 0.940000 9992836
0.192613 -0.210366 0.932000 10316157
0.187033 -0.199100 0.905000 8867930
0.185173 -0.192000 0.896000 10645090
0.181867 -0.183543 0.880000 10378084
0.179593 -0.176283 0.869000 11042411
0.177320 -0.169149 0.858000 8207227
0.175253 -0.162331 0.848000 8472915
0.172980 -0.155443 0.837000 8473933
0.169673 -0.147780 0.821000 6109243
0.169673 -0.143089 0.821000 5583404
0.170087 -0.138734 0.823000 5645068
0.170913 -0.134683 0.827000 3868966
0.171327 -0.130271 0.829000 4134171
0.171740 -0.125837 0.831000 7227429
0.171740 -0.121089 0.831000 8141826
0.172567 -0.116900 0.835000 8209198
0.173393 -0.112666 0.839000 7350825
0.173807 -0.108129 0.841000 7354403
0.197100 -0.224100 0.945000 11700630
0.195431 -0.216849 0.937000 10646658
0.193971 -0.209914 0.930000 11300723
0.189383 -0.199760 0.908000 8870239
0.186880 -0.192000 0.896000 10709616
0.183543 -0.183543 0.880000 10378334
0.181249 -0.176283 0.869000 11237224
0.179371 -0.169543 0.860000 8670577
0.176869 -0.162331 0.848000 8867154
0.174157 -0.155071 0.835000 8933195
0.171237 -0.147780 0.821000 6437438
0.171237 -0.143089 0.821000 5714220
0.171654 -0.138734 0.823000 5837068
0.172071 -0.134357 0.825000 3021613
0.172489 -0.129957 0.827000 4003355
0.172906 -0.125534 0.829000 7487014
0.173323 -0.121089 0.831000 7212312
0.173740 -0.116620 0.833000 8143665
0.174574 -0.112397 0.837000 6949930
0.174991 -0.107871 0.839000 7223592
0.198269 -0.223389 0.942000 11435921
0.197216 -0.216849 0.937000 10777473
0.195743 -0.209914 0.930000 11367529
0.191112 -0.199760 0.908000 9459812
0.189008 -0.192429 0.898000 10381950
0.185640 -0.183960 0.882000 10181209
0.182483 -0.175877 0.867000 10972517
0.180589 -0.169149 0.858000 9061478
0.177852 -0.161757 0.845000 9195344
0.175327 -0.154700 0.833000 9327433
0.172801 -0.147780 0.821000 6830912
0.172801 -0.143089 0.821000 6042413
0.172801 -0.138397 0.821000 6104587
0.173643 -0.134357 0.825000 3345204
0.174064 -0.129957 0.827000 4134171
0.174485 -0.125534 0.829000 7884071
0.174485 -0.120797 0.829000 8012077
0.175327 -0.116620 0.833000 8145204
0.175748 -0.112129 0.835000 7350570
0.176590 -0.107871 0.839000 7224110
0.200063 -0.223389 0.942000 11240588
0.199001 -0.216849 0.937000 10911113
0.196877 -0.209237 0.927000 11432809
0.192842 -0.199760 0.908000 9988190
0.190293 -0.192000 0.896000 10122350
0.187320 -0.183960 0.882000 9919316
0.183072 -0.174863 0.862000 10772838
0.182648 -0.169543 0.860000 9392747
0.179037 -0.161374 0.843000 9457743
0.176913 -0.154700 0.833000 9720137
0.173940 -0.147420 0.819000 7223613
0.173515 -0.142391 0.817000 6303530
0.173940 -0.138060 0.819000 6431256
0.174365 -0.133706 0.821000 3613744
0.174790 -0.129329 0.823000 4332314
0.175214 -0.124929 0.825000 8208168
0.175639 -0.120506 0.827000 8869422
0.176064 -0.116060 0.829000 8145458
0.176913 -0.111860 0.833000 7747364
0.177338 -0.107357 0.835000 7222826
0.204643 -0.226471 0.955000 10975879
0.200786 -0.216849 0.937000 11180176
0.198643 -0.209237 0.927000 11498856
0.194571 -0.199760 0.908000 9922137
0.191571 -0.191571 0.894000 9988445
0.188571 -0.183543 0.880000 9395791
0.185786 -0.175877 0.867000 10775655
0.183857 -0.169149 0.858000 9457520
0.178929 -0.159843 0.835000 9457741
0.178071 -0.154329 0.831000 9589577
0.175071 -0.147060 0.817000 7552825
0.175071 -0.142391 0.817000 6365991
0.175500 -0.138060 0.819000 6301477
0.175500 -0.133380 0.819000 4334893
0.175929 -0.129014 0.821000 4659225
0.176786 -0.124929 0.825000 7685930
0.177214 -0.120506 0.827000 9066799
0.177643 -0.116060 0.829000 8211505
0.178500 -0.111860 0.833000 7091998
0.178929 -0.107357 0.835000 6892838
0.206462 -0.226471 0.955000 10780044
0.202138 -0.216386 0.935000 11370896
0.199976 -0.208786 0.925000 11629421
0.195652 -0.199100 0.905000 9790561
0.193707 -0.192000 0.896000 9859673
0.190248 -0.183543 0.880000 8800081
0.186356 -0.174863 0.862000 10774375
0.185491 -0.169149 0.858000 9523817
0.180519 -0.159843 0.835000 9523265
0.179654 -0.154329 0.831000 9458504
0.176628 -0.147060 0.817000 7814712
0.176628 -0.142391 0.817000 6431789
0.176628 -0.137723 0.817000 6234906
0.177060 -0.133380 0.819000 5060663
0.177492 -0.129014 0.821000 4987934
0.177925 -0.124626 0.823000 7156780
0.178357 -0.120214 0.825000 9263680
0.178790 -0.115780 0.827000 8276526
0.179654 -0.111591 0.831000 6436649
0.180519 -0.107357 0.835000 6497831
0.207845 -0.225997 0.953000 10779793
0.203919 -0.216386 0.935000 11109008
0.201084 -0.208109 0.922000 11236977
0.197376 -0.199100 0.905000 10251881
0.194977 -0.191571 0.894000 10187093
0.191924 -0.183543 0.880000 8589394
0.187562 -0.174457 0.860000 10579558
0.187126 -0.169149 0.858000 9523811
0.182546 -0.160226 0.837000 9260853
0.181237 -0.154329 0.831000 9524039
0.178184 -0.147060 0.817000 7814455
0.177748 -0.142043 0.815000 6431282
0.178184 -0.137723 0.817000 6234382
0.178620 -0.133380 0.819000 5591874
0.178620 -0.128700 0.819000 5381411
0.179492 -0.124626 0.823000 6627886
0.179929 -0.120214 0.825000 8936272
0.180365 -0.115780 0.827000 8210475
0.181237 -0.111591 0.831000 7224883
0.181673 -0.107100 0.833000 6759976
0.209660 -0.225997 0.953000 10718611
0.205700 -0.216386 0.935000 10781074
0.202840 -0.208109 0.922000 10844008
0.199100 -0.199100 0.905000 10643819
0.196020 -0.190929 0.891000 10520412
0.193600 -0.183543 0.880000 8403808
0.190740 -0.175877 0.867000 10385264
0.189200 -0.169543 0.860000 9524831
0.184580 -0.160609 0.839000 9064259
0.182820 -0.154329 0.831000 9589321
0.179300 -0.146700 0.815000 7815485
0.179300 -0.142043 0.815000 6432055
0.179300 -0.137386 0.815000 6168096
0.180180 -0.133380 0.819000 6046267
0.180180 -0.128700 0.819000 5777448
0.181060 -0.124626 0.823000 6105129
0.181500 -0.120214 0.825000 8674369
0.181940 -0.115780 0.827000 8141596
0.182380 -0.111323 0.829000 8078385
0.183260 -0.107100 0.833000 7024684
0.211475 -0.225997 0.953000 10978965
0.205262 -0.214071 0.925000 10847380
0.204596 -0.208109 0.922000 10513758
0.201933 -0.200200 0.910000 10775660
0.197273 -0.190500 0.889000 11045219
0.194832 -0.183126 0.878000 8140398
0.191948 -0.175471 0.865000 10581881
0.189507 -0.168360 0.854000 9325915
0.187066 -0.161374 0.843000 9326928
0.183959 -0.153957 0.829000 9719882
0.180630 -0.146520 0.814000 8078403
0.180187 -0.141520 0.812000 6762044
0.180630 -0.137217 0.814000 6105394
0.181296 -0.133054 0.817000 6507573
0.181740 -0.128700 0.819000 6171436
0.182184 -0.124323 0.821000 6433316
0.183071 -0.120214 0.825000 7747890
0.183515 -0.115780 0.827000 8204556
0.183959 -0.111323 0.829000 8210991
0.184847 -0.107100 0.833000 7421489
0.213290 -0.225997 0.953000 11241626
0.208143 -0.215229 0.930000 10843272
0.205905 -0.207657 0.920000 10248546
0.203667 -0.200200 0.910000 10906218
0.198519 -0.190071 0.887000 11637351
0.196505 -0.183126 0.878000 7818099
0.193595 -0.175471 0.865000 10713957
0.191581 -0.168754 0.856000 9062738
0.189119 -0.161757 0.845000 9655376
0.185538 -0.153957 0.829000 9850956
0.182181 -0.146520 0.814000 8342085
0.181733 -0.141520 0.812000 7027519
0.181733 -0.136880 0.812000 6041396
0.182852 -0.133054 0.817000 6964534
0.182852 -0.128386 0.817000 6566956
0.183300 -0.124020 0.819000 6696738
0.183748 -0.119631 0.821000 6892850
0.184643 -0.115500 0.825000 8273440
0.185538 -0.111323 0.829000 8278065
0.185986 -0.106843 0.831000 7750962
0.215106 -0.225997 0.953000 11240862
0.209914 -0.215229 0.930000 9131645
0.208109 -0.208109 0.922000 10512230
0.205400 -0.200200 0.910000 10906728
0.200660 -0.190500 0.889000 11636843
0.197500 -0.182500 0.875000 8207992
0.195243 -0.175471 0.865000 10711376
0.192309 -0.167966 0.852000 8202825
0.189826 -0.160991 0.841000 9787216
0.186666 -0.153586 0.827000 9719887
0.183731 -0.146520 0.814000 8473926
0.183280 -0.141520 0.812000 7620162
0.183280 -0.136880 0.812000 6238518
0.183957 -0.132729 0.815000 7230776
0.184409 -0.128386 0.817000 6829611
0.184860 -0.124020 0.819000 6763040
0.185311 -0.119631 0.821000 6564913
0.186214 -0.115500 0.825000 8870195
0.186666 -0.111054 0.827000 8408883
0.187117 -0.106586 0.829000 7948596
0.216238 -0.225286 0.950000 11239324
0.212824 -0.216386 0.935000 7364474
0.209410 -0.207657 0.920000 10775140
0.206678 -0.199760 0.908000 10841699
0.202353 -0.190500 0.889000 11634553
0.199167 -0.182500 0.875000 8539763
0.195752 -0.174457 0.860000 10775633
0.194387 -0.168360 0.854000 7358545
0.191428 -0.160991 0.841000 9919573
0.188241 -0.153586 0.827000 9588825
0.185282 -0.146520 0.814000 8604997
0.184827 -0.141520 0.812000 8144195
0.184827 -0.136880 0.812000 6435130
0.185510 -0.132729 0.815000 7424058
0.185965 -0.128386 0.817000 7157292
0.186420 -0.124020 0.819000 6828837
0.186875 -0.119631 0.821000 6235960
0.187786 -0.115500 0.825000 9458740
0.188241 -0.111054 0.827000 8540215
0.188696 -0.106586 0.829000 8079927
0.217589 -0.224811 0.948000 11240858
0.213916 -0.215691 0.932000 7624824
0.211162 -0.207657 0.920000 10774114
0.208867 -0.200200 0.910000 10907743
0.204047 -0.190500 0.889000 11438470
0.200833 -0.182500 0.875000 8605295
0.197390 -0.174457 0.860000 10050641
0.196472 -0.168754 0.856000 8869210
0.193030 -0.160991 0.841000 10050905
0.189816 -0.153586 0.827000 9588323
0.186832 -0.146520 0.814000 8604228
0.186373 -0.141520 0.812000 7882564
0.186373 -0.136880 0.812000 6565949
0.187062 -0.132729 0.815000 7623995
0.187521 -0.128386 0.817000 7223341
0.187980 -0.124020 0.819000 6959914
0.188439 -0.119631 0.821000 6960959
0.189357 -0.115500 0.825000 9132084
0.189357 -0.110786 0.825000 8540475
0.189816 -0.106329 0.827000 8211771
0.219394 -0.224811 0.948000 11239318
0.215691 -0.215691 0.932000 7887476
0.212914 -0.207657 0.920000 10773343
0.210600 -0.200200 0.910000 10970205
0.205740 -0.190500 0.889000 11309957
0.202500 -0.182500 0.875000 8607081
0.199029 -0.174457 0.860000 9391706
0.197177 -0.167966 0.852000 10312022
0.194631 -0.160991 0.841000 10181724
0.190929 -0.153214 0.825000 9589595
0.187920 -0.146160 0.812000 8604994
0.187457 -0.141171 0.810000 7619651
0.187920 -0.136880 0.812000 6697532
0.188383 -0.132566 0.814000 7751737
0.188614 -0.128071 0.815000 7288624
0.189077 -0.123717 0.817000 7090477
0.189540 -0.119340 0.819000 7682622
0.190466 -0.115220 0.823000 8804153
0.190929 -0.110786 0.825000 8605765
0.191391 -0.106329 0.827000 8277564
0.221200 -0.224811 0.948000 11174290
0.218167 -0.216386 0.935000 7949681
0.214667 -0.207657 0.920000 10116188
0.211867 -0.199760 0.908000 9915740
0.207433 -0.190500 0.889000 11372675
0.204167 -0.182500 0.875000 8147556
0.200667 -0.174457 0.860000 8535394
0.198800 -0.167966 0.852000 10180946
0.196233 -0.160991 0.841000 10050911
0.192500 -0.153214 0.825000 9522259
0.189467 -0.146160 0.812000 8472640
0.189000 -0.141171 0.810000 7554369
0.189467 -0.136880 0.812000 6565690
0.189933 -0.132566 0.814000 8083768
0.190167 -0.128071 0.815000 7419443
0.190633 -0.123717 0.817000 7352113
0.191100 -0.119340 0.819000 8277564
0.192033 -0.115220 0.823000 8803135
0.192500 -0.110786 0.825000 8606542
0.192967 -0.106329 0.827000 8540477
0.193433 -0.101849 0.829000 8012341
0.223006 -0.224811 0.948000 11106191
0.220418 -0.216849 0.937000 8018549
0.215713 -0.206980 0.917000 9523038
0.212890 -0.199100 0.905000 8872544
0.209597 -0.190929 0.891000 11507829
0.204892 -0.181666 0.871000 7622230
0.202775 -0.174863 0.862000 7614302
0.200423 -0.167966 0.852000 9983824
0.197365 -0.160609 0.839000 9984865
0.194071 -0.153214 0.825000 9391699
0.191013 -0.146160 0.812000 8409154
0.190543 -0.141171 0.810000 7421504
0.191013 -0.136880 0.812000 6500920
0.191484 -0.132566 0.814000 8342327
0.191719 -0.128071 0.815000 7549749
0.192190 -0.123717 0.817000 7548717
0.192660 -0.119340 0.819000 8872268
0.193601 -0.115220 0.823000 8803394
0.194071 -0.110786 0.825000 8672069
0.194542 -0.106329 0.827000 8802105
0.195012 -0.101849 0.829000 8143667
0.224100 -0.224100 0.945000 11173516
0.221729 -0.216386 0.935000 8147321
0.217460 -0.206980 0.917000 8999519
0.214614 -0.199100 0.905000 9464677
0.211294 -0.190929 0.891000 9924711
0.206551 -0.181666 0.871000 7885639
0.205129 -0.175471 0.865000 7947353
0.202994 -0.168754 0.856000 9982798
0.198014 -0.159843 0.835000 9986147
0.195643 -0.153214 0.825000 9391188
0.192560 -0.146160 0.812000 8342339
0.192086 -0.141171 0.810000 7224382
0.192086 -0.136543 0.810000 6369333
0.192560 -0.132240 0.812000 8280887
0.193271 -0.128071 0.815000 7549750
0.193746 -0.123717 0.817000 7285545
0.194220 -0.119340 0.819000 9199707
0.195169 -0.115220 0.823000 8803397
0.195643 -0.110786 0.825000 8540988
0.196117 -0.106329 0.827000 8736566
0.196591 -0.101849 0.829000 8013873
0.225183 -0.223389 0.942000 11238793
0.223510 -0.216386 0.935000 8281210
0.219924 -0.207657 0.920000 8537945
0.216338 -0.199100 0.905000 10053989
0.212991 -0.190929 0.891000 8345957
0.208689 -0.182083 0.873000 8079699
0.206776 -0.175471 0.865000 8349805
0.204625 -0.168754 0.856000 9917262
0.199605 -0.159843 0.835000 10053733
0.197214 -0.153214 0.825000 9326161
0.194107 -0.146160 0.812000 8343614
0.193629 -0.141171 0.810000 7027005
0.193629 -0.136543 0.810000 6304819
0.194585 -0.132566 0.814000 8146232
0.194824 -0.128071 0.815000 7548716
0.195302 -0.123717 0.817000 7025708
0.195780 -0.119340 0.819000 9592908
0.196258 -0.114940 0.821000 8737857
0.196736 -0.110517 0.823000 8409908
0.197214 -0.106071 0.825000 8670511
0.197692 -0.101603 0.827000 7948328
0.226977 -0.223389 0.942000 11174022
0.225290 -0.216386 0.935000 8409724
0.221676 -0.207657 0.920000 8802386
0.218062 -0.199100 0.905000 10513254
0.214689 -0.190929 0.891000 8541283
0.210833 -0.182500 0.875000 8606815
0.208424 -0.175471 0.865000 9136000
0.204328 -0.167177 0.848000 9785933
0.201195 -0.159843 0.835000 9921894
0.199268 -0.153586 0.827000 9390414
0.195653 -0.146160 0.812000 8210745
0.195171 -0.141171 0.810000 6764349
0.195171 -0.136543 0.810000 6172721
0.195653 -0.132240 0.812000 8347706
0.196135 -0.127914 0.814000 7680033
0.196858 -0.123717 0.817000 7089199
0.196858 -0.119049 0.817000 9527356
0.197340 -0.114660 0.819000 8606780
0.198304 -0.110517 0.823000 8211500
0.198786 -0.106071 0.825000 8078632
0.199268 -0.101603 0.827000 7683615
0.229500 -0.224100 0.945000 11108234
0.227071 -0.216386 0.935000 8477565
0.223914 -0.208109 0.922000 9062744
0.219786 -0.199100 0.905000 10908264
0.216386 -0.190929 0.891000 8810088
0.213229 -0.183126 0.878000 9066594
0.210557 -0.175877 0.867000 9988717
0.205943 -0.167177 0.848000 9589068
0.202786 -0.159843 0.835000 9856113
0.200843 -0.153586 0.827000 9392206
0.197200 -0.146160 0.812000 8081978
0.196229 -0.140823 0.808000 6501178
0.196229 -0.136206 0.808000 5976879
0.197200 -0.132240 0.812000 8473656
0.197686 -0.127914 0.814000 7744797
0.197929 -0.123414 0.815000 7090472
0.198414 -0.119049 0.817000 9461296
0.198900 -0.114660 0.819000 8474420
0.199871 -0.110517 0.823000 8013103
0.200357 -0.106071 0.825000 7483178
0.200843 -0.101603 0.827000 7353382
0.230566 -0.223389 0.942000 11174798
0.228852 -0.216386 0.935000 8803454
0.226405 -0.208786 0.925000 8803422
0.222244 -0.199760 0.908000 11041642
0.218083 -0.190929 0.891000 9597293
0.214167 -0.182500 0.875000 9131877
0.212209 -0.175877 0.867000 9525338
0.207558 -0.167177 0.848000 9589324
0.204866 -0.160226 0.837000 9923708
0.202418 -0.153586 0.827000 9261645
0.198747 -0.146160 0.812000 7882555
0.197768 -0.140823 0.808000 6436151
0.197768 -0.136206 0.808000 5778988
0.198747 -0.132240 0.812000 8411959
0.199236 -0.127914 0.814000 7679769
0.199481 -0.123414 0.815000 7351841
0.199970 -0.119049 0.817000 9132068
0.200460 -0.114660 0.819000 8340012
0.200950 -0.110249 0.821000 6498098
0.201929 -0.106071 0.825000 5769260
0.202418 -0.101603 0.827000 6365229
0.233100 -0.224100 0.945000 11239826
0.230633 -0.216386 0.935000 9133182
0.227427 -0.208109 0.922000 8474726
0.223973 -0.199760 0.908000 11105124
0.219780 -0.190929 0.891000 10451819
0.215833 -0.182500 0.875000 9198943
0.213860 -0.175877 0.867000 9064794
0.208433 -0.166586 0.845000 9590358
0.205967 -0.159843 0.835000 9994625
0.204487 -0.153957 0.829000 9129802
0.200293 -0.146160 0.812000 7687740
0.199307 -0.140823 0.808000 6304055
0.199307 -0.136206 0.808000 5649199
0.199800 -0.131914 0.810000 8277307
0.200293 -0.127600 0.812000 7547932
0.201033 -0.123414 0.815000 7613729
0.201527 -0.119049 0.817000 8803880
0.202020 -0.114660 0.819000 8208168
0.202513 -0.110249 0.821000 4987949
0.203007 -0.105814 0.823000 4001824
0.203500 -0.101357 0.825000 5379876
0.234900 -0.224100 0.945000 11240086
0.232414 -0.216386 0.935000 9065599
0.228686 -0.207657 0.920000 8737902
0.225703 -0.199760 0.908000 10907999
0.221477 -0.190929 0.891000 10712425
0.217500 -0.182500 0.875000 10251610
0.215511 -0.175877 0.867000 9130329
0.210789 -0.167177 0.848000 9721696
0.207557 -0.159843 0.835000 10254214
0.206066 -0.153957 0.829000 8736327
0.201840 -0.146160 0.812000 7554365
0.200846 -0.140823 0.808000 6107448
0.200349 -0.135869 0.806000 5647409
0.201343 -0.131914 0.810000 8481343
0.201840 -0.127600 0.812000 7417887
0.202337 -0.123263 0.814000 7286306
0.203083 -0.119049 0.817000 7943980
0.203580 -0.114660 0.819000 7353123
0.204077 -0.110249 0.821000 5120808
0.204574 -0.105814 0.823000 4134421
0.205071 -0.101357 0.825000 5314330
0.234696 -0.222203 0.937000 11303829
0.233444 -0.215691 0.932000 8936833
0.229186 -0.206529 0.915000 9001833
0.227432 -0.199760 0.908000 10643039
0.222172 -0.190071 0.887000 10975607
0.218666 -0.182083 0.873000 11234913
0.217163 -0.175877 0.867000 9194834
0.212404 -0.167177 0.848000 9789287
0.209148 -0.159843 0.835000 10580061
0.208146 -0.154329 0.831000 8341828
0.203387 -0.146160 0.812000 7423556
0.202385 -0.140823 0.808000 5844787
0.201884 -0.135869 0.806000 5714224
0.202886 -0.131914 0.810000 8607300
0.203387 -0.127600 0.812000 7286051
0.203888 -0.123263 0.814000 6959139
0.204138 -0.118757 0.815000 7148833
0.204639 -0.114380 0.817000 6435619
0.205140 -0.109980 0.819000 5251621
0.206142 -0.105814 0.823000 4265748
0.206643 -0.101357 0.825000 5315610
0.239762 -0.225286 0.950000 11372691
0.235219 -0.215691 0.932000 9986947
0.230929 -0.206529 0.915000 9398372
0.229667 -0.200200 0.910000 9590111
0.222600 -0.189000 0.882000 11172996
0.220329 -0.182083 0.873000 11103848
0.219319 -0.176283 0.869000 9129802
0.213262 -0.166586 0.845000 9792879
0.210738 -0.159843 0.835000 9656627
0.208214 -0.153214 0.825000 8144962
0.204933 -0.146160 0.812000 7291467
0.203419 -0.140474 0.806000 5451055
0.203419 -0.135869 0.806000 5581614
0.203924 -0.131589 0.808000 8812617
0.204429 -0.127286 0.810000 7351078
0.205438 -0.123263 0.814000 6959653
0.205690 -0.118757 0.815000 7154453
0.206700 -0.114660 0.819000 6368291
0.207205 -0.110249 0.821000 4792609
0.207710 -0.105814 0.823000 4657683
0.207710 -0.101111 0.823000 5446938
0.241571 -0.225286 0.950000 11504276
0.236994 -0.215691 0.932000 10973061
0.232163 -0.206077 0.913000 9795952
0.230891 -0.199760 0.908000 8472926
0.224789 -0.189429 0.884000 11372141
0.221991 -0.182083 0.873000 10973282
0.220466 -0.175877 0.867000 9064268
0.214871 -0.166586 0.845000 9727598
0.211820 -0.159460 0.833000 8799035
0.208260 -0.152100 0.819000 7946308
0.206480 -0.146160 0.812000 7094354
0.204954 -0.140474 0.806000 5058613
0.204954 -0.135869 0.806000 5517103
0.205463 -0.131589 0.808000 9002059
0.205971 -0.127286 0.810000 7414561
0.206989 -0.123263 0.814000 6893607
0.207243 -0.118757 0.815000 7221794
0.207751 -0.114380 0.817000 6236706
0.208260 -0.109980 0.819000 4334114
0.208769 -0.105557 0.821000 4988451
0.209277 -0.101111 0.823000 5578529
0.242100 -0.224100 0.945000 11635349
0.239538 -0.216386 0.935000 11105671
0.233902 -0.206077 0.913000 9730172
0.232621 -0.199760 0.908000 8597853
0.224935 -0.188143 0.878000 10643286
0.223654 -0.182083 0.873000 11040605
0.222117 -0.175877 0.867000 9195598
0.217762 -0.167571 0.850000 10125678
0.213407 -0.159460 0.833000 8207939
0.209820 -0.152100 0.819000 7486023
0.208027 -0.146160 0.812000 6963801
0.206490 -0.140474 0.806000 5451579
0.206490 -0.135869 0.806000 5581359
0.206490 -0.131263 0.806000 9537612
0.207514 -0.127286 0.810000 7153436
0.208027 -0.122960 0.812000 6958376
0.208795 -0.118757 0.815000 7156783
0.209308 -0.114380 0.817000 6104097
0.209820 -0.109980 0.819000 5120803
0.210332 -0.105557 0.821000 5384754
0.210845 -0.101111 0.823000 5054247
0.243126 -0.223389 0.942000 11766413
0.241319 -0.216386 0.935000 11173262
0.234867 -0.205400 0.910000 9666684
0.233576 -0.199100 0.905000 8665179
0.227640 -0.189000 0.882000 9979994
0.225317 -0.182083 0.873000 11037025
0.223769 -0.175877 0.867000 9392709
0.219897 -0.167966 0.852000 10449765
0.214993 -0.159460 0.833000 7681860
0.211380 -0.152100 0.819000 7027520
0.208541 -0.145440 0.808000 6898772
0.208025 -0.140474 0.806000 5779774
0.208025 -0.135869 0.806000 5583664
0.208025 -0.131263 0.806000 9988178
0.209057 -0.127286 0.810000 6956568
0.209573 -0.122960 0.812000 7024170
0.210348 -0.118757 0.815000 7026498
0.210864 -0.114380 0.817000 5971240
0.211380 -0.109980 0.819000 5973029
0.211896 -0.105557 0.821000 5712423
0.211896 -0.100866 0.821000 4464153
0.244920 -0.223389 0.942000 11831429
0.241800 -0.215229 0.930000 11238293
0.236600 -0.205400 0.910000 9531515
0.235300 -0.199100 0.905000 8539482
0.229320 -0.189000 0.882000 10313566
0.227500 -0.182500 0.875000 9723749
0.225420 -0.175877 0.867000 8999228
0.221000 -0.167571 0.850000 8999516
0.216580 -0.159460 0.833000 7486533
0.212940 -0.152100 0.819000 6765369
0.210080 -0.145440 0.808000 6964302
0.209040 -0.140126 0.804000 5910338
0.209040 -0.135531 0.804000 5778481
0.209560 -0.131263 0.806000 10329177
0.210600 -0.127286 0.810000 6956820
0.211120 -0.122960 0.812000 6630187
0.211900 -0.118757 0.815000 7028052
0.212420 -0.114380 0.817000 3410480
0.212940 -0.109980 0.819000 6104103
0.213460 -0.105557 0.821000 5842717
0.214500 -0.101357 0.825000 5054475
0.246714 -0.223389 0.942000 11893905
0.243571 -0.215229 0.930000 11305876
0.238333 -0.205400 0.910000 9400442
0.236500 -0.198660 0.903000 8407640
0.231000 -0.189000 0.882000 10644064
0.229167 -0.182500 0.875000 8345183
0.226548 -0.175471 0.865000 8669258
0.223143 -0.167966 0.852000 7556957
0.217119 -0.158694 0.829000 7355975
0.213976 -0.151729 0.817000 6503742
0.210571 -0.144720 0.804000 7030353
0.210048 -0.139777 0.802000 6041663
0.210048 -0.135194 0.802000 5977910
0.210571 -0.130937 0.804000 10578520
0.211095 -0.126657 0.806000 7022864
0.212143 -0.122657 0.810000 6172201
0.213190 -0.118611 0.814000 7096894
0.213452 -0.114100 0.815000 790568
0.213976 -0.109711 0.817000 6235937
0.213976 -0.105043 0.817000 5907998
0.215548 -0.101111 0.823000 5644314
0.248509 -0.223389 0.942000 11897245
0.245343 -0.215229 0.930000 11307412
0.242705 -0.207657 0.920000 9198457
0.238220 -0.198660 0.903000 8277590
0.232680 -0.189000 0.882000 10973025
0.230833 -0.182500 0.875000 8341850
0.226349 -0.174051 0.858000 8604759
0.223710 -0.167177 0.848000 7819102
0.218698 -0.158694 0.829000 7093832
0.215532 -0.151729 0.817000 6962754
0.212103 -0.144720 0.804000 7358804
0.211575 -0.139777 0.802000 6302780
0.211575 -0.135194 0.802000 6042170
0.212103 -0.130937 0.804000 10392664
0.212630 -0.126657 0.806000 6825740
0.213158 -0.122354 0.808000 6564135
0.214213 -0.118320 0.812000 6764328
0.215005 -0.114100 0.815000 2430241
0.215532 -0.109711 0.817000 5709595
0.215532 -0.105043 0.817000 5646112
0.217115 -0.101111 0.823000 5907753
0.248974 -0.222203 0.937000 11890835
0.245786 -0.214071 0.925000 11242138
0.244457 -0.207657 0.920000 9069934
0.239409 -0.198220 0.901000 8079959
0.234360 -0.189000 0.882000 11233133
0.232500 -0.182500 0.875000 8344406
0.227983 -0.174051 0.858000 8540527
0.224529 -0.166586 0.845000 8022893
0.220277 -0.158694 0.829000 6896449
0.217089 -0.151729 0.817000 7421508
0.213634 -0.144720 0.804000 7687764
0.213103 -0.139777 0.802000 6502720
0.213103 -0.135194 0.802000 6176315
0.213634 -0.130937 0.804000 10118997
0.214166 -0.126657 0.806000 6629907
0.214697 -0.122354 0.808000 6892838
0.215760 -0.118320 0.812000 6503463
0.216557 -0.114100 0.815000 4070435
0.216557 -0.109443 0.815000 5251100
