# .PCD v.7 - Point Cloud Data file format
VERSION .7
FIELDS x y z rgb
SIZE 4 4 4 4
TYPE F F F I
COUNT 1 1 1 1
WIDTH 1308
HEIGHT 1
POINTS 1308
DATA ascii
0.197278 -0.184996 0.806000 11442866
0.197768 -0.180838 0.808000 11442614
0.198747 -0.177093 0.812000 11574199
0.199481 -0.173090 0.815000 11574202
0.199970 -0.168847 0.817000 11771580
0.199970 -0.164178 0.817000 11903671
0.200950 -0.160290 0.821000 11968697
0.201929 -0.156357 0.825000 12101571
0.202418 -0.152010 0.827000 12232399
0.203397 -0.147997 0.831000 12363724
0.203887 -0.143593 0.833000 12364490
0.204866 -0.139500 0.837000 12497099
0.205355 -0.135039 0.839000 12561872
0.206334 -0.130866 0.843000 12692943
0.211147 -0.230712 0.856000 12755636
0.209667 -0.224238 0.850000 9602207
0.209173 -0.218865 0.848000 8748181
0.209667 -0.214524 0.850000 8223125
0.197333 -0.197333 0.800000 12495287
0.197827 -0.193244 0.802000 11505069
0.198320 -0.189131 0.804000 11639479
0.199307 -0.185455 0.808000 11639991
0.199800 -0.181286 0.810000 11640251
0.200293 -0.177093 0.812000 11771324
0.201033 -0.173090 0.815000 11772095
0.201033 -0.168433 0.815000 11969218
0.201527 -0.164178 0.817000 12101060
0.203007 -0.160681 0.823000 12165830
0.203993 -0.156736 0.827000 12298697
0.204980 -0.152746 0.831000 12430289
0.205473 -0.148353 0.833000 12561360
0.205967 -0.143938 0.835000 12562126
0.206953 -0.139833 0.839000 12693967
0.207447 -0.135361 0.841000 12824788
0.207940 -0.130866 0.843000 12956886
0.210789 -0.223710 0.848000 9603235
0.210043 -0.218090 0.845000 8748185
0.210043 -0.213262 0.845000 8025495
0.199354 -0.197827 0.802000 13352891
0.199354 -0.193244 0.802000 11573169
0.200349 -0.189602 0.806000 11836604
0.200846 -0.185455 0.808000 11837116
0.201343 -0.181286 0.810000 11838656
0.201840 -0.177093 0.812000 11969473
0.202586 -0.173090 0.815000 12035013
0.203083 -0.168847 0.817000 12232392
0.203580 -0.164580 0.819000 12365522
0.205071 -0.161071 0.825000 12430035
0.205569 -0.156736 0.827000 12562383
0.206563 -0.152746 0.831000 12627667
0.207060 -0.148353 0.833000 12758997
0.207557 -0.143938 0.835000 12825554
0.208551 -0.139833 0.839000 12956627
0.209546 -0.135683 0.843000 13023448
0.209546 -0.130866 0.843000 13221341
0.211652 -0.222919 0.845000 9667763
0.211151 -0.217574 0.843000 8748185
0.211151 -0.212757 0.843000 7828368
0.200882 -0.197827 0.802000 14137280
0.201383 -0.193726 0.804000 11705272
0.202385 -0.190072 0.808000 12033985
0.202886 -0.185914 0.810000 11968707
0.203387 -0.181733 0.812000 12035781
0.203888 -0.177530 0.814000 12166599
0.204639 -0.173515 0.817000 12232648
0.205641 -0.169673 0.821000 12430541
0.205641 -0.164982 0.821000 12562131
0.206643 -0.161071 0.825000 12626900
0.207144 -0.156736 0.827000 12760019
0.208647 -0.153113 0.833000 12890323
0.208647 -0.148353 0.833000 12957402
0.209148 -0.143938 0.835000 13088727
0.210650 -0.140167 0.841000 13220057
0.211151 -0.135683 0.843000 13286361
0.211151 -0.130866 0.843000 13417173
0.212757 -0.222391 0.843000 10261698
0.212252 -0.217058 0.841000 8879258
0.212252 -0.212252 0.841000 8349321
0.202410 -0.197827 0.802000 14343109
0.202914 -0.193726 0.804000 11837119
0.204429 -0.190543 0.810000 12231110
0.204933 -0.186373 0.812000 12166602
0.204933 -0.181733 0.812000 12299209
0.205690 -0.177748 0.815000 12299468
0.206700 -0.173940 0.819000 12497100
0.207205 -0.169673 0.821000 12693201
0.207710 -0.165384 0.823000 12825301
0.208719 -0.161462 0.827000 12825813
0.209729 -0.157494 0.831000 13023190
0.210233 -0.153113 0.833000 13088979
0.210738 -0.148710 0.835000 13156575
0.211243 -0.144283 0.837000 13286876
0.211748 -0.139833 0.839000 13483488
0.212757 -0.135683 0.843000 13416665
0.212252 -0.130555 0.841000 13678541
0.213854 -0.221864 0.841000 10787272
0.213854 -0.217058 0.841000 8944795
0.213346 -0.211748 0.839000 8938122
0.204446 -0.198320 0.804000 14467534
0.204954 -0.194208 0.806000 12033990
0.205971 -0.190543 0.810000 12429257
0.206480 -0.186373 0.812000 12363981
0.206989 -0.182181 0.814000 12562126
0.207751 -0.178184 0.817000 12496848
0.208769 -0.174365 0.821000 12694481
0.209277 -0.170087 0.823000 12890581
0.209786 -0.165786 0.825000 13022938
0.210803 -0.161852 0.829000 13023449
0.211311 -0.157494 0.831000 13220569
0.211820 -0.153113 0.833000 13286099
0.211820 -0.148353 0.833000 13351376
0.212837 -0.144283 0.837000 13483721
0.213346 -0.139833 0.839000 13678282
0.213854 -0.130555 0.841000 13874375
0.214944 -0.221336 0.839000 11052238
0.214944 -0.216542 0.839000 9010077
0.214431 -0.211243 0.837000 9530506
0.206490 -0.198813 0.806000 13946583
0.207002 -0.194690 0.808000 12364237
0.207514 -0.190543 0.810000 12628684
0.208027 -0.186373 0.812000 12628431
0.208795 -0.182405 0.815000 12825298
0.209308 -0.178184 0.817000 12891092
0.210845 -0.174790 0.823000 12958678
0.211357 -0.170500 0.825000 13155032
0.211357 -0.165786 0.825000 13417695
0.212382 -0.161852 0.829000 13155549
0.213407 -0.157873 0.833000 13352413
0.213407 -0.153113 0.833000 13284050
0.213407 -0.148353 0.833000 13348290
0.214431 -0.144283 0.837000 13480118
0.214944 -0.139833 0.839000 13609397
0.216542 -0.221336 0.839000 11382208
0.216026 -0.216026 0.837000 9010598
0.215510 -0.210738 0.835000 10184080
0.208025 -0.198813 0.806000 13419741
0.209057 -0.195171 0.810000 12693713
0.209573 -0.191013 0.812000 12826062
0.209573 -0.186373 0.812000 12891604
0.210864 -0.182852 0.817000 13023192
0.211380 -0.178620 0.819000 13350870
0.212929 -0.175214 0.825000 13220566
0.213445 -0.170913 0.827000 13351632
0.212929 -0.165786 0.825000 13810124
0.214993 -0.157873 0.833000 13414594
0.214993 -0.153113 0.833000 13282238
0.217100 -0.215510 0.835000 9010863
0.217100 -0.210738 0.835000 10652054
0.211120 -0.200293 0.812000 13286372
0.210600 -0.195171 0.810000 12890836
0.211120 -0.191013 0.812000 12959441
0.211640 -0.186832 0.814000 13155032
0.212940 -0.183300 0.819000 13156317
0.213980 -0.179492 0.823000 13286104
0.215020 -0.175639 0.827000 13218517
0.215020 -0.170913 0.827000 13283271
0.218690 -0.215510 0.835000 9014972
0.218167 -0.210233 0.833000 11114172
0.212667 -0.200293 0.812000 13155808
0.212143 -0.195171 0.810000 13088215
0.212667 -0.191013 0.812000 13023698
0.213190 -0.186832 0.814000 13417678
0.215024 -0.183748 0.821000 13219527
0.215548 -0.179492 0.823000 13220288
0.216595 -0.175639 0.827000 13216702
0.216595 -0.170913 0.827000 13214902
0.220281 -0.215510 0.835000 11052233
0.218698 -0.209224 0.829000 12435170
0.214213 -0.200293 0.812000 13154012
0.213158 -0.194690 0.808000 13154265
0.214213 -0.191013 0.812000 13086676
0.214741 -0.186832 0.814000 13282756
0.216588 -0.183748 0.821000 13214898
0.217115 -0.179492 0.823000 13084328
0.217643 -0.175214 0.825000 13213095
0.218170 -0.170913 0.827000 13148836
0.220277 -0.209224 0.829000 13817300
0.214697 -0.194690 0.808000 13283520
0.218151 -0.183748 0.821000 13148591
0.219214 -0.175214 0.825000 13148071
0.219746 -0.170913 0.827000 13148841
0.098986 -0.158538 0.845000 13675177
0.099881 -0.171795 0.839000 13348534
0.100595 -0.168195 0.845000 12887217
0.100595 -0.158538 0.845000 12622237
0.101479 -0.171795 0.839000 12818594
0.101963 -0.167797 0.843000 12029336
0.102205 -0.163367 0.845000 11632014
0.102205 -0.158538 0.845000 11632264
0.102568 -0.154255 0.848000 12157840
0.102831 -0.176169 0.837000 12030627
0.103077 -0.171795 0.839000 11104142
0.103569 -0.167797 0.843000 10447486
0.103814 -0.163367 0.845000 10310262
0.103814 -0.158538 0.845000 10381426
0.104183 -0.154255 0.848000 10638714
0.104920 -0.150467 0.854000 11370896
0.104176 -0.180519 0.835000 12490921
0.104426 -0.176169 0.837000 10187417
0.104675 -0.171795 0.839000 9335690
0.105174 -0.167797 0.843000 8874884
0.105424 -0.163367 0.845000 8941957
0.105424 -0.158538 0.845000 9207176
0.105798 -0.154255 0.848000 9138054
0.106796 -0.150819 0.856000 9594763
0.107545 -0.146950 0.862000 12617100
0.105767 -0.180519 0.835000 11437727
0.106020 -0.176169 0.837000 10124175
0.106273 -0.171795 0.839000 9664903
0.106780 -0.167797 0.843000 10059658
0.107033 -0.163367 0.845000 10455444
0.107033 -0.158538 0.845000 10587806
0.107413 -0.154255 0.848000 10257042
0.108680 -0.151171 0.858000 9860741
0.109187 -0.146950 0.862000 10902651
0.107357 -0.180519 0.835000 10323871
0.107614 -0.176169 0.837000 10059660
0.107871 -0.171795 0.839000 9928599
0.108386 -0.167797 0.843000 11245217
0.108643 -0.163367 0.845000 11902374
0.108643 -0.158538 0.845000 11902890
0.109286 -0.154619 0.850000 11310499
0.110314 -0.151171 0.858000 10126234
0.110571 -0.146610 0.860000 9139084
0.110571 -0.141695 0.860000 11372183
0.108948 -0.185290 0.835000 11572911
0.108948 -0.180519 0.835000 10521248
0.108948 -0.175748 0.835000 10649992
0.109470 -0.171795 0.839000 11834791
0.109991 -0.167797 0.843000 12561079
0.110252 -0.163367 0.845000 12693688
0.110252 -0.158538 0.845000 12626102
0.110905 -0.154619 0.850000 12298164
0.111949 -0.151171 0.858000 11244718
0.112210 -0.146610 0.860000 9602717
0.112470 -0.142025 0.862000 10779786
0.110009 -0.189151 0.831000 13280179
0.110538 -0.185290 0.835000 11047087
0.110538 -0.180519 0.835000 10715801
0.110803 -0.176169 0.837000 11242912
0.111068 -0.171795 0.839000 13740973
0.113583 -0.151171 0.858000 12362156
0.113583 -0.146269 0.858000 9997982
0.114112 -0.142025 0.862000 10189715
0.111860 -0.189607 0.833000 12362421
0.111860 -0.184847 0.833000 10917295
0.111860 -0.180087 0.833000 10582163
0.112397 -0.176169 0.837000 12493751
0.115217 -0.146269 0.858000 11244959
0.115486 -0.141695 0.860000 10323355
0.113174 -0.193900 0.831000 13148595
0.113174 -0.189151 0.831000 11444664
0.113447 -0.184847 0.833000 10786477
0.113174 -0.179654 0.831000 10389658
0.113719 -0.175748 0.835000 13807796
0.117396 -0.142025 0.862000 10522782
0.114757 -0.193900 0.831000 13017524
0.114757 -0.189151 0.831000 11707836
0.114757 -0.184403 0.831000 10784683
0.114757 -0.179654 0.831000 12098720
0.119452 -0.142519 0.865000 10654112
0.116900 -0.194833 0.835000 12886452
0.116620 -0.189607 0.833000 11970236
0.116340 -0.184403 0.831000 10719125
0.116340 -0.179654 0.831000 13738409
0.121100 -0.142519 0.865000 10850725
0.118490 -0.194833 0.835000 12755380
0.117923 -0.189151 0.831000 12167356
0.117923 -0.184403 0.831000 11043454
0.117923 -0.179654 0.831000 13544114
0.122748 -0.142519 0.865000 11048362
0.119793 -0.194367 0.833000 12689587
0.119506 -0.189151 0.831000 12363965
0.119506 -0.184403 0.831000 11428497
0.119506 -0.179654 0.831000 13347505
0.124395 -0.142519 0.865000 11244970
0.121380 -0.194367 0.833000 12624305
0.121089 -0.189151 0.831000 12299197
0.120797 -0.183959 0.829000 11633828
0.121089 -0.179654 0.831000 13412017
0.126043 -0.142519 0.865000 11310505
0.122967 -0.194367 0.833000 12558516
0.122671 -0.189151 0.831000 12166586
0.122671 -0.184403 0.831000 11835547
0.127986 -0.142849 0.867000 11375783
0.124553 -0.194367 0.833000 12493494
0.124254 -0.189151 0.831000 12036534
0.124254 -0.184403 0.831000 12031890
0.129637 -0.142849 0.867000 11244708
0.126140 -0.194367 0.833000 12427958
0.125837 -0.189151 0.831000 11902900
0.125837 -0.184403 0.831000 12294547
0.130986 -0.142519 0.865000 11112612
0.127420 -0.193900 0.831000 12428214
0.127420 -0.189151 0.831000 11710387
0.127420 -0.184403 0.831000 12359060
0.130947 -0.169987 0.854000 13477555
0.131253 -0.165493 0.856000 13280945
0.131867 -0.161352 0.860000 13280685
0.132633 -0.147462 0.865000 12294560
0.132633 -0.142519 0.865000 10454947
0.129313 -0.194367 0.833000 12362678
0.129313 -0.189607 0.833000 11507887
0.129313 -0.184847 0.833000 12427137
0.132573 -0.169987 0.854000 13412533
0.132884 -0.165493 0.856000 13215156
0.133194 -0.160977 0.858000 13346735
0.133194 -0.156074 0.858000 13148329
0.133505 -0.151524 0.860000 12623012
0.133815 -0.146950 0.862000 12160407
0.134281 -0.142519 0.865000 9797521
0.130900 -0.194367 0.833000 12363189
0.130900 -0.189607 0.833000 11183276
0.130900 -0.184847 0.833000 11765614
0.131214 -0.180519 0.835000 13608377
0.134200 -0.169987 0.854000 13412791
0.134514 -0.165493 0.856000 13215671
0.134829 -0.160977 0.858000 12821169
0.134829 -0.156074 0.858000 12491176
0.134829 -0.151171 0.858000 11834275
0.135457 -0.146950 0.862000 10453647
0.135457 -0.142025 0.862000 9335934
0.132487 -0.194367 0.833000 12428728
0.132487 -0.189607 0.833000 10850984
0.132487 -0.184847 0.833000 11106916
0.133441 -0.181384 0.839000 13805984
0.135827 -0.174867 0.854000 13673892
0.135827 -0.169987 0.854000 13477533
0.135827 -0.165107 0.854000 13212057
0.136145 -0.160602 0.856000 12358548
0.135827 -0.155347 0.854000 11765393
0.136145 -0.150819 0.856000 11111055
0.136781 -0.146610 0.860000 8682118
0.136781 -0.141695 0.860000 8875645
0.136781 -0.136781 0.860000 9007227
0.134073 -0.194367 0.833000 12100027
0.134073 -0.189607 0.833000 10326948
0.134395 -0.185290 0.835000 10448985
0.135039 -0.181384 0.839000 12427911
0.137131 -0.174457 0.852000 11635598
0.137131 -0.169589 0.852000 11372674
0.137453 -0.165107 0.854000 11174267
0.137453 -0.160227 0.854000 10779255
0.137131 -0.154983 0.852000 10514298
0.137453 -0.150467 0.854000 10123642
0.138419 -0.146610 0.860000 8877694
0.138419 -0.141695 0.860000 8810107
0.138419 -0.136781 0.860000 8809588
0.135660 -0.194367 0.833000 11835551
0.135334 -0.189151 0.831000 9735573
0.135660 -0.184847 0.833000 9725027
0.136311 -0.180951 0.837000 10976378
0.136637 -0.176590 0.839000 10381441
0.137614 -0.173024 0.845000 9532033
0.138429 -0.169190 0.850000 9271426
0.138754 -0.164720 0.852000 9139582
0.139080 -0.160227 0.854000 9203068
0.138429 -0.154619 0.850000 9204604
0.139080 -0.150467 0.854000 9138812
0.139406 -0.145928 0.856000 9008252
0.139406 -0.141036 0.856000 8744570
0.139731 -0.136463 0.858000 8612724
0.136917 -0.198649 0.831000 11239046
0.136917 -0.193900 0.831000 10652290
0.136588 -0.188696 0.829000 9468807
0.136588 -0.183959 0.829000 9135724
0.137576 -0.180519 0.835000 9922158
0.137906 -0.176169 0.837000 9726834
0.138894 -0.172614 0.843000 9464948
0.139718 -0.168792 0.848000 9335681
0.140048 -0.164333 0.850000 9270401
0.140048 -0.159476 0.850000 9269632
0.139718 -0.154255 0.848000 9205119
0.140048 -0.149762 0.850000 9139069
0.140707 -0.145587 0.854000 9007995
0.141036 -0.141036 0.856000 8810616
0.141036 -0.136145 0.856000 8678516
0.137167 -0.206142 0.823000 9993355
0.137500 -0.201929 0.825000 9729416
0.137833 -0.197692 0.827000 9337222
0.137833 -0.192967 0.827000 9532805
0.137833 -0.188241 0.827000 9139072
0.138167 -0.183959 0.829000 8612466
0.138500 -0.179654 0.831000 8874866
0.138833 -0.175327 0.833000 9072758
0.139167 -0.170976 0.835000 9334903
0.140167 -0.167399 0.841000 9334909
0.140500 -0.162980 0.843000 9400445
0.140833 -0.158538 0.845000 9335164
0.140833 -0.153710 0.845000 9138810
0.140833 -0.148881 0.845000 9138300
0.141667 -0.144905 0.850000 9007738
0.142000 -0.140377 0.852000 8876150
0.142000 -0.135509 0.852000 8744308
0.138397 -0.205641 0.821000 9663622
0.138734 -0.201439 0.823000 9729916
0.139071 -0.197214 0.825000 9468039
0.139409 -0.192967 0.827000 9336199
0.139409 -0.188241 0.827000 8940154
0.139409 -0.183515 0.827000 8744056
0.139746 -0.179222 0.829000 8941174
0.140083 -0.174906 0.831000 9006969
0.140420 -0.170567 0.833000 9007225
0.140757 -0.166205 0.835000 9072504
0.141094 -0.161820 0.837000 9203065
0.141431 -0.157412 0.839000 9072248
0.141769 -0.152982 0.841000 8941942
0.142106 -0.148529 0.843000 9006970
0.142443 -0.144052 0.845000 9007481
0.142443 -0.139224 0.845000 8941427
0.143286 -0.135190 0.850000 8809587
0.144564 -0.222095 0.848000 15457521
0.139620 -0.205140 0.819000 9270170
0.139961 -0.200950 0.821000 9729916
0.139961 -0.196258 0.821000 9598595
0.140302 -0.192033 0.823000 9139587
0.140643 -0.187786 0.825000 8744315
0.140984 -0.183515 0.827000 8940920
0.141325 -0.179222 0.829000 9006708
0.141325 -0.174485 0.829000 9006457
0.141666 -0.170157 0.831000 8613495
0.142007 -0.165807 0.833000 8875383
0.142348 -0.161433 0.835000 8941176
0.142689 -0.157037 0.837000 8809850
0.143030 -0.152618 0.839000 8745335
0.143370 -0.148176 0.841000 8941178
0.143711 -0.143711 0.843000 8941689
0.144052 -0.139224 0.845000 9006709
0.144052 -0.134395 0.845000 8875636
0.146524 -0.222619 0.850000 14734581
0.140835 -0.204639 0.817000 9073327
0.141180 -0.200460 0.819000 9532796
0.141180 -0.195780 0.819000 9466752
0.141525 -0.191567 0.821000 9073790
0.141870 -0.187330 0.823000 8745084
0.142214 -0.183071 0.825000 8875384
0.142559 -0.178790 0.827000 8940915
0.142904 -0.174485 0.829000 8875384
0.142904 -0.169748 0.829000 8744309
0.143249 -0.165409 0.831000 8875894
0.143938 -0.161433 0.835000 9006966
0.144283 -0.157037 0.837000 9006715
0.144283 -0.152254 0.837000 8941945
0.144628 -0.147824 0.839000 8941433
0.144972 -0.143370 0.841000 9007482
0.145317 -0.138894 0.843000 9006966
0.145662 -0.134395 0.845000 8941942
0.148143 -0.227476 0.850000 13548752
0.148143 -0.222619 0.850000 14012661
0.148840 -0.218787 0.854000 13287914
0.142043 -0.204138 0.815000 8816306
0.142391 -0.199970 0.817000 9335417
0.142391 -0.195302 0.817000 9270140
0.142740 -0.191100 0.819000 9008253
0.143089 -0.186875 0.821000 8679804
0.143437 -0.182628 0.823000 8875897
0.144134 -0.178790 0.827000 8875638
0.144134 -0.174064 0.827000 8744571
0.144483 -0.169748 0.829000 8810359
0.144483 -0.165010 0.829000 8941947
0.145180 -0.161047 0.833000 9072759
0.145529 -0.156662 0.835000 9203578
0.145877 -0.152254 0.837000 9072763
0.145877 -0.147471 0.837000 8941690
0.146226 -0.143030 0.839000 9072760
0.146923 -0.138894 0.843000 9007222
0.147271 -0.134395 0.845000 8941942
0.150114 -0.228011 0.852000 14010858
0.150114 -0.223143 0.852000 13421813
0.150467 -0.218787 0.854000 13024731
0.143419 -0.203888 0.814000 9802165
0.143595 -0.199481 0.815000 9138293
0.143595 -0.194824 0.815000 9204600
0.143948 -0.190633 0.817000 9007996
0.144300 -0.186420 0.819000 8876412
0.144652 -0.182184 0.821000 8941434
0.145357 -0.178357 0.825000 9072250
0.145710 -0.174064 0.827000 8875901
0.145710 -0.169338 0.827000 8941690
0.146062 -0.165010 0.829000 8941951
0.146414 -0.160660 0.831000 9072760
0.146767 -0.156287 0.833000 9138296
0.147119 -0.151890 0.835000 9138045
0.147471 -0.147471 0.837000 9006970
0.147471 -0.142689 0.837000 9138038
0.148176 -0.138565 0.841000 9138550
0.148529 -0.134077 0.843000 9073015
0.149410 -0.130027 0.848000 8941944
0.151737 -0.228011 0.852000 14544884
0.151737 -0.223143 0.852000 12764398
0.152806 -0.219811 0.858000 12760798
0.144970 -0.203888 0.814000 10787271
0.144970 -0.199236 0.814000 8941430
0.144970 -0.194585 0.814000 9138810
0.145148 -0.190167 0.815000 9073532
0.145504 -0.185965 0.817000 9007485
0.145860 -0.181740 0.819000 9072512
0.146572 -0.177925 0.823000 9203580
0.146929 -0.173643 0.825000 9006974
0.146929 -0.168929 0.825000 9007482
0.147285 -0.164612 0.827000 9007740
0.147641 -0.160273 0.829000 9073017
0.148353 -0.156287 0.833000 9138293
0.148710 -0.151890 0.835000 9138300
0.148710 -0.147119 0.835000 9138299
0.149066 -0.142689 0.837000 9138553
0.149422 -0.138235 0.839000 9204088
0.150134 -0.134077 0.843000 9138553
0.150490 -0.129567 0.845000 9007482
0.153720 -0.228547 0.854000 14608894
0.153720 -0.223667 0.854000 12433127
0.154440 -0.219811 0.858000 12431841
0.146520 -0.203888 0.814000 11644634
0.145800 -0.198257 0.810000 8940662
0.146160 -0.194107 0.812000 9007485
0.146520 -0.189933 0.814000 9138811
0.146700 -0.185510 0.815000 9007486
0.147420 -0.181740 0.819000 9007494
0.147780 -0.177492 0.821000 9072510
0.148140 -0.173222 0.823000 9072510
0.148500 -0.168929 0.825000 9073018
0.148500 -0.164214 0.825000 9073273
0.149220 -0.160273 0.829000 9138553
0.149580 -0.155911 0.831000 9138546
0.149940 -0.151527 0.833000 9204347
0.150300 -0.147119 0.835000 9204347
0.150660 -0.142689 0.837000 9138812
0.150660 -0.137906 0.837000 9204346
0.151380 -0.133759 0.841000 9204347
0.151740 -0.129260 0.843000 9073275
0.155710 -0.229082 0.856000 14742782
0.156074 -0.224714 0.858000 12037345
0.156438 -0.220324 0.860000 12168662
0.148070 -0.203888 0.814000 12429263
0.146979 -0.197768 0.808000 8938871
0.147343 -0.193629 0.810000 8876670
0.148070 -0.189933 0.814000 9138555
0.148070 -0.185282 0.814000 9007738
0.148616 -0.181296 0.817000 8941951
0.148980 -0.177060 0.819000 8941949
0.149708 -0.173222 0.823000 9072509
0.149708 -0.168519 0.823000 9138556
0.149708 -0.163816 0.823000 9138808
0.150435 -0.159887 0.827000 9204346
0.150799 -0.155536 0.829000 9204088
0.151527 -0.151527 0.833000 9270140
0.151890 -0.147119 0.835000 9270140
0.151890 -0.142348 0.835000 9139326
0.152254 -0.137906 0.837000 9269885
0.152618 -0.133441 0.839000 9204604
0.153346 -0.129260 0.843000 9204604
0.157341 -0.229082 0.856000 14211582
0.157709 -0.224714 0.858000 11839452
0.158076 -0.220324 0.860000 11707850
0.158995 -0.216662 0.865000 12300740
0.148150 -0.197278 0.806000 9006199
0.148518 -0.193150 0.808000 8942206
0.149253 -0.189467 0.812000 9138554
0.149621 -0.185282 0.814000 9073526
0.149805 -0.180852 0.815000 9007479
0.150172 -0.176628 0.817000 9007996
0.150908 -0.172801 0.821000 9138555
0.150908 -0.168110 0.821000 9204093
0.150908 -0.163418 0.821000 9204598
0.152010 -0.159887 0.827000 9270139
0.152378 -0.155536 0.829000 9335933
0.152378 -0.150799 0.829000 9335934
0.153113 -0.146767 0.833000 9336189
0.153481 -0.142348 0.835000 9205376
0.153481 -0.137576 0.835000 9335679
0.153849 -0.133123 0.837000 9270653
0.154951 -0.129260 0.843000 9270397
0.159343 -0.229617 0.858000 13619699
0.159343 -0.224714 0.858000 11577301
0.160086 -0.220836 0.862000 11247562
0.160643 -0.216662 0.865000 12100039
0.149686 -0.197278 0.806000 9136766
0.150057 -0.193150 0.808000 9007487
0.150800 -0.189467 0.812000 9073020
0.150800 -0.184827 0.812000 9073018
0.151171 -0.180630 0.814000 9138554
0.151357 -0.176195 0.815000 9073277
0.152100 -0.172380 0.819000 9204093
0.152471 -0.168110 0.821000 9270142
0.152471 -0.163418 0.821000 9270393
0.153214 -0.159500 0.825000 9335932
0.153586 -0.155161 0.827000 9401983
0.153957 -0.150799 0.829000 9336189
0.154329 -0.146414 0.831000 9401982
0.154700 -0.142007 0.833000 9270914
0.155071 -0.137576 0.835000 9401473
0.155443 -0.133123 0.837000 9336447
0.156186 -0.128953 0.841000 9336190
0.160977 -0.229617 0.858000 13156583
0.161352 -0.225238 0.860000 11444431
0.161728 -0.220836 0.862000 11049417
0.162290 -0.216662 0.865000 11968970
0.150846 -0.196789 0.804000 9335173
0.151221 -0.192672 0.806000 9007744
0.152347 -0.189467 0.812000 9138557
0.152347 -0.184827 0.812000 9007229
0.152722 -0.180630 0.814000 9138813
0.152910 -0.176195 0.815000 9138814
0.153660 -0.172380 0.819000 9204607
0.153660 -0.167700 0.819000 9336190
0.154035 -0.163418 0.821000 9270652
0.154786 -0.159500 0.825000 9401726
0.155161 -0.155161 0.827000 9467777
0.155161 -0.150435 0.827000 9401980
0.155536 -0.146062 0.829000 9467774
0.155911 -0.141666 0.831000 9402243
0.156287 -0.137247 0.833000 9467522
0.157037 -0.133123 0.837000 9467776
0.157788 -0.128953 0.841000 9401983
0.162990 -0.230152 0.860000 12757215
0.162990 -0.225238 0.860000 11246791
0.163370 -0.220836 0.862000 10851520
0.163938 -0.216662 0.865000 11771074
0.152377 -0.196789 0.804000 9528211
0.152756 -0.192672 0.806000 9007741
0.153514 -0.189000 0.810000 9138558
0.153893 -0.184827 0.812000 8942206
0.154272 -0.180630 0.814000 9139070
0.154462 -0.176195 0.815000 9204350
0.154841 -0.171959 0.817000 9205120
0.155220 -0.167700 0.819000 9336191
0.155220 -0.163020 0.819000 9336702
0.155978 -0.159113 0.823000 9467520
0.156357 -0.154786 0.825000 9468033
0.156736 -0.150435 0.827000 9468029
0.157115 -0.146062 0.829000 9468031
0.157494 -0.141666 0.831000 9533572
0.157873 -0.137247 0.833000 9533827
0.158631 -0.133123 0.837000 9599105
0.159010 -0.128647 0.839000 9402239
0.164629 -0.230152 0.860000 12431062
0.164629 -0.225238 0.860000 11049152
0.165011 -0.220836 0.862000 10654390
0.165586 -0.216662 0.865000 10915770
0.153909 -0.196789 0.804000 9664929
0.154291 -0.192672 0.806000 9007995
0.155057 -0.189000 0.810000 9138558
0.155440 -0.184827 0.812000 9073535
0.155440 -0.180187 0.812000 9139327
0.155823 -0.175979 0.814000 9073022
0.156397 -0.171959 0.817000 9270656
0.156780 -0.167700 0.819000 9467008
0.156780 -0.163020 0.819000 9402239
0.157163 -0.158727 0.821000 9533314
0.157929 -0.154786 0.825000 9533568
0.158311 -0.150435 0.827000 9533823
0.158311 -0.145710 0.827000 9533568
0.159077 -0.141666 0.831000 9599108
0.159460 -0.137247 0.833000 9664899
0.159843 -0.132805 0.835000 9664642
0.160609 -0.128647 0.839000 9533823
0.166653 -0.230688 0.862000 12103894
0.166267 -0.225238 0.860000 10852285
0.167233 -0.221605 0.865000 10391475
0.167620 -0.217163 0.867000 10063538
0.155440 -0.196789 0.804000 9793965
0.155827 -0.192672 0.806000 9007484
0.156213 -0.188533 0.808000 9138559
0.156600 -0.184371 0.810000 9139327
0.156600 -0.179743 0.810000 9139584
0.156987 -0.175547 0.812000 8877439
0.157567 -0.171538 0.815000 9270913
0.157953 -0.167290 0.817000 9598592
0.158340 -0.163020 0.819000 9468032
0.158727 -0.158727 0.821000 9533572
0.159500 -0.154786 0.825000 9599106
0.159887 -0.150435 0.827000 9599617
0.159887 -0.145710 0.827000 9598851
0.160273 -0.141325 0.829000 9599365
0.160660 -0.136917 0.831000 9796227
0.161433 -0.132805 0.835000 9664644
0.161820 -0.128340 0.837000 9599618
0.168295 -0.230688 0.862000 11839957
0.168295 -0.225762 0.862000 10654394
0.168881 -0.221605 0.865000 10194095
0.169271 -0.217163 0.867000 9799081
0.156971 -0.196789 0.804000 10060217
0.156971 -0.192194 0.804000 8876157
0.157362 -0.188067 0.806000 9138559
0.157752 -0.183916 0.808000 9204608
0.158143 -0.179743 0.810000 9270913
0.158533 -0.175547 0.812000 9139841
0.158924 -0.171328 0.814000 9271170
0.159510 -0.167290 0.817000 9336449
0.159900 -0.163020 0.819000 9533824
0.160290 -0.158727 0.821000 9599365
0.160681 -0.154410 0.823000 9599363
0.161071 -0.150071 0.825000 9664899
0.161462 -0.145710 0.827000 9664901
0.161852 -0.141325 0.829000 9665157
0.162243 -0.136917 0.831000 9730946
0.163024 -0.132805 0.835000 9730438
0.163414 -0.128340 0.837000 9665156
0.169937 -0.230688 0.862000 11575507
0.169937 -0.225762 0.862000 10391731
0.170529 -0.221605 0.865000 10061995
0.170923 -0.217163 0.867000 9536934
0.158503 -0.196789 0.804000 10389681
0.158503 -0.192194 0.804000 8744829
0.158897 -0.188067 0.806000 9138560
0.159291 -0.183916 0.808000 9204607
0.159686 -0.179743 0.810000 9336451
0.160080 -0.175547 0.812000 9402498
0.160474 -0.171328 0.814000 9271426
0.160671 -0.166881 0.815000 9074816
0.161066 -0.162622 0.817000 9534080
0.161460 -0.158340 0.819000 9665157
0.161854 -0.154035 0.821000 9664901
0.162643 -0.150071 0.825000 9665157
0.163037 -0.145710 0.827000 9730950
0.163431 -0.141325 0.829000 9730694
0.163826 -0.136917 0.831000 9731204
0.164614 -0.132805 0.835000 9796487
0.165009 -0.128340 0.837000 9730950
0.172574 -0.236980 0.867000 13217982
0.172176 -0.231490 0.865000 11377873
0.171579 -0.225762 0.862000 10259884
0.172574 -0.222117 0.867000 9930662
0.172574 -0.217163 0.867000 9405090
0.172972 -0.212698 0.869000 10325416
0.159636 -0.191716 0.802000 8941693
0.160034 -0.187600 0.804000 9008000
0.160432 -0.183461 0.806000 9269887
0.160830 -0.179299 0.808000 9402245
0.161229 -0.175114 0.810000 9599108
0.162025 -0.171328 0.814000 9402754
0.162224 -0.166881 0.815000 9271679
0.162622 -0.162622 0.817000 9599616
0.163020 -0.158340 0.819000 9730693
0.163418 -0.154035 0.821000 9730695
0.164214 -0.150071 0.825000 9730951
0.164612 -0.145710 0.827000 9796486
0.165010 -0.141325 0.829000 9796231
0.165409 -0.136917 0.831000 9796742
0.166205 -0.132805 0.835000 9862279
0.166603 -0.128340 0.837000 9796743
0.174226 -0.236980 0.867000 13086397
0.173824 -0.231490 0.865000 11178694
0.173221 -0.225762 0.862000 10128554
0.173824 -0.221605 0.865000 9799332
0.174226 -0.217163 0.867000 9208223
0.174628 -0.212698 0.869000 10264752
0.161566 -0.192194 0.804000 9073021
0.161968 -0.188067 0.806000 8942721
0.161968 -0.183461 0.806000 9336192
0.161968 -0.178855 0.806000 9468036
0.162370 -0.174682 0.808000 9730436
0.163173 -0.170907 0.812000 9534083
0.163776 -0.166881 0.815000 9468545
0.164178 -0.162622 0.817000 9665667
0.164580 -0.158340 0.819000 9730949
0.164982 -0.154035 0.821000 9862024
0.165384 -0.149708 0.823000 9796488
0.165786 -0.145357 0.825000 9796743
0.166590 -0.141325 0.829000 9796745
0.166991 -0.136917 0.831000 9796744
0.167795 -0.132805 0.835000 9862536
0.168197 -0.128340 0.837000 9862536
0.175471 -0.231490 0.865000 10917818
0.174863 -0.225762 0.862000 9997223
0.175471 -0.221605 0.865000 9668001
0.175877 -0.217163 0.867000 9076379
0.176283 -0.212698 0.869000 10327991
0.162691 -0.191716 0.802000 9139326
0.163097 -0.187600 0.804000 9139842
0.163097 -0.183006 0.804000 9402497
0.163503 -0.178855 0.806000 9533826
0.163909 -0.174682 0.808000 9664901
0.164720 -0.170907 0.812000 9599620
0.165126 -0.166676 0.814000 9599876
0.165734 -0.162622 0.817000 9731205
0.166140 -0.158340 0.819000 9731205
0.166140 -0.153660 0.819000 9796488
0.166951 -0.149708 0.823000 9796746
0.167357 -0.145357 0.825000 9797000
0.167763 -0.140984 0.827000 9797004
0.168169 -0.136588 0.829000 9862281
0.168980 -0.132487 0.833000 9928329
0.169791 -0.128340 0.837000 9928329
0.177119 -0.231490 0.865000 10655665
0.176505 -0.225762 0.862000 9799845
0.177119 -0.221605 0.865000 9536160
0.177529 -0.217163 0.867000 8879515
0.177938 -0.212698 0.869000 10331318
0.164219 -0.191716 0.802000 9204862
0.164629 -0.187600 0.804000 9337218
0.164629 -0.183006 0.804000 9468546
0.165038 -0.178855 0.806000 9599872
0.165448 -0.174682 0.808000 9599364
0.166267 -0.170907 0.812000 9665157
0.166676 -0.166676 0.814000 9730949
0.166881 -0.162224 0.815000 9862278
0.167700 -0.158340 0.819000 9731206
0.168110 -0.154035 0.821000 9796744
0.168519 -0.149708 0.823000 9797001
0.168929 -0.145357 0.825000 9862792
0.169748 -0.141325 0.829000 9797259
0.169748 -0.136588 0.829000 9993866
0.170567 -0.132487 0.833000 9993867
0.171386 -0.128340 0.837000 10059403
0.178767 -0.231490 0.865000 10458280
0.178147 -0.225762 0.862000 9734052
0.178767 -0.221605 0.865000 9405086
0.179180 -0.217163 0.867000 8747418
0.179593 -0.212698 0.869000 10393781
0.165747 -0.191716 0.802000 9402494
0.166160 -0.187600 0.804000 9468546
0.166160 -0.183006 0.804000 9534082
0.166573 -0.178855 0.806000 9599614
0.166987 -0.174682 0.808000 9665156
0.167813 -0.170907 0.812000 9665413
0.168227 -0.166676 0.814000 9796743
0.168433 -0.162224 0.815000 9862279
0.169260 -0.158340 0.819000 9796744
0.169673 -0.154035 0.821000 9797000
0.169673 -0.149344 0.821000 9862793
0.170500 -0.145357 0.825000 9863048
0.170913 -0.140984 0.827000 9928586
0.171740 -0.136917 0.831000 9994123
0.171740 -0.132169 0.831000 9994125
0.172980 -0.128340 0.837000 10059660
0.180414 -0.231490 0.865000 10195366
0.179789 -0.225762 0.862000 9602466
0.180831 -0.222117 0.867000 9339549
0.180831 -0.217163 0.867000 8616602
0.181249 -0.212698 0.869000 10522301
0.166857 -0.191238 0.800000 9599104
0.167274 -0.187133 0.802000 9599875
0.167691 -0.183006 0.804000 9599620
0.168109 -0.178855 0.806000 9665410
0.168526 -0.174682 0.808000 9665411
0.169360 -0.170907 0.812000 9731204
0.169777 -0.166676 0.814000 9796744
0.169986 -0.162224 0.815000 9862538
0.170820 -0.158340 0.819000 9862536
0.171237 -0.154035 0.821000 9862792
0.171237 -0.149344 0.821000 9928330
0.172071 -0.145357 0.825000 9863306
0.172489 -0.140984 0.827000 9994380
0.173323 -0.136917 0.831000 9994894
0.173740 -0.132487 0.833000 9994639
0.174574 -0.128340 0.837000 10125452
0.181430 -0.230688 0.862000 10129316
0.181430 -0.225762 0.862000 9602465
0.182062 -0.221605 0.865000 9273756
0.182483 -0.217163 0.867000 8615577
0.182483 -0.212209 0.867000 10719685
0.168381 -0.191238 0.800000 9665154
0.168802 -0.187133 0.802000 9665155
0.169223 -0.183006 0.804000 9599622
0.169644 -0.178855 0.806000 9599878
0.170065 -0.174682 0.808000 9730947
0.170907 -0.170907 0.812000 9796739
0.171328 -0.166676 0.814000 9862537
0.171538 -0.162224 0.815000 9862540
0.172380 -0.158340 0.819000 9862793
0.172801 -0.154035 0.821000 9928584
0.172801 -0.149344 0.821000 9994122
0.173643 -0.145357 0.825000 9928843
0.174064 -0.140984 0.827000 10060430
0.174485 -0.136588 0.829000 10060176
0.175327 -0.132487 0.833000 10060433
0.175748 -0.128033 0.835000 10125708
0.183072 -0.230688 0.862000 10128290
0.183072 -0.225762 0.862000 9536415
0.183710 -0.221605 0.865000 9208220
0.184134 -0.217163 0.867000 8616089
0.184559 -0.212698 0.869000 10916292
0.169905 -0.191238 0.800000 9730435
0.170330 -0.187133 0.802000 9730694
0.170754 -0.183006 0.804000 9599878
0.171179 -0.178855 0.806000 9600390
0.171604 -0.174682 0.808000 9731206
0.172029 -0.170486 0.810000 9862534
0.172878 -0.166676 0.814000 9928074
0.173090 -0.162224 0.815000 9928077
0.173940 -0.158340 0.819000 9863050
0.174365 -0.154035 0.821000 9994377
0.174365 -0.149344 0.821000 10059916
0.175214 -0.145357 0.825000 10060172
0.175639 -0.140984 0.827000 10060686
0.176064 -0.136588 0.829000 10125713
0.176489 -0.132169 0.831000 10125970
0.177338 -0.128033 0.835000 10191503
0.184714 -0.230688 0.862000 10062240
0.184714 -0.225762 0.862000 9536412
0.185357 -0.221605 0.865000 9207963
0.185786 -0.217163 0.867000 8614808
0.186214 -0.212698 0.869000 10917570
0.171000 -0.190760 0.798000 9730436
0.171429 -0.186667 0.800000 9730952
0.171857 -0.182550 0.802000 9731206
0.172286 -0.178411 0.804000 9797254
0.172714 -0.174250 0.806000 9862537
0.173143 -0.170065 0.808000 9862792
0.174000 -0.166267 0.812000 9993867
0.174429 -0.162025 0.814000 9993870
0.175071 -0.157953 0.817000 9928844
0.175500 -0.153660 0.819000 10060170
0.175500 -0.148980 0.819000 10125709
0.176357 -0.145005 0.823000 10060429
0.176786 -0.140643 0.825000 10126223
0.177214 -0.136258 0.827000 10191505
0.178071 -0.132169 0.831000 10191507
0.178500 -0.127727 0.833000 10257553
0.178929 -0.123262 0.835000 10323347
0.185924 -0.230152 0.860000 10061986
0.185924 -0.225238 0.860000 9470620
0.186356 -0.220836 0.862000 9207707
0.187005 -0.216662 0.865000 8549782
0.187437 -0.212209 0.867000 10920135
0.172520 -0.190760 0.798000 9730694
0.172952 -0.186667 0.800000 9730953
0.173385 -0.182550 0.802000 9862280
0.173817 -0.178411 0.804000 9994375
0.174250 -0.174250 0.806000 9993868
0.174682 -0.170065 0.808000 9928843
0.175547 -0.166267 0.812000 10059916
0.175979 -0.162025 0.814000 10059409
0.176628 -0.157953 0.817000 9994382
0.177060 -0.153660 0.819000 10191500
0.177060 -0.148980 0.819000 10191502
0.177925 -0.145005 0.823000 10126224
0.178357 -0.140643 0.825000 10191763
0.179222 -0.136588 0.829000 10257556
0.179654 -0.132169 0.831000 10257812
0.180087 -0.127727 0.833000 10389140
0.180519 -0.123262 0.835000 10389141
0.187562 -0.230152 0.860000 10061988
0.187126 -0.224714 0.858000 9404827
0.187998 -0.220836 0.862000 9142170
0.188652 -0.216662 0.865000 8550037
0.188652 -0.211719 0.865000 10918859
0.173822 -0.190521 0.797000 9796233
0.174040 -0.186200 0.798000 9862282
0.174912 -0.182550 0.802000 9928074
0.174912 -0.177968 0.802000 9994120
0.175349 -0.173817 0.804000 9993870
0.176221 -0.170065 0.808000 9994637
0.177093 -0.166267 0.812000 10125964
0.177530 -0.162025 0.814000 10125460
0.177748 -0.157567 0.815000 10059921
0.178620 -0.153660 0.819000 10191758
0.178620 -0.148980 0.819000 10257296
0.179492 -0.145005 0.823000 10257555
0.179929 -0.140643 0.825000 10322839
0.180801 -0.136588 0.829000 10323350
0.181237 -0.132169 0.831000 10389397
0.181673 -0.127727 0.833000 10389399
0.182110 -0.123262 0.835000 10454679
0.189200 -0.230152 0.860000 9994150
0.188760 -0.224714 0.858000 9273756
0.189640 -0.220836 0.862000 9076890
0.190300 -0.216662 0.865000 8550292
0.190300 -0.211719 0.865000 10987719
0.175340 -0.190521 0.797000 9796234
0.175560 -0.186200 0.798000 9993610
0.176440 -0.182550 0.802000 9993867
0.176440 -0.177968 0.802000 10059659
0.176880 -0.173817 0.804000 9994384
0.177320 -0.169644 0.806000 10060432
0.178640 -0.166267 0.812000 10125967
0.179080 -0.162025 0.814000 10191508
0.179300 -0.157567 0.815000 10125971
0.179740 -0.153285 0.817000 10257553
0.180180 -0.148980 0.819000 10323091
0.181060 -0.145005 0.823000 10388885
0.181500 -0.140643 0.825000 10388888
0.182820 -0.136917 0.831000 10388889
0.182820 -0.132169 0.831000 10455192
0.183260 -0.127727 0.833000 10455194
0.183700 -0.123262 0.835000 10520730
0.190838 -0.230152 0.860000 9930663
0.190394 -0.224714 0.858000 9273758
0.190838 -0.220324 0.860000 9076634
0.191282 -0.215910 0.862000 8484499
0.191948 -0.211719 0.865000 10918595
0.176858 -0.190521 0.797000 9927563
0.177080 -0.186200 0.798000 10059402
0.177968 -0.182550 0.802000 10059660
0.177968 -0.177968 0.802000 10060173
0.178411 -0.173817 0.804000 10059921
0.179299 -0.170065 0.808000 10126226
0.180187 -0.166267 0.812000 10191507
0.180630 -0.162025 0.814000 10191763
0.180852 -0.157567 0.815000 10257302
0.181740 -0.153660 0.819000 10323347
0.181740 -0.148980 0.819000 10388630
0.182628 -0.145005 0.823000 10454678
0.183071 -0.140643 0.825000 10454936
0.183959 -0.136588 0.829000 10520731
0.184403 -0.132169 0.831000 10586780
0.184847 -0.127727 0.833000 10587036
0.185290 -0.123262 0.835000 10586525
0.192476 -0.230152 0.860000 9798055
0.192029 -0.224714 0.858000 9207965
0.192476 -0.220324 0.860000 9076378
0.192924 -0.215910 0.862000 8418706
0.193595 -0.211719 0.865000 10921925
0.178376 -0.190521 0.797000 10058893
0.178600 -0.186200 0.798000 10059915
0.179048 -0.182095 0.800000 10125710
0.179495 -0.177968 0.802000 10126222
0.179943 -0.173817 0.804000 10125971
0.180838 -0.170065 0.808000 10192020
0.181286 -0.165857 0.810000 10257301
0.182181 -0.162025 0.814000 10258070
0.182405 -0.157567 0.815000 10323606
0.183300 -0.153660 0.819000 10389398
0.183300 -0.148980 0.819000 10454936
0.184195 -0.145005 0.823000 10520729
0.184643 -0.140643 0.825000 10521243
0.185538 -0.136588 0.829000 10652318
0.185986 -0.132169 0.831000 10718366
0.186433 -0.127727 0.833000 10718622
0.186881 -0.123262 0.835000 10653088
0.193663 -0.229617 0.858000 9865382
0.193663 -0.224714 0.858000 9273757
0.194114 -0.220324 0.860000 9010842
0.194566 -0.215910 0.862000 8352657
0.194566 -0.210985 0.862000 10985415
0.179894 -0.190521 0.797000 10124430
0.180120 -0.186200 0.798000 10125708
0.181023 -0.182550 0.802000 10191760
0.181023 -0.177968 0.802000 10191759
0.181474 -0.173817 0.804000 10257046
0.182377 -0.170065 0.808000 10257814
0.182829 -0.165857 0.810000 10323352
0.183731 -0.162025 0.814000 10323864
0.183957 -0.157567 0.815000 10454935
0.184860 -0.153660 0.819000 10455192
0.185311 -0.149344 0.821000 10586523
0.186214 -0.145357 0.825000 10652316
0.186214 -0.140643 0.825000 10653085
0.187569 -0.136917 0.831000 10718625
0.187569 -0.132169 0.831000 10849697
0.188020 -0.127727 0.833000 10850208
0.188471 -0.123262 0.835000 10849956
0.195297 -0.229617 0.858000 9929383
0.195297 -0.224714 0.858000 9273756
0.195752 -0.220324 0.860000 9010585
0.195752 -0.215410 0.860000 8221842
0.195752 -0.210495 0.860000 11056326
0.181412 -0.190521 0.797000 10124945
0.181640 -0.186200 0.798000 10191247
0.182550 -0.182550 0.802000 10257554
0.183006 -0.178411 0.804000 10323347
0.183006 -0.173817 0.804000 10323350
0.183916 -0.170065 0.808000 10388888
0.184827 -0.166267 0.812000 10389402
0.185510 -0.162224 0.815000 10390171
0.185965 -0.157953 0.817000 10521242
0.186420 -0.153660 0.819000 10586780
0.186875 -0.149344 0.821000 10652574
0.187330 -0.145005 0.823000 10718622
0.188241 -0.140984 0.827000 10784673
0.189151 -0.136917 0.831000 10849957
0.189607 -0.132487 0.833000 10981285
0.189607 -0.127727 0.833000 11047588
0.190062 -0.123262 0.835000 10982055
0.196931 -0.229617 0.858000 9931431
0.196931 -0.224714 0.858000 9273499
0.196931 -0.219811 0.858000 9010584
0.197390 -0.215410 0.860000 8221331
0.197390 -0.210495 0.860000 11117764
0.182930 -0.190521 0.797000 10256276
0.183160 -0.186200 0.798000 10257297
0.184078 -0.182550 0.802000 10323092
0.184537 -0.178411 0.804000 10389143
0.184537 -0.173817 0.804000 10454679
0.185455 -0.170065 0.808000 10454938
0.186373 -0.166267 0.812000 10586268
0.187062 -0.162224 0.815000 10587293
0.187521 -0.157953 0.817000 10652573
0.187980 -0.153660 0.819000 10652832
0.188898 -0.149708 0.823000 10784417
0.189357 -0.145357 0.825000 10850208
0.189816 -0.140984 0.827000 10916261
0.190734 -0.136917 0.831000 10981801
0.191193 -0.132487 0.833000 11112874
0.191652 -0.128033 0.835000 11179175
0.198566 -0.229617 0.858000 9995183
0.198566 -0.224714 0.858000 9208217
0.198566 -0.219811 0.858000 8945047
0.199029 -0.215410 0.860000 8156050
0.199029 -0.210495 0.860000 11185859
0.184449 -0.190521 0.797000 10322582
0.184680 -0.186200 0.798000 10323093
0.185606 -0.182550 0.802000 10323608
0.186069 -0.178411 0.804000 10455448
0.186531 -0.174250 0.806000 10586521
0.187457 -0.170486 0.810000 10586781
0.187920 -0.166267 0.812000 10718110
0.188614 -0.162224 0.815000 10718880
0.189077 -0.157953 0.817000 10784161
0.189540 -0.153660 0.819000 10784419
0.190466 -0.149708 0.823000 10850725
0.190929 -0.145357 0.825000 11047334
0.191391 -0.140984 0.827000 11047850
0.192780 -0.137247 0.833000 11113644
0.193243 -0.132805 0.835000 11179182
0.193706 -0.128340 0.837000 11310766
0.200200 -0.229617 0.858000 10129335
0.199733 -0.224190 0.856000 9273750
0.200200 -0.219811 0.858000 8945302
0.200200 -0.214909 0.858000 8221072
0.200667 -0.210495 0.860000 11247554
0.185967 -0.190521 0.797000 10454424
0.186667 -0.186667 0.800000 10454680
0.187133 -0.182550 0.802000 10454684
0.187600 -0.178411 0.804000 10587033
0.188067 -0.174250 0.806000 10717851
0.189000 -0.170486 0.810000 10718623
0.189467 -0.166267 0.812000 10849697
0.190167 -0.162224 0.815000 10850466
0.190633 -0.157953 0.817000 10915493
0.191100 -0.153660 0.819000 10981542
0.192033 -0.149708 0.823000 11047849
0.192500 -0.145357 0.825000 11178924
0.193433 -0.141325 0.829000 11179439
0.194367 -0.137247 0.833000 11179951
0.194833 -0.132805 0.835000 11310515
0.195300 -0.128340 0.837000 11507637
0.201364 -0.229082 0.856000 10324413
0.201364 -0.224190 0.856000 9273495
0.201364 -0.219299 0.856000 8945301
0.201834 -0.214909 0.858000 8221074
0.202305 -0.210495 0.860000 11381448
0.187485 -0.190521 0.797000 10586010
0.188190 -0.186667 0.800000 10521499
0.188661 -0.182550 0.802000 10587038
0.189131 -0.178411 0.804000 10653087
0.190072 -0.174682 0.808000 10784415
0.190543 -0.170486 0.810000 10850467
0.191013 -0.166267 0.812000 10981541
0.191719 -0.162224 0.815000 10982567
0.192190 -0.157953 0.817000 10982057
0.192660 -0.153660 0.819000 11113132
0.193601 -0.149708 0.823000 11179692
0.194542 -0.145710 0.827000 11376561
0.195012 -0.141325 0.829000 11311027
0.195953 -0.137247 0.833000 11311796
0.196424 -0.132805 0.835000 11442870
0.196894 -0.128340 0.837000 11639480
0.202994 -0.229082 0.856000 10523587
0.202520 -0.223667 0.854000 9273495
0.202994 -0.219299 0.856000 8945043
0.203469 -0.214909 0.858000 8154004
0.203943 -0.210495 0.860000 11379661
0.189003 -0.190521 0.797000 10717596
0.189714 -0.186667 0.800000 10718621
0.190663 -0.183006 0.804000 10718880
0.191137 -0.178855 0.806000 10784676
0.191611 -0.174682 0.808000 10916004
0.192560 -0.170907 0.812000 10981542
0.193034 -0.166676 0.814000 11113386
0.193746 -0.162622 0.817000 11113899
0.194220 -0.158340 0.819000 11179182
0.194694 -0.154035 0.821000 11310769
0.195643 -0.150071 0.825000 11377072
0.196117 -0.145710 0.827000 11508405
0.197066 -0.141666 0.831000 11573432
0.198014 -0.137576 0.835000 11574713
0.198014 -0.132805 0.835000 11707065
0.198963 -0.128647 0.839000 11837883
0.204625 -0.229082 0.856000 10721982
0.204147 -0.223667 0.854000 9207447
0.204625 -0.219299 0.856000 8944788
0.204625 -0.214408 0.856000 8089490
0.190043 -0.194586 0.795000 11446225
0.190521 -0.190521 0.797000 10783903
0.191238 -0.186667 0.800000 10850723
0.192194 -0.183006 0.804000 10850469
0.192672 -0.178855 0.806000 10981545
0.193629 -0.175114 0.810000 11047594
0.194585 -0.171328 0.814000 11178412
0.194824 -0.166881 0.815000 11245232
0.195302 -0.162622 0.817000 11311025
0.195780 -0.158340 0.819000 11377075
0.196258 -0.154035 0.821000 11508148
0.197214 -0.150071 0.825000 11508658
0.197692 -0.145710 0.827000 11705529
0.198649 -0.141666 0.831000 11771324
0.199605 -0.137576 0.835000 11772350
0.200083 -0.133123 0.837000 11903935
0.200561 -0.128647 0.839000 12035010
0.206255 -0.229082 0.856000 10853304
0.205291 -0.223143 0.852000 9207448
0.205773 -0.218787 0.854000 8879252
0.205773 -0.213907 0.854000 8088464
0.192039 -0.195075 0.797000 11576789
0.192280 -0.190760 0.798000 10981027
0.193244 -0.187133 0.802000 11047593
0.193726 -0.183006 0.804000 11047594
0.194208 -0.178855 0.806000 11113645
0.195171 -0.175114 0.810000 11244720
0.196135 -0.171328 0.814000 11310769
0.196858 -0.167290 0.817000 11442869
0.196858 -0.162622 0.817000 11508151
0.197822 -0.158727 0.821000 11574200
0.197822 -0.154035 0.821000 11706294
0.199268 -0.150435 0.827000 11771317
0.199750 -0.146062 0.829000 11903676
0.200713 -0.142007 0.833000 11969984
0.201195 -0.137576 0.835000 12035010
0.201677 -0.133123 0.837000 12166854
0.202641 -0.128953 0.841000 12232648
0.207886 -0.229082 0.856000 11052991
0.206914 -0.223143 0.852000 9207449
0.206914 -0.218274 0.852000 8813455
0.207400 -0.213907 0.854000 8024464
0.193800 -0.195320 0.798000 11645656
0.194286 -0.191238 0.800000 11112616
0.194771 -0.187133 0.802000 11179183
0.195743 -0.183461 0.806000 11245487
0.196229 -0.179299 0.808000 11311539
0.197200 -0.175547 0.812000 11376564
0.197929 -0.171538 0.815000 11442614
0.198414 -0.167290 0.817000 11574199
0.198900 -0.163020 0.819000 11705271
0.199871 -0.159113 0.823000 11771323
0.200357 -0.154786 0.825000 11903677
0.200843 -0.150435 0.827000 11969217
0.201814 -0.146414 0.831000 12100804
0.202300 -0.142007 0.833000 12167109
0.203271 -0.137906 0.837000 12232136
0.203757 -0.133441 0.839000 12430282
0.204729 -0.129260 0.843000 12430285
0.209516 -0.229082 0.856000 11248069
0.208048 -0.222619 0.850000 9142170
0.208537 -0.218274 0.852000 8747914
0.208537 -0.213406 0.852000 7957649
0.195810 -0.195810 0.800000 11841498
0.195810 -0.191238 0.800000 11375533
0.196789 -0.187600 0.804000 11442100
0.197278 -0.183461 0.806000 11443379
0.198257 -0.179743 0.810000 11508664
0.198747 -0.175547 0.812000 11574200
0.199481 -0.171538 0.815000 11640250
0.199970 -0.167290 0.817000 11771322
0.200460 -0.163020 0.819000 11903415
0.201439 -0.159113 0.823000 12034238
0.201929 -0.154786 0.825000 12101316
0.202908 -0.150799 0.829000 12232654
0.203887 -0.146767 0.833000 12363723
0.204376 -0.142348 0.835000 12365002
0.204866 -0.137906 0.837000 12496077
0.205845 -0.133759 0.841000 12693710
0.206334 -0.129260 0.843000 12693970
0.210653 -0.228547 0.854000 11444166
0.209667 -0.222619 0.850000 9011613
0.209667 -0.217762 0.850000 8682639
0.210160 -0.213406 0.852000 7893138
0.197333 -0.195810 0.800000 11979489
0.198320 -0.192194 0.804000 11572658
0.198813 -0.188067 0.806000 11639992
0.199307 -0.183916 0.808000 11639993
0.199800 -0.179743 0.810000 11705276
0.200293 -0.175547 0.812000 11772093
0.201033 -0.171538 0.815000 11903169
0.201527 -0.167290 0.817000 11968963
0.202020 -0.163020 0.819000 12100549
0.203500 -0.159500 0.825000 12232135
0.203993 -0.155161 0.827000 12364746
0.204980 -0.151163 0.831000 12495825
0.205473 -0.146767 0.833000 12561360
0.205967 -0.142348 0.835000 12562638
0.207447 -0.138565 0.841000 12693456
0.207940 -0.134077 0.843000 12891093
0.207940 -0.129260 0.843000 12957142
0.212280 -0.228547 0.854000 11642055
0.210043 -0.221310 0.845000 8946080
0.210043 -0.216481 0.845000 8616852
0.210789 -0.212404 0.848000 7630227
0.199851 -0.196789 0.804000 12368615
0.199851 -0.192194 0.804000 11770551
0.200846 -0.188533 0.808000 11836860
0.201343 -0.184371 0.810000 11837118
0.201840 -0.180187 0.812000 11903936
0.202337 -0.175979 0.814000 12035778
0.203083 -0.171959 0.817000 12100551
0.203083 -0.167290 0.817000 12232141
0.204077 -0.163418 0.821000 12364754
0.205071 -0.159500 0.825000 12496337
0.206066 -0.155536 0.829000 12562383
0.207060 -0.151527 0.833000 12693460
0.207557 -0.147119 0.835000 12759253
0.208054 -0.142689 0.837000 12825810
0.209049 -0.138565 0.841000 12957139
0.209546 -0.134077 0.843000 13155037
0.209546 -0.129260 0.843000 13220313
0.213907 -0.228547 0.854000 11843259
0.211151 -0.220786 0.843000 8814759
0.211151 -0.215969 0.843000 8551062
0.211652 -0.211652 0.845000 7301782
0.201383 -0.196789 0.804000 12830437
0.201884 -0.192672 0.806000 11902652
0.202886 -0.189000 0.810000 12033986
0.202886 -0.184371 0.810000 11969220
0.203387 -0.180187 0.812000 12101317
0.203888 -0.175979 0.814000 12232647
0.205140 -0.172380 0.819000 12297417
0.205641 -0.168110 0.821000 12495568
