# .PCD v.7 - Point Cloud Data file format
VERSION .7
FIELDS x y z rgb
SIZE 4 4 4 4
TYPE F F F I
COUNT 1 1 1 1
WIDTH 1328
HEIGHT 1
POINTS 1328
DATA ascii
0.185714 0.053143 0.600000 9863042
0.196511 -0.045071 0.631000 11972298
0.196823 -0.041531 0.632000 11050416
0.197134 -0.037980 0.633000 10524588
0.197446 -0.034417 0.634000 10129316
0.197757 -0.030843 0.635000 9603486
0.198069 -0.027257 0.636000 9274263
0.199314 -0.023771 0.640000 8945296
0.199626 -0.020146 0.641000 8420235
0.199626 -0.016483 0.641000 12165275
0.178137 -0.011440 0.572000 9465975
0.178137 -0.008171 0.572000 9336440
0.178449 -0.004911 0.573000 9336694
0.178760 -0.001640 0.574000 9336695
0.179383 0.001646 0.576000 9402488
0.179694 0.004946 0.577000 9468534
0.180317 0.008271 0.579000 9468535
0.180940 0.011620 0.581000 9534072
0.181251 0.014966 0.582000 9599864
0.181563 0.018323 0.583000 9599865
0.182186 0.021729 0.585000 9599867
0.182497 0.025114 0.586000 9534588
0.182809 0.028511 0.587000 9731710
0.183743 0.032029 0.590000 9665916
0.184366 0.035520 0.592000 9665916
0.185300 0.039100 0.595000 9666175
0.185923 0.042643 0.597000 9796737
0.185923 0.046054 0.597000 9863038
0.186234 0.049549 0.598000 9928831
0.187169 0.053231 0.601000 9797761
0.198027 -0.045143 0.632000 11839688
0.198027 -0.041531 0.632000 10787499
0.198653 -0.038040 0.634000 10458536
0.198967 -0.034471 0.635000 9997727
0.199280 -0.030891 0.636000 9537691
0.199280 -0.027257 0.636000 9208469
0.200533 -0.023771 0.640000 8879758
0.200847 -0.020146 0.641000 8419465
0.201160 -0.016509 0.642000 11773855
0.178600 -0.011400 0.570000 9665147
0.179227 -0.008171 0.572000 9336441
0.179227 -0.004903 0.572000 9271414
0.179540 -0.001637 0.573000 9271671
0.180167 0.001643 0.575000 9402744
0.180480 0.004937 0.576000 9599608
0.180793 0.008243 0.577000 9599865
0.181733 0.011600 0.580000 9599609
0.182047 0.014940 0.581000 9599864
0.182360 0.018291 0.582000 9534074
0.182987 0.021691 0.584000 9600123
0.183300 0.025071 0.585000 9665916
0.183927 0.028511 0.587000 9731710
0.184553 0.031974 0.589000 9731197
0.185180 0.035460 0.591000 9731708
0.186120 0.039034 0.594000 9731711
0.187060 0.042643 0.597000 9797244
0.187060 0.046054 0.597000 9928830
0.187373 0.049549 0.598000 9929087
0.188000 0.053143 0.600000 9928832
0.188000 0.056571 0.600000 9994880
0.198915 -0.045071 0.631000 11708868
0.199230 -0.041531 0.632000 10590635
0.199861 -0.038040 0.634000 10326181
0.200176 -0.034471 0.635000 9866140
0.200176 -0.030843 0.635000 9406104
0.200491 -0.027257 0.636000 9142418
0.201437 -0.023734 0.639000 8813964
0.202068 -0.020146 0.641000 8419720
0.202068 -0.016483 0.641000 11373723
0.179370 -0.011380 0.569000 9861259
0.179686 -0.008143 0.570000 9336696
0.180001 -0.004894 0.571000 9206135
0.180316 -0.001634 0.572000 9140599
0.181262 0.001643 0.575000 9468536
0.181577 0.004937 0.576000 9665144
0.181577 0.008229 0.576000 9665401
0.182208 0.011560 0.578000 9665401
0.183153 0.014940 0.581000 9665658
0.183153 0.018260 0.581000 9403259
0.184099 0.021691 0.584000 9665659
0.184414 0.025071 0.585000 9731453
0.184730 0.028463 0.586000 9731711
0.185360 0.031920 0.588000 9731709
0.185990 0.035400 0.590000 9797245
0.187251 0.039034 0.594000 9797504
0.187882 0.042571 0.596000 9863295
0.188197 0.046054 0.597000 9994623
0.188197 0.049466 0.597000 9994623
0.188828 0.053054 0.599000 9994881
0.189143 0.056571 0.600000 9995138
0.200117 -0.045071 0.631000 11313088
0.200434 -0.041531 0.632000 10524330
0.201069 -0.038040 0.634000 10260131
0.201386 -0.034471 0.635000 9734809
0.201386 -0.030843 0.635000 9340053
0.201703 -0.027257 0.636000 9011343
0.202654 -0.023734 0.639000 8813706
0.203289 -0.020146 0.641000 8550535
0.203289 -0.016483 0.641000 10057367
0.180137 -0.011360 0.568000 10126746
0.180454 -0.008129 0.569000 9337206
0.181089 -0.004894 0.571000 9271927
0.181406 -0.001634 0.572000 9337207
0.182040 0.001640 0.574000 9468536
0.182357 0.004929 0.575000 9599609
0.182357 0.008214 0.575000 9534584
0.182991 0.011540 0.577000 9665657
0.184260 0.014940 0.581000 9665659
0.184260 0.018260 0.581000 9534332
0.185211 0.021691 0.584000 9665914
0.185529 0.025071 0.585000 9796990
0.185846 0.028463 0.586000 9731967
0.186480 0.031920 0.588000 9796990
0.187114 0.035400 0.590000 9862781
0.188066 0.038969 0.593000 9863041
0.189017 0.042571 0.596000 9929089
0.189334 0.046054 0.597000 9994624
0.189334 0.049466 0.597000 9994879
0.189969 0.053054 0.599000 10060418
0.190286 0.056571 0.600000 10060931
0.201638 -0.045143 0.632000 10920895
0.201638 -0.041531 0.632000 10392744
0.202276 -0.038040 0.634000 10128544
0.202595 -0.034471 0.635000 9668504
0.202595 -0.030843 0.635000 9208724
0.202914 -0.027257 0.636000 8945806
0.203871 -0.023734 0.639000 8747914
0.204510 -0.020146 0.641000 8616327
0.204510 -0.016483 0.641000 8683656
0.180900 -0.011340 0.567000 10454436
0.181538 -0.008129 0.569000 9337206
0.181857 -0.004886 0.570000 9337459
0.182495 -0.001634 0.572000 9534074
0.182814 0.001637 0.573000 9534328
0.183452 0.004929 0.575000 9469049
0.183452 0.008214 0.575000 9469560
0.184090 0.011540 0.577000 9600124
0.185048 0.014914 0.580000 9731197
0.185367 0.018260 0.581000 9600125
0.186005 0.021654 0.583000 9666172
0.186324 0.025029 0.584000 9862784
0.186643 0.028414 0.585000 9732480
0.187281 0.031866 0.587000 9797503
0.187919 0.035340 0.589000 9928575
0.188876 0.038903 0.592000 9928834
0.189833 0.042500 0.595000 9994627
0.190471 0.046054 0.597000 9929346
0.190471 0.049466 0.597000 10060418
0.191110 0.053054 0.599000 10126467
0.191429 0.056571 0.600000 10061189
0.202521 -0.045071 0.631000 10918846
0.202842 -0.041531 0.632000 10195110
0.203163 -0.037980 0.633000 9997214
0.203805 -0.034471 0.635000 9602711
0.203805 -0.030843 0.635000 9208468
0.204126 -0.027257 0.636000 8945804
0.205089 -0.023734 0.639000 8682123
0.205730 -0.020146 0.641000 8550534
0.205730 -0.016483 0.641000 8349304
0.181980 -0.011340 0.567000 10588589
0.182301 -0.008114 0.568000 9402998
0.182943 -0.004886 0.570000 9402990
0.183264 -0.001631 0.571000 9403005
0.183906 0.001637 0.573000 9468792
0.184227 0.004920 0.574000 9534841
0.184548 0.008214 0.575000 9469560
0.185190 0.011540 0.577000 9665663
0.186152 0.014914 0.580000 9731454
0.186152 0.018229 0.580000 9665663
0.186794 0.021617 0.582000 9731965
0.187436 0.025029 0.584000 9862787
0.187757 0.028414 0.585000 9863296
0.188399 0.031866 0.587000 9863296
0.189041 0.035340 0.589000 9928832
0.189683 0.038837 0.591000 9994626
0.190646 0.042429 0.594000 9994885
0.191288 0.045977 0.596000 10060677
0.191609 0.049466 0.597000 10126468
0.191930 0.052966 0.598000 10126724
0.192571 0.056571 0.600000 10126982
0.203723 -0.045071 0.631000 10920890
0.204046 -0.041531 0.632000 10063781
0.204369 -0.037980 0.633000 9800092
0.205014 -0.034471 0.635000 9536918
0.205014 -0.030843 0.635000 9207954
0.205337 -0.027257 0.636000 8880012
0.206306 -0.023734 0.639000 8616584
0.206629 -0.020114 0.640000 8484998
0.206951 -0.016483 0.641000 7959422
0.182737 -0.011320 0.566000 10720177
0.183383 -0.008114 0.568000 9468279
0.183706 -0.004877 0.569000 9402995
0.184351 -0.001631 0.571000 9272443
0.184997 0.001637 0.573000 9469050
0.185320 0.004920 0.574000 9600121
0.185643 0.008214 0.575000 9535097
0.186289 0.011540 0.577000 9731455
0.187257 0.014914 0.580000 9731710
0.187580 0.018260 0.581000 9731710
0.187903 0.021617 0.582000 9798014
0.188549 0.025029 0.584000 9797762
0.188871 0.028414 0.585000 9928833
0.189517 0.031866 0.587000 9863554
0.189840 0.035280 0.588000 9994627
0.190809 0.038837 0.591000 9995140
0.191454 0.042357 0.593000 10060678
0.192423 0.045977 0.596000 10126470
0.192423 0.049383 0.596000 10192517
0.192746 0.052877 0.597000 10127238
0.193714 0.056571 0.600000 10192776
0.204925 -0.045071 0.631000 10722998
0.205250 -0.041531 0.632000 9997988
0.205574 -0.037980 0.633000 9734298
0.205899 -0.034417 0.634000 9405588
0.206224 -0.030843 0.635000 9142160
0.206549 -0.027257 0.636000 8814219
0.207523 -0.023734 0.639000 8616581
0.207848 -0.020114 0.640000 8419462
0.208172 -0.016483 0.641000 7760004
0.183815 -0.011320 0.566000 10853300
0.184140 -0.008100 0.567000 9468280
0.184790 -0.004877 0.569000 9468792
0.185439 -0.001631 0.571000 9468794
0.186089 0.001637 0.573000 9600123
0.186413 0.004920 0.574000 9731194
0.186738 0.008214 0.575000 9665914
0.187388 0.011540 0.577000 9731454
0.188037 0.014889 0.579000 9797246
0.188362 0.018229 0.580000 9797246
0.189011 0.021617 0.582000 9863550
0.189661 0.025029 0.584000 9863298
0.189986 0.028414 0.585000 9994626
0.190310 0.031811 0.586000 9929603
0.190960 0.035280 0.588000 9995141
0.191610 0.038771 0.590000 10060934
0.192584 0.042357 0.593000 10126471
0.193233 0.045900 0.595000 10192263
0.193558 0.049383 0.596000 10258310
0.194208 0.052966 0.598000 10258569
0.194532 0.056477 0.599000 10324106
0.206127 -0.045071 0.631000 10460342
0.206453 -0.041531 0.632000 9997218
0.206780 -0.037980 0.633000 9668248
0.207107 -0.034417 0.634000 9339539
0.207433 -0.030843 0.635000 9011088
0.207760 -0.027257 0.636000 8813962
0.208740 -0.023734 0.639000 8551046
0.209393 -0.020146 0.641000 8419463
0.209393 -0.016483 0.641000 7565185
0.184893 -0.011320 0.566000 10990780
0.185220 -0.008100 0.567000 9468282
0.185873 -0.004877 0.569000 9468794
0.186527 -0.001631 0.571000 9599868
0.187180 0.001637 0.573000 9731200
0.187507 0.004920 0.574000 9862524
0.187833 0.008214 0.575000 9731453
0.188487 0.011540 0.577000 9731711
0.189140 0.014889 0.579000 9797503
0.189467 0.018229 0.580000 9863040
0.189793 0.021580 0.581000 9863808
0.190773 0.025029 0.584000 9929090
0.191100 0.028414 0.585000 10060676
0.191427 0.031811 0.586000 9995142
0.192080 0.035280 0.588000 10061190
0.192733 0.038771 0.590000 10061191
0.193713 0.042357 0.593000 10192265
0.194367 0.045900 0.595000 10258313
0.194693 0.049383 0.596000 10324361
0.195347 0.052966 0.598000 10324363
0.195673 0.056477 0.599000 10455182
0.207329 -0.048677 0.631000 13351359
0.207329 -0.045071 0.631000 10326198
0.207329 -0.041466 0.631000 9931680
0.207657 -0.037920 0.632000 9536919
0.208314 -0.034417 0.634000 9274257
0.208643 -0.030843 0.635000 8945552
0.208971 -0.027257 0.636000 8682888
0.209957 -0.023734 0.639000 8550792
0.210614 -0.020146 0.641000 8353671
0.210943 -0.016509 0.642000 7629694
0.185971 -0.011320 0.566000 10987203
0.185971 -0.008086 0.566000 9534333
0.186629 -0.004869 0.568000 9534588
0.187614 -0.001631 0.571000 9665405
0.187943 0.001634 0.572000 9665925
0.188271 0.004911 0.573000 9796989
0.188600 0.008200 0.574000 9731967
0.189257 0.011520 0.576000 9797504
0.190243 0.014889 0.579000 9863296
0.190571 0.018229 0.580000 9928834
0.190900 0.021580 0.581000 9929601
0.191557 0.024986 0.583000 9994882
0.191886 0.028366 0.584000 10060677
0.192543 0.031811 0.586000 10060936
0.193200 0.035280 0.588000 10126983
0.193857 0.038771 0.590000 10192777
0.194514 0.042286 0.592000 10258315
0.195171 0.045823 0.594000 10324108
0.195829 0.049383 0.596000 10389900
0.196157 0.052877 0.597000 10389902
0.196814 0.056477 0.599000 10455697
0.208530 -0.048677 0.631000 13286333
0.208530 -0.045071 0.631000 10196661
0.208530 -0.041466 0.631000 9930910
0.208861 -0.037920 0.632000 9405845
0.209191 -0.034363 0.633000 9208465
0.209522 -0.030794 0.634000 8879757
0.210183 -0.027257 0.636000 8617352
0.211174 -0.023734 0.639000 8485256
0.211505 -0.020114 0.640000 8353158
0.211835 -0.016483 0.641000 7630457
0.186719 -0.011300 0.565000 10990527
0.187050 -0.008086 0.566000 9600125
0.187710 -0.004869 0.568000 9600126
0.188371 -0.001629 0.570000 9665662
0.188702 0.001631 0.571000 9666178
0.189363 0.004911 0.573000 9731710
0.189693 0.008200 0.574000 9731968
0.190354 0.011520 0.576000 9797762
0.191346 0.014889 0.579000 9928835
0.191676 0.018229 0.580000 9929348
0.192007 0.021580 0.581000 9995140
0.192668 0.024986 0.583000 10060677
0.192998 0.028366 0.584000 10126214
0.193329 0.031757 0.585000 10061448
0.193990 0.035220 0.587000 10192778
0.194981 0.038771 0.590000 10258572
0.195642 0.042286 0.592000 10324364
0.195972 0.045746 0.593000 10389902
0.196633 0.049300 0.595000 10455695
0.197294 0.052877 0.597000 10455952
0.197955 0.056477 0.599000 10522002
0.209732 -0.045071 0.631000 10129333
0.209732 -0.041466 0.631000 9799835
0.210065 -0.037920 0.632000 9405843
0.210397 -0.034363 0.633000 9142672
0.210730 -0.030794 0.634000 8879498
0.211062 -0.027214 0.635000 8617352
0.212059 -0.023697 0.638000 8485000
0.212724 -0.020114 0.640000 8418693
0.213056 -0.016483 0.641000 7694965
0.187795 -0.011300 0.565000 11184058
0.188128 -0.008086 0.566000 9469310
0.188792 -0.004869 0.568000 9600127
0.189457 -0.001629 0.570000 9731455
0.189790 0.001631 0.571000 9666430
0.190454 0.004911 0.573000 9797247
0.190787 0.008200 0.574000 9797505
0.191451 0.011520 0.576000 9929091
0.191784 0.014837 0.577000 9994629
0.192449 0.018197 0.579000 9995398
0.193113 0.021580 0.581000 10060934
0.193778 0.024986 0.583000 10126471
0.194110 0.028366 0.584000 10192519
0.194443 0.031757 0.585000 10192521
0.195108 0.035220 0.587000 10258572
0.196105 0.038771 0.590000 10324111
0.196770 0.042286 0.592000 10390156
0.197102 0.045746 0.593000 10455696
0.197767 0.049300 0.595000 10455953
0.198431 0.052877 0.597000 10521747
0.199096 0.056477 0.599000 10587794
0.210934 -0.045071 0.631000 10064563
0.210934 -0.041466 0.631000 9733787
0.211269 -0.037920 0.632000 9340307
0.211269 -0.034309 0.632000 9142414
0.211937 -0.030794 0.634000 8879754
0.212271 -0.027214 0.635000 8617096
0.212606 -0.023623 0.636000 8485255
0.213609 -0.020083 0.639000 8484229
0.213943 -0.016457 0.640000 7761527
0.188871 -0.011300 0.565000 11319731
0.188871 -0.008071 0.565000 9337986
0.189540 -0.004860 0.567000 9600383
0.190209 -0.001626 0.569000 9731457
0.190877 0.001631 0.571000 9732478
0.191211 0.004903 0.572000 9863297
0.191546 0.008186 0.573000 9929090
0.192214 0.011500 0.575000 9994884
0.192883 0.014837 0.577000 9994886
0.193551 0.018197 0.579000 9995912
0.194220 0.021580 0.581000 10126472
0.194889 0.024986 0.583000 10192521
0.195223 0.028366 0.584000 10323849
0.195557 0.031757 0.585000 10258571
0.196560 0.035280 0.588000 10324622
0.197229 0.038771 0.590000 10324623
0.197897 0.042286 0.592000 10455950
0.198231 0.045746 0.593000 10521745
0.198900 0.049300 0.595000 10521747
0.199569 0.052877 0.597000 10522005
0.200571 0.056571 0.600000 10653588
0.212136 -0.045071 0.631000 10062513
0.212136 -0.041466 0.631000 9668762
0.212472 -0.037920 0.632000 9340051
0.212472 -0.034309 0.632000 9077132
0.213145 -0.030794 0.634000 8879754
0.213481 -0.027214 0.635000 8617095
0.213817 -0.023623 0.636000 8419463
0.214826 -0.020083 0.639000 8353156
0.215162 -0.016457 0.640000 7761529
0.189948 -0.011300 0.565000 11052971
0.189948 -0.008071 0.565000 9402757
0.190620 -0.004860 0.567000 9666430
0.190956 -0.001623 0.568000 9796994
0.191292 0.001626 0.569000 9798270
0.191965 0.004894 0.571000 9928835
0.192301 0.008171 0.572000 9994627
0.192973 0.011480 0.574000 10060676
0.193646 0.014811 0.576000 10060935
0.194318 0.018166 0.578000 10127241
0.194654 0.021506 0.579000 10258057
0.195327 0.024900 0.581000 10258570
0.195999 0.028317 0.583000 10389899
0.196335 0.031703 0.584000 10324366
0.197008 0.035160 0.586000 10390672
0.198016 0.038706 0.589000 10390416
0.198689 0.042214 0.591000 10521744
0.199025 0.045669 0.592000 10587538
0.199697 0.049217 0.594000 10653333
0.200370 0.052789 0.596000 10653335
0.201378 0.056477 0.599000 10719382
0.213338 -0.045071 0.631000 9999281
0.213338 -0.041466 0.631000 9668505
0.213338 -0.037860 0.631000 9274259
0.213676 -0.034309 0.632000 9077132
0.214014 -0.030746 0.633000 8879754
0.214690 -0.027214 0.635000 8617095
0.215029 -0.023623 0.636000 8354182
0.216043 -0.020083 0.639000 8287620
0.216381 -0.016457 0.640000 7761529
0.216719 -0.012820 0.641000 10730407
0.191024 -0.008071 0.565000 9403532
0.191362 -0.004851 0.566000 9798017
0.191700 -0.001620 0.567000 9797763
0.192038 0.001623 0.568000 9929089
0.192714 0.004886 0.570000 9994630
0.193390 0.008171 0.572000 10060423
0.194067 0.011480 0.574000 10126471
0.194743 0.014811 0.576000 10192266
0.195081 0.018134 0.577000 10193036
0.195757 0.021506 0.579000 10324107
0.196433 0.024900 0.581000 10324365
0.197110 0.028317 0.583000 10456206
0.197786 0.031757 0.585000 10390417
0.198462 0.035220 0.587000 10456722
0.199138 0.038706 0.589000 10456466
0.199814 0.042214 0.591000 10587538
0.200152 0.045669 0.592000 10587796
0.200829 0.049217 0.594000 10718871
0.201505 0.052789 0.596000 10719128
0.202519 0.056477 0.599000 10850712
0.213860 -0.044929 0.629000 10064305
0.213520 -0.041269 0.628000 9668503
0.213860 -0.037740 0.629000 9274259
0.214540 -0.034254 0.631000 8945804
0.214880 -0.030697 0.632000 8814218
0.215220 -0.027129 0.633000 8617095
0.215900 -0.023586 0.635000 8354181
0.216240 -0.019989 0.636000 8222084
0.216920 -0.016406 0.638000 8024441
0.217260 -0.012780 0.639000 10592930
0.192100 -0.008071 0.565000 9468307
0.192100 -0.004843 0.565000 9863555
0.192780 -0.001620 0.567000 9929092
0.193120 0.001623 0.568000 9994884
0.193800 0.004886 0.570000 10060681
0.194480 0.008171 0.572000 10126218
0.195160 0.011480 0.574000 10257803
0.195840 0.014811 0.576000 10258061
0.196180 0.018134 0.577000 10324367
0.196860 0.021506 0.579000 10390157
0.197200 0.024857 0.580000 10390161
0.198220 0.028317 0.583000 10521745
0.198900 0.031757 0.585000 10522003
0.199580 0.035220 0.587000 10522515
0.199920 0.038640 0.588000 10587797
0.200940 0.042214 0.591000 10653587
0.201280 0.045669 0.592000 10718871
0.201960 0.049217 0.594000 10784664
0.202640 0.052789 0.596000 10784921
0.203660 0.056477 0.599000 10850970
0.214716 -0.044857 0.628000 10131889
0.214716 -0.041269 0.628000 9733525
0.214716 -0.037680 0.628000 9208466
0.215058 -0.034146 0.629000 8880012
0.215742 -0.030649 0.631000 8748426
0.216426 -0.027129 0.633000 8616839
0.216768 -0.023549 0.634000 8353923
0.217110 -0.019957 0.635000 8221572
0.217451 -0.016354 0.636000 8286072
0.218135 -0.012760 0.638000 10466717
0.192834 -0.008057 0.564000 9535639
0.193176 -0.004843 0.565000 9929091
0.193518 -0.001617 0.566000 9995140
0.194202 0.001623 0.568000 10060933
0.194886 0.004886 0.570000 10126730
0.195228 0.008157 0.571000 10192011
0.196253 0.011480 0.574000 10323852
0.196595 0.014786 0.575000 10324111
0.197279 0.018134 0.577000 10390161
0.197963 0.021506 0.579000 10456209
0.198305 0.024857 0.580000 10456212
0.199330 0.028317 0.583000 10587539
0.199672 0.031703 0.584000 10587797
0.200698 0.035220 0.587000 10588566
0.201040 0.038640 0.588000 10718872
0.201724 0.042143 0.590000 10719382
0.202750 0.045746 0.593000 10784920
0.203433 0.049300 0.595000 10784923
0.203775 0.052789 0.596000 10785179
0.204801 0.056477 0.599000 10851227
0.215912 -0.044857 0.628000 10131634
0.215912 -0.041269 0.628000 9667986
0.215912 -0.037680 0.628000 9208465
0.216256 -0.034146 0.629000 8945292
0.216944 -0.030649 0.631000 8748171
0.217288 -0.027086 0.632000 8551302
0.217975 -0.023549 0.634000 8353666
0.218319 -0.019957 0.635000 8156291
0.218663 -0.016354 0.636000 8155512
0.219350 -0.012760 0.638000 10394520
0.193909 -0.008057 0.564000 9666203
0.194252 -0.004843 0.565000 10060675
0.194596 -0.001617 0.566000 10061189
0.195284 0.001623 0.568000 10126982
0.195971 0.004886 0.570000 10192524
0.196315 0.008157 0.571000 10258316
0.197003 0.011460 0.573000 10455182
0.198034 0.014811 0.576000 10389904
0.198378 0.018134 0.577000 10455956
0.199066 0.021506 0.579000 10587540
0.199410 0.024857 0.580000 10587544
0.200441 0.028317 0.583000 10653589
0.200785 0.031703 0.584000 10653592
0.201816 0.035220 0.587000 10654104
0.202160 0.038640 0.588000 10850203
0.202848 0.042143 0.590000 10785176
0.204223 0.045823 0.594000 10850714
0.204567 0.049300 0.595000 10850973
0.205254 0.052877 0.597000 10850973
0.205942 0.056477 0.599000 10917275
0.216763 -0.044786 0.627000 10132912
0.216763 -0.041203 0.627000 9667731
0.217109 -0.037680 0.628000 9142929
0.217454 -0.034146 0.629000 9010572
0.218146 -0.030649 0.631000 8748170
0.218491 -0.027086 0.632000 8551046
0.219183 -0.023549 0.634000 8353410
0.219529 -0.019957 0.635000 8156291
0.219529 -0.016329 0.635000 7958650
0.219874 -0.012720 0.636000 10332304
0.194983 -0.008057 0.564000 9799068
0.195329 -0.004843 0.565000 10126215
0.195329 -0.001614 0.565000 10061192
0.196366 0.001623 0.568000 10192522
0.197057 0.004886 0.570000 10193294
0.197403 0.008157 0.571000 10324112
0.198094 0.011460 0.573000 10520978
0.199131 0.014811 0.576000 10521235
0.199477 0.018134 0.577000 10521751
0.200169 0.021506 0.579000 10653335
0.200514 0.024857 0.580000 10653850
0.201551 0.028317 0.583000 10719897
0.201897 0.031703 0.584000 10719898
0.202934 0.035220 0.587000 10785435
0.203626 0.038706 0.589000 10916507
0.204317 0.042214 0.591000 10916251
0.205354 0.045823 0.594000 10851228
0.205700 0.049300 0.595000 10916767
0.206391 0.052877 0.597000 10917022
0.207083 0.056477 0.599000 10983325
0.218305 -0.044857 0.628000 10525615
0.217957 -0.041203 0.627000 9536660
0.217957 -0.037620 0.627000 9208721
0.218652 -0.034146 0.629000 9010828
0.219348 -0.030649 0.631000 8748169
0.219695 -0.027086 0.632000 8551046
0.220043 -0.023511 0.633000 8353411
0.220390 -0.019926 0.634000 8221827
0.220738 -0.016329 0.635000 8089980
0.220738 -0.012700 0.635000 10261384
0.196057 -0.008057 0.564000 9862557
0.196405 -0.004843 0.565000 10192266
0.196405 -0.001614 0.565000 10192268
0.197448 0.001623 0.568000 10258574
0.198143 0.004886 0.570000 10324881
0.198490 0.008157 0.571000 10390163
0.199186 0.011460 0.573000 10586519
0.200229 0.014811 0.576000 10587030
0.200576 0.018134 0.577000 10653338
0.201271 0.021506 0.579000 10719385
0.201967 0.024900 0.581000 10719644
0.202314 0.028269 0.582000 10785948
0.203010 0.031703 0.584000 10851228
0.203705 0.035160 0.586000 10851230
0.204400 0.038640 0.588000 10982556
0.205443 0.042214 0.591000 10916765
0.206138 0.045746 0.593000 10917022
0.206833 0.049300 0.595000 10982560
0.207529 0.052877 0.597000 11048351
0.208224 0.056477 0.599000 11048862
0.218802 -0.044714 0.626000 10920115
0.218802 -0.041137 0.626000 9470865
0.219151 -0.037620 0.627000 9208720
0.219501 -0.034091 0.628000 9076107
0.219850 -0.030551 0.629000 8747913
0.220899 -0.027086 0.632000 8550791
0.220899 -0.023474 0.632000 8353410
0.221598 -0.019926 0.634000 8221314
0.221948 -0.016329 0.635000 8220796
0.221948 -0.012700 0.635000 10262407
0.197131 -0.008057 0.564000 9930911
0.197131 -0.004834 0.564000 10323852
0.197481 -0.001614 0.565000 10323855
0.198180 0.001620 0.567000 10389905
0.199229 0.004886 0.570000 10456723
0.199578 0.008157 0.571000 10521239
0.199928 0.011440 0.572000 10587545
0.201326 0.014811 0.576000 10718362
0.201675 0.018134 0.577000 10785179
0.202374 0.021506 0.579000 10785179
0.202724 0.024857 0.580000 10785694
0.203423 0.028269 0.582000 10786461
0.204122 0.031703 0.584000 10917278
0.204821 0.035160 0.586000 10982817
0.205520 0.038640 0.588000 10982814
0.206569 0.042214 0.591000 10982559
0.207268 0.045746 0.593000 10982559
0.207967 0.049300 0.595000 11048098
0.209015 0.052966 0.598000 11114401
0.209365 0.056477 0.599000 11114657
0.219994 -0.044714 0.626000 11117239
0.219994 -0.041137 0.626000 9405325
0.219994 -0.037560 0.626000 9208719
0.220346 -0.034037 0.627000 8945034
0.221049 -0.030551 0.629000 8747914
0.221049 -0.026957 0.629000 8485512
0.221751 -0.023437 0.631000 8287618
0.222454 -0.019894 0.633000 8155777
0.222806 -0.016303 0.634000 8221053
0.223157 -0.012700 0.635000 10260357
0.198206 -0.008057 0.564000 10060193
0.198206 -0.004834 0.564000 10389902
0.198557 -0.001614 0.565000 10389905
0.199260 0.001620 0.567000 10521748
0.200314 0.004886 0.570000 10588309
0.200666 0.008157 0.571000 10587546
0.201369 0.011460 0.573000 10719388
0.202071 0.014786 0.575000 10850461
0.202774 0.018134 0.577000 10916764
0.203477 0.021506 0.579000 10916509
0.203829 0.024857 0.580000 10917025
0.204883 0.028317 0.583000 10917790
0.205234 0.031703 0.584000 10983328
0.206289 0.035220 0.587000 11048355
0.206640 0.038640 0.588000 11113888
0.207694 0.042214 0.591000 11048353
0.208749 0.045823 0.594000 11048097
0.209100 0.049300 0.595000 11048355
0.209803 0.052877 0.597000 11114915
0.210506 0.056477 0.599000 11180452
0.221187 -0.044714 0.626000 11315127
0.221187 -0.041137 0.626000 9405583
0.221187 -0.037560 0.626000 9142928
0.221540 -0.034037 0.627000 8879499
0.221893 -0.030503 0.628000 8747915
0.222247 -0.026957 0.629000 8485256
0.222247 -0.023363 0.629000 8156548
0.223660 -0.019894 0.633000 8155776
0.223660 -0.016277 0.633000 8155261
0.223307 -0.012640 0.632000 10324361
0.199280 -0.008057 0.564000 10129059
0.199280 -0.004834 0.564000 10521489
0.199633 -0.001614 0.565000 10455956
0.200693 0.001623 0.568000 10653079
0.201400 0.004886 0.570000 10654104
0.201753 0.008157 0.571000 10653341
0.202107 0.011440 0.572000 10785438
0.203167 0.014786 0.575000 10917023
0.203520 0.018103 0.576000 10982815
0.204227 0.021469 0.578000 11113632
0.204933 0.024857 0.580000 10983075
0.205993 0.028317 0.583000 11048866
0.206347 0.031703 0.584000 11049122
0.207407 0.035220 0.587000 11113893
0.208113 0.038706 0.589000 11179681
0.208820 0.042214 0.591000 11114403
0.209880 0.045823 0.594000 11048354
0.210233 0.049300 0.595000 11114403
0.211293 0.052966 0.598000 11114660
0.212000 0.056571 0.600000 11245991
0.222024 -0.044643 0.625000 11711416
0.222024 -0.041071 0.625000 9405585
0.222379 -0.037560 0.626000 9208464
0.222379 -0.033983 0.626000 8879756
0.222734 -0.030454 0.627000 8747916
0.223090 -0.026914 0.628000 8419719
0.223445 -0.023363 0.629000 8222342
0.224510 -0.019863 0.632000 8090239
0.224866 -0.016277 0.633000 8089724
0.224510 -0.012640 0.632000 10193804
0.200354 -0.008057 0.564000 10258085
0.200354 -0.004834 0.564000 10587283
0.200710 -0.001614 0.565000 10521751
0.201775 0.001623 0.568000 10784409
0.202130 0.004877 0.569000 10850971
0.202841 0.008157 0.571000 10785439
0.203196 0.011440 0.572000 10917024
0.204262 0.014786 0.575000 10982817
0.204617 0.018103 0.576000 11179938
0.205683 0.021506 0.579000 11179682
0.206038 0.024857 0.580000 11114918
0.207104 0.028317 0.583000 11114661
0.207459 0.031703 0.584000 11114661
0.208525 0.035220 0.587000 11048870
0.209590 0.038771 0.590000 11180195
0.209946 0.042214 0.591000 11245477
0.210656 0.045746 0.593000 11179684
0.211367 0.049300 0.595000 11180195
0.212788 0.053054 0.599000 11180197
0.213143 0.056571 0.600000 11311785
0.223214 -0.044643 0.625000 12037302
0.223214 -0.041071 0.625000 9405329
0.223214 -0.037500 0.625000 9274000
0.223571 -0.033983 0.626000 8945038
0.223571 -0.030406 0.626000 8682379
0.223929 -0.026871 0.627000 8419461
0.224286 -0.023326 0.628000 8222086
0.225357 -0.019831 0.631000 8089728
0.225714 -0.016251 0.632000 8023933
0.201786 -0.011300 0.565000 10126990
0.201429 -0.008057 0.564000 10327207
0.201429 -0.004834 0.564000 10653335
0.201786 -0.001614 0.565000 10587803
0.202857 0.001623 0.568000 10915996
0.203214 0.004877 0.569000 11047583
0.203929 0.008157 0.571000 10917537
0.204286 0.011440 0.572000 11048611
0.205357 0.014786 0.575000 11114404
0.206071 0.018134 0.577000 11311525
0.206786 0.021506 0.579000 11311526
0.207143 0.024857 0.580000 11180711
0.208214 0.028317 0.583000 11246247
0.208571 0.031703 0.584000 11180198
0.209643 0.035220 0.587000 11049127
0.210714 0.038771 0.590000 11180454
0.211429 0.042286 0.592000 11311014
0.212143 0.045823 0.594000 11310756
0.212500 0.049300 0.595000 11245987
0.213929 0.053054 0.599000 11245990
0.214643 0.056666 0.601000 11377317
0.224405 -0.041071 0.625000 9470864
0.224405 -0.037500 0.625000 9274512
0.224405 -0.033929 0.625000 8945039
0.224764 -0.030406 0.626000 8682379
0.224764 -0.026829 0.626000 8419459
0.225123 -0.023289 0.627000 8222085
0.225841 -0.019769 0.629000 8024448
0.226559 -0.016226 0.631000 7958398
0.202862 -0.011300 0.565000 10127503
0.202862 -0.008071 0.565000 10456489
0.202503 -0.004834 0.564000 10719387
0.202862 -0.001614 0.565000 10784927
0.203580 0.001620 0.567000 10982303
0.203939 0.004869 0.568000 11113123
0.205016 0.008157 0.571000 11048867
0.205375 0.011440 0.572000 11180198
0.206452 0.014786 0.575000 11245734
0.207170 0.018134 0.577000 11377320
0.207889 0.021506 0.579000 11377577
0.208248 0.024857 0.580000 11312041
0.209325 0.028317 0.583000 11312041
0.209684 0.031703 0.584000 11311272
0.210761 0.035220 0.587000 11180199
0.212197 0.038837 0.591000 11245993
0.212556 0.042286 0.592000 11180199
0.213274 0.045823 0.594000 11310757
0.213992 0.049383 0.596000 11245986
0.215070 0.053054 0.599000 11311526
0.215788 0.056666 0.601000 11377057
0.225234 -0.041006 0.624000 9601682
0.225234 -0.037440 0.624000 9274257
0.225234 -0.033874 0.624000 8944528
0.225595 -0.030357 0.625000 8616843
0.225956 -0.026829 0.626000 8484997
0.226317 -0.023289 0.627000 8156294
0.226678 -0.019737 0.628000 7958914
0.227039 -0.016174 0.629000 7892862
0.203938 -0.011300 0.565000 10060944
0.203577 -0.008057 0.564000 10590380
0.203577 -0.004834 0.564000 10850974
0.203938 -0.001614 0.565000 10982562
0.204660 0.001620 0.567000 11048611
0.205021 0.004869 0.568000 11114150
0.206104 0.008157 0.571000 11179942
0.206826 0.011460 0.573000 11246249
0.207548 0.014786 0.575000 11377065
0.208270 0.018134 0.577000 11378092
0.208991 0.021506 0.579000 11443372
0.209352 0.024857 0.580000 11377835
0.210435 0.028317 0.583000 11377579
0.211157 0.031757 0.585000 11377064
0.212240 0.035280 0.588000 11376810
0.213323 0.038837 0.591000 11311271
0.214045 0.042357 0.593000 11114405
0.214767 0.045900 0.595000 11245475
0.215128 0.049383 0.596000 11245983
0.216210 0.053054 0.599000 11311269
0.217293 0.056760 0.602000 11442596
0.226060 -0.040940 0.623000 9668244
0.226060 -0.037380 0.623000 9274514
0.226060 -0.033820 0.623000 8945040
0.226423 -0.030309 0.624000 8616843
0.226786 -0.026786 0.625000 8484999
0.227149 -0.023251 0.626000 8221575
0.227511 -0.019706 0.627000 7958916
0.228237 -0.016174 0.629000 7827583
0.205014 -0.011300 0.565000 10128017
0.205014 -0.008071 0.565000 10718896
0.204651 -0.004834 0.564000 10982561
0.205014 -0.001614 0.565000 11114148
0.206103 0.001623 0.568000 11180199
0.206466 0.004877 0.569000 11245737
0.207191 0.008157 0.571000 11246505
0.207917 0.011460 0.573000 11443116
0.209006 0.014811 0.576000 11509164
0.209731 0.018166 0.578000 11509681
0.210457 0.021543 0.580000 11509166
0.210457 0.024857 0.580000 11443629
0.211909 0.028366 0.584000 11443372
0.212634 0.031811 0.586000 11443113
0.213360 0.035280 0.588000 11311533
0.214811 0.038903 0.592000 11311269
0.215537 0.042429 0.594000 11114658
0.215900 0.045900 0.595000 11245217
0.216263 0.049383 0.596000 11311260
0.217714 0.053143 0.600000 11376549
0.226882 -0.040874 0.622000 9732511
0.226882 -0.037320 0.622000 9208720
0.227247 -0.033820 0.623000 8944783
0.227247 -0.030260 0.623000 8616842
0.227611 -0.026743 0.624000 8485000
0.227976 -0.023214 0.625000 8287110
0.228341 -0.019674 0.626000 7892868
0.229070 -0.016149 0.628000 7761533
0.205361 -0.011260 0.563000 10128021
0.205726 -0.008057 0.564000 10853042
0.206090 -0.004843 0.565000 11114404
0.206090 -0.001614 0.565000 11180455
0.207185 0.001623 0.568000 11312041
0.207550 0.004877 0.569000 11377579
0.208279 0.008157 0.571000 11378349
0.209009 0.011460 0.573000 11574960
0.210103 0.014811 0.576000 11641007
0.210832 0.018166 0.578000 11575218
0.211562 0.021543 0.580000 11575216
0.212291 0.024943 0.582000 11509166
0.213021 0.028366 0.584000 11443376
0.213750 0.031811 0.586000 11443112
0.214480 0.035280 0.588000 11311529
0.215939 0.038903 0.592000 11245732
0.216669 0.042429 0.594000 11180193
0.217398 0.045977 0.596000 11179680
0.217763 0.049466 0.597000 11441824
0.219587 0.053320 0.602000 11376807
0.228067 -0.040874 0.622000 9931434
0.228067 -0.037320 0.622000 9274510
0.227333 -0.033657 0.620000 8945037
0.228067 -0.030211 0.622000 8682633
0.228433 -0.026700 0.623000 8485001
0.228800 -0.023177 0.624000 8287109
0.229167 -0.019643 0.625000 7958660
0.229533 -0.016097 0.626000 7827067
0.206433 -0.011260 0.563000 10194841
0.206800 -0.008057 0.564000 10982324
0.207167 -0.004843 0.565000 11180710
0.207167 -0.001614 0.565000 11311531
0.208267 0.001623 0.568000 11378091
0.208633 0.004877 0.569000 11509421
0.209367 0.008157 0.571000 11575472
0.210467 0.011480 0.574000 11706547
0.211567 0.014837 0.577000 11707058
0.212300 0.018197 0.579000 11706804
0.213033 0.021580 0.581000 11706289
0.213767 0.024986 0.583000 11509679
0.214500 0.028414 0.585000 11508915
0.215233 0.031866 0.587000 11443111
0.215967 0.035340 0.589000 11245988
0.217800 0.039034 0.594000 11179938
0.218167 0.042500 0.595000 10983072
0.218533 0.045977 0.596000 11113630
0.219633 0.049631 0.599000 11310756
0.220733 0.053320 0.602000 11377066
0.228146 -0.040677 0.619000 10062000
0.228514 -0.037200 0.620000 9339534
0.228514 -0.033657 0.620000 9010574
0.228514 -0.030114 0.620000 8682633
0.228514 -0.026571 0.620000 8484745
0.229251 -0.023103 0.622000 8221828
0.229989 -0.019611 0.624000 8024196
0.230726 -0.016097 0.626000 7892090
0.207506 -0.011260 0.563000 10327698
0.207874 -0.008057 0.564000 11116215
0.207874 -0.004834 0.564000 11312300
0.208243 -0.001614 0.565000 11443630
0.209349 0.001623 0.568000 11509424
0.210086 0.004886 0.570000 11641009
0.210823 0.008171 0.572000 11838388
0.211929 0.011500 0.575000 11838134
0.213034 0.014863 0.578000 11838645
0.213771 0.018229 0.580000 11838389
0.214509 0.021617 0.582000 11837360
0.214877 0.024986 0.583000 11444142
0.215983 0.028463 0.586000 11639471
0.216720 0.031920 0.588000 11377061
0.217826 0.035460 0.591000 11114659
0.219300 0.039100 0.595000 11048354
0.219669 0.042571 0.596000 10786211
0.220037 0.046054 0.597000 11048097
0.220774 0.049631 0.599000 11180198
0.222617 0.053497 0.604000 11377324
0.229325 -0.040677 0.619000 10589878
0.229695 -0.037200 0.620000 9339535
0.229325 -0.033603 0.619000 9010831
0.229325 -0.030066 0.619000 8682632
0.229325 -0.026529 0.619000 8484744
0.230436 -0.023103 0.622000 8222083
0.230807 -0.019580 0.623000 8024196
0.231177 -0.016046 0.624000 7761016
0.207837 -0.011220 0.561000 10459019
0.208949 -0.008057 0.564000 11246266
0.209319 -0.004843 0.565000 11509425
0.209690 -0.001617 0.566000 11640753
0.210801 0.001626 0.569000 11706804
0.211171 0.004886 0.570000 11838134
0.212283 0.008186 0.573000 11969719
0.213394 0.011520 0.576000 11969721
0.214506 0.014889 0.579000 11904695
0.214506 0.018197 0.579000 12035254
0.215617 0.021617 0.582000 11706799
0.215988 0.024986 0.583000 11312812
0.217470 0.028511 0.587000 11311530
0.218210 0.031974 0.589000 11114403
0.219322 0.035520 0.592000 10917537
0.220433 0.039100 0.595000 10851233
0.221174 0.042643 0.597000 10917286
0.221915 0.046209 0.599000 11114404
0.222286 0.049714 0.600000 11377576
0.224879 0.053763 0.607000 11377581
0.230504 -0.040677 0.619000 11116219
0.230504 -0.037140 0.619000 9273490
0.230131 -0.033549 0.618000 9010830
0.230504 -0.030066 0.619000 8616840
0.230131 -0.026486 0.618000 8484488
0.230876 -0.023029 0.620000 8156546
0.231993 -0.019580 0.623000 7958402
0.231993 -0.016020 0.623000 7629177
0.208906 -0.011220 0.561000 10597270
0.210023 -0.008057 0.564000 11379388
0.210395 -0.004843 0.565000 11640756
0.210768 -0.001617 0.566000 11772595
0.211885 0.001626 0.569000 11838647
0.212630 0.004894 0.571000 11970231
0.213374 0.008186 0.573000 12101050
0.214491 0.011520 0.576000 12101306
0.215609 0.014889 0.579000 12036024
0.215981 0.018229 0.580000 12165813
0.217098 0.021654 0.583000 11510447
0.217470 0.025029 0.584000 11180970
0.218588 0.028511 0.587000 11048610
0.219332 0.031974 0.589000 10851491
0.220450 0.035520 0.592000 10720677
0.221939 0.039166 0.596000 10589860
0.222311 0.042643 0.597000 11113639
0.223056 0.046209 0.599000 11181742
0.223801 0.049797 0.601000 11641012
0.226035 0.053763 0.607000 11377839
0.231309 -0.040611 0.618000 11380672
0.231309 -0.037080 0.618000 9404309
0.230934 -0.033494 0.617000 9010829
0.231309 -0.030017 0.618000 8682121
0.230934 -0.026443 0.617000 8484744
0.231683 -0.022991 0.619000 8222082
0.232806 -0.019549 0.622000 7958655
0.232806 -0.015994 0.622000 7629946
0.209974 -0.011220 0.561000 10855841
0.211097 -0.008057 0.564000 11509437
0.211471 -0.004843 0.565000 11772599
0.212220 -0.001620 0.567000 11904182
0.212969 0.001626 0.569000 11970489
0.213717 0.004894 0.571000 12102072
0.214840 0.008200 0.574000 12167357
0.215963 0.011540 0.577000 12167356
0.217086 0.014914 0.580000 12036025
0.217460 0.018260 0.581000 11903669
0.218209 0.021654 0.583000 11378095
0.218583 0.025029 0.584000 10983849
0.220080 0.028560 0.588000 11048601
0.220829 0.032029 0.590000 11047587
0.221577 0.035520 0.592000 10917288
0.223449 0.039231 0.597000 11181223
0.223823 0.042714 0.598000 11575976
0.224571 0.046286 0.600000 11708600
0.225694 0.049963 0.603000 11774912
0.227191 0.053763 0.607000 11508656
0.232110 -0.040546 0.617000 11646916
0.232110 -0.037020 0.617000 9470103
0.231733 -0.033440 0.616000 9076109
0.232110 -0.029969 0.617000 8747913
0.232110 -0.026443 0.617000 8484999
0.232486 -0.022954 0.618000 8287362
0.233238 -0.019486 0.620000 8024445
0.233238 -0.015943 0.620000 7563381
0.211043 -0.011220 0.561000 11190454
0.212548 -0.008071 0.565000 11642302
0.212548 -0.004843 0.565000 11970232
0.213300 -0.001620 0.567000 12036026
0.214429 0.001629 0.570000 12102076
0.215181 0.004903 0.572000 12168124
0.215933 0.008200 0.574000 12299200
0.216686 0.011520 0.576000 12233150
0.218190 0.014914 0.580000 12036025
0.218943 0.018291 0.582000 11575475
0.219319 0.021654 0.583000 11180460
0.220071 0.025071 0.585000 10786728
0.221200 0.028560 0.588000 10983072
0.221952 0.032029 0.590000 11179685
0.222705 0.035520 0.592000 11113896
0.224962 0.039297 0.598000 11706798
0.225338 0.042786 0.599000 12037298
0.226090 0.046363 0.601000 12167619
0.227595 0.050129 0.605000 11973325
0.233285 -0.040546 0.617000 12038599
0.232907 -0.036960 0.616000 9404313
0.232529 -0.033386 0.615000 9076365
0.232529 -0.029871 0.615000 8747914
0.232907 -0.026400 0.616000 8419462
0.233285 -0.022917 0.617000 8287107
0.234041 -0.019454 0.619000 7959163
0.234041 -0.015917 0.619000 7366513
0.212111 -0.011220 0.561000 11711947
0.213246 -0.008057 0.564000 11838656
0.213624 -0.004843 0.565000 12102072
0.214758 -0.001623 0.568000 12167358
0.215892 0.001631 0.571000 12168126
0.216649 0.004911 0.573000 12233664
0.217405 0.008214 0.575000 12299714
0.218539 0.011560 0.578000 12298944
0.219295 0.014914 0.580000 11904697
0.220430 0.018323 0.583000 11443378
0.221186 0.021729 0.585000 11114665
0.221942 0.025157 0.587000 11049127
0.222698 0.028609 0.589000 11311014
0.223454 0.032083 0.591000 11378856
0.223832 0.035520 0.592000 11772583
0.226101 0.039297 0.598000 12102581
0.226479 0.042786 0.599000 12365756
0.227613 0.046440 0.602000 12692687
0.229504 0.050294 0.607000 12500186
0.234460 -0.040546 0.617000 12432826
0.233700 -0.036900 0.615000 9340579
0.233320 -0.033331 0.614000 9141646
0.233320 -0.029823 0.614000 8682634
0.233700 -0.026357 0.615000 8419462
0.233700 -0.022843 0.615000 8221828
0.234080 -0.019360 0.616000 7959423
0.234460 -0.015866 0.617000 7104117
0.213180 -0.011220 0.561000 12309462
0.214700 -0.008071 0.565000 12036801
0.215080 -0.004851 0.566000 12233918
0.215840 -0.001623 0.568000 12299457
0.216980 0.001631 0.571000 12234433
0.217740 0.004911 0.573000 12234180
0.218880 0.008229 0.576000 12365509
0.219640 0.011560 0.578000 12299201
0.220400 0.014914 0.580000 11838650
0.221540 0.018323 0.583000 11311789
0.222300 0.021729 0.585000 11048867
0.223440 0.025200 0.588000 11311269
0.224200 0.028657 0.590000 11573928
0.224580 0.032083 0.591000 11575985
0.225340 0.035580 0.593000 12430263
0.227240 0.039297 0.598000 12496832
0.227620 0.042786 0.599000 12759752
0.228760 0.046440 0.602000 13222618
0.230660 0.050294 0.607000 13095147
0.234490 -0.036840 0.614000 9406637
0.234108 -0.033277 0.613000 9141903
0.234108 -0.029774 0.613000 8682891
0.234490 -0.026314 0.614000 8419462
0.234490 -0.022806 0.614000 8287620
0.234490 -0.019297 0.614000 8025218
0.235253 -0.015840 0.616000 6972282
0.214249 -0.011220 0.561000 12698849
0.215776 -0.008071 0.565000 12299202
0.216540 -0.004860 0.567000 12365764
0.217304 -0.001626 0.569000 12365509
0.218831 0.001637 0.573000 12366020
0.219595 0.004929 0.575000 12431048
0.219977 0.008229 0.576000 12431815
0.221123 0.011580 0.579000 12234178
0.221887 0.014940 0.581000 11707067
0.223032 0.018354 0.584000 11377064
0.223796 0.021766 0.586000 11311261
0.225324 0.025286 0.590000 11638692
0.225706 0.028706 0.591000 11903402
0.226088 0.032137 0.592000 12100537
0.226851 0.035640 0.594000 12694214
0.228761 0.039363 0.599000 13023691
0.228761 0.042786 0.599000 13287379
0.229907 0.046440 0.602000 13619685
0.231816 0.050294 0.607000 13817595
0.235275 -0.036780 0.613000 9475761
0.234891 -0.033223 0.612000 9207181
0.234508 -0.029677 0.611000 8682634
0.234508 -0.026186 0.611000 8484999
0.235275 -0.022769 0.613000 8287620
0.234891 -0.019234 0.612000 8156290
0.235275 -0.015763 0.613000 6775673
0.216852 -0.011300 0.565000 13099492
0.217236 -0.008086 0.566000 12562372
0.217620 -0.004860 0.567000 12563144
0.218771 -0.001629 0.570000 12366026
0.219923 0.001637 0.573000 12497607
0.220690 0.004929 0.575000 12563147
0.221074 0.008229 0.576000 12563401
0.222226 0.011580 0.579000 12168125
0.223761 0.014991 0.583000 11574957
0.224529 0.018386 0.585000 11377057
0.225680 0.021840 0.588000 11508385
0.226448 0.025286 0.590000 11903148
0.227215 0.028754 0.592000 12166327
0.227983 0.032246 0.594000 12562370
0.227983 0.035640 0.594000 12956611
0.229902 0.039363 0.599000 13547972
0.229902 0.042786 0.599000 13878468
0.231053 0.046440 0.602000 14011600
0.233356 0.050377 0.608000 14537723
0.236443 -0.036780 0.613000 10460853
0.235671 -0.033169 0.611000 9141643
0.234900 -0.029580 0.609000 8682634
0.234900 -0.026100 0.609000 8485255
0.235671 -0.022694 0.611000 8353155
0.236057 -0.019234 0.612000 8156802
0.236057 -0.015737 0.612000 6641528
0.217929 -0.011300 0.565000 13489126
0.218700 -0.008100 0.567000 12693959
0.219086 -0.004869 0.568000 12694731
0.219857 -0.001629 0.570000 12562638
0.221014 0.001637 0.573000 12628937
0.222171 0.004937 0.576000 12892367
0.222557 0.008243 0.577000 12629707
0.223714 0.011600 0.580000 11904185
0.225257 0.015017 0.584000 11312031
0.226029 0.018417 0.586000 11311003
0.226800 0.021840 0.588000 11574436
0.227957 0.025329 0.591000 12167347
0.228729 0.028803 0.593000 12628164
0.229114 0.032246 0.594000 13089995
0.229114 0.035640 0.594000 13285312
0.231043 0.039363 0.599000 13547708
0.231043 0.042786 0.599000 13810101
0.234514 0.050377 0.608000 14604539
0.237223 -0.036720 0.612000 11446456
0.236060 -0.033060 0.609000 9075850
0.235672 -0.029531 0.608000 8682379
0.235672 -0.026057 0.608000 8550791
0.236060 -0.022620 0.609000 8418947
0.236835 -0.019203 0.611000 8222595
0.237223 -0.015737 0.612000 6448007
0.219392 -0.011320 0.566000 13886698
0.219392 -0.008086 0.566000 12825546
0.220168 -0.004869 0.568000 12891597
0.221330 -0.001631 0.571000 12695248
0.222493 0.001640 0.574000 12760525
0.223269 0.004937 0.576000 13155026
0.224431 0.008271 0.579000 12761791
0.225207 0.011620 0.581000 11639467
0.226370 0.015017 0.584000 11049116
0.227145 0.018417 0.586000 11180709
0.228308 0.021877 0.589000 11706033
0.229470 0.025371 0.592000 12366265
0.230246 0.028851 0.594000 13153728
0.230246 0.032246 0.594000 13547969
0.232184 0.039363 0.599000 13547192
0.235672 0.050377 0.608000 14733277
0.237220 -0.036540 0.609000 12367292
0.236830 -0.033006 0.608000 9208456
0.236441 -0.029483 0.607000 8747916
0.236051 -0.025971 0.606000 8550791
0.236441 -0.022546 0.607000 8484740
0.237220 -0.019140 0.609000 8222851
0.237999 -0.015711 0.611000 7489942
0.220470 -0.011320 0.566000 13948397
0.220860 -0.008100 0.567000 12957133
0.221639 -0.004877 0.569000 13089487
0.222418 -0.001631 0.571000 12893138
0.223976 0.001643 0.575000 12826320
0.224755 0.004946 0.577000 13023700
0.225534 0.008271 0.579000 12101555
0.225924 0.011600 0.580000 11438748
0.227482 0.015017 0.584000 11245464
0.227871 0.018386 0.585000 11837358
0.229430 0.021877 0.589000 12497086
0.230209 0.025329 0.591000 12958910
0.230988 0.028803 0.593000 13350075
0.237597 -0.036420 0.607000 13283767
0.237206 -0.032897 0.606000 9341592
0.236814 -0.029386 0.605000 8747916
0.236423 -0.025886 0.604000 8550793
0.236814 -0.022471 0.605000 8484997
0.237597 -0.019077 0.607000 8223108
0.237989 -0.015634 0.608000 8551325
0.221940 -0.011340 0.567000 14079967
0.221940 -0.008100 0.567000 13088977
0.222723 -0.004877 0.569000 13286612
0.223506 -0.001631 0.571000 13091031
0.225071 0.001643 0.575000 12957652
0.226246 0.004954 0.578000 12825032
0.227420 0.008300 0.581000 11505561
0.227811 0.011640 0.582000 11242386
0.228986 0.015043 0.585000 11443114
0.230551 0.021877 0.589000 13285305
0.231334 0.025329 0.591000 13547705
0.232117 0.028803 0.593000 13546167
0.237597 0.053763 0.607000 13353946
0.238753 -0.036420 0.607000 13219251
0.237967 -0.032843 0.605000 9933992
0.237573 -0.029337 0.604000 8879244
0.237573 -0.025886 0.604000 8616331
0.237967 -0.022471 0.605000 8550535
0.238360 -0.019046 0.606000 8025733
0.239147 -0.015634 0.608000 10387876
0.223020 -0.011340 0.567000 14011345
0.223413 -0.008114 0.568000 13220820
0.224200 -0.004886 0.570000 13353176
0.224987 -0.001634 0.572000 13419228
0.226560 0.001646 0.576000 13024983
0.227740 0.004963 0.579000 11444667
0.228527 0.008300 0.581000 10518911
0.228920 0.011640 0.582000 11242888
0.230100 0.015043 0.585000 12429756
0.231673 0.021877 0.589000 13349299
0.232460 0.025329 0.591000 13546163
0.233247 0.028803 0.593000 13676722
0.238753 0.053763 0.607000 13353172
0.238724 -0.032789 0.604000 10527677
0.238329 -0.029289 0.603000 9011345
0.238329 -0.025843 0.603000 8681869
0.238724 -0.022434 0.604000 8550792
0.239514 -0.019046 0.606000 7829120
0.224100 -0.011340 0.567000 13942739
0.224890 -0.008129 0.569000 13352661
0.225681 -0.004894 0.571000 13484760
0.226076 -0.001634 0.572000 13683172
0.227657 0.001646 0.576000 13157854
0.229238 0.004971 0.580000 9997991
0.230029 0.008314 0.582000 9598845
0.230029 0.011640 0.582000 11246479
0.230819 0.015017 0.584000 13416116
0.233586 0.025329 0.591000 13480110
0.234771 0.028851 0.594000 13807019
0.239910 0.053763 0.607000 13352396
0.239874 -0.032789 0.604000 11514322
0.239080 -0.029240 0.602000 8881303
0.238683 -0.025757 0.601000 8813199
0.239874 -0.022434 0.604000 8616586
0.225577 -0.011360 0.568000 13746388
0.226769 -0.008157 0.571000 13484246
0.226769 -0.004894 0.571000 13616087
0.227166 -0.001634 0.572000 14013164
0.229946 0.001654 0.579000 13156837
0.230343 0.004971 0.580000 9797010
0.231137 0.008314 0.582000 9663867
0.231137 0.011640 0.582000 12495767
0.241066 0.053763 0.607000 13417667
0.239828 -0.029191 0.601000 8686766
0.239030 -0.025671 0.599000 9009806
0.227058 -0.011380 0.569000 13614039
0.227856 -0.008157 0.571000 13550297
0.228255 -0.004903 0.572000 13812697
0.228255 -0.001634 0.572000 14276589
0.231448 0.001657 0.580000 13224173
0.231448 0.004971 0.580000 9599638
0.232246 0.008314 0.582000 9793399
0.232246 0.011640 0.582000 13740950
0.240972 -0.029191 0.601000 10261702
0.239369 -0.025586 0.597000 8880012
0.228142 -0.011380 0.569000 13681113
0.229345 -0.008171 0.572000 13617116
0.229345 -0.004903 0.572000 13945307
0.232151 -0.001654 0.579000 14540013
0.232552 0.001657 0.580000 13355509
0.232151 0.004963 0.579000 9466521
0.232953 0.008300 0.581000 10057586
0.233354 0.011640 0.582000 13742484
0.240506 -0.025586 0.597000 8817068
0.229629 -0.011400 0.570000 13812176
0.230434 -0.008171 0.572000 13681097
0.230434 -0.004903 0.572000 14142396
0.233254 -0.001654 0.579000 14736617
0.233657 0.001657 0.580000 13552112
0.233254 0.004963 0.579000 9273250
0.233657 0.008286 0.580000 10385516
0.234463 0.011640 0.582000 13676184
0.231119 -0.011420 0.571000 13482183
0.231929 -0.008186 0.573000 13414070
0.231524 -0.004903 0.572000 13480092
0.234357 -0.001654 0.579000 14605797
0.234357 0.001654 0.579000 13617898
0.234357 0.004963 0.579000 9339819
0.234762 0.008286 0.580000 10517861
0.235571 0.011640 0.582000 13676701
0.232613 -0.011440 0.572000 13216688
0.233020 -0.008186 0.573000 13083301
0.232613 -0.004903 0.572000 12818332
0.235460 0.001654 0.579000 13750761
0.235053 0.004954 0.578000 9408683
0.235460 0.008271 0.579000 10712944
0.233703 -0.011440 0.572000 13082265
0.233703 -0.008171 0.572000 12950164
0.236154 0.004954 0.578000 10130860
0.236563 0.008271 0.579000 10714747
0.245960 0.056760 0.602000 10786726
0.235613 -0.011480 0.574000 12950426
0.236845 0.004946 0.577000 10854845
0.237255 0.008257 0.578000 10777461
