# .PCD v.7 - Point Cloud Data file format
VERSION .7
FIELDS x y z rgb
SIZE 4 4 4 4
TYPE F F F I
COUNT 1 1 1 1
WIDTH 1310
HEIGHT 1
POINTS 1310
DATA ascii
0.169986 -0.039586 0.815000 11442861
0.171237 -0.035186 0.821000 11442863
0.172071 -0.030643 0.825000 11443121
0.172489 -0.025991 0.827000 11705263
0.172906 -0.021317 0.829000 11639471
0.173740 -0.016660 0.833000 11771564
0.179326 -0.104674 0.852000 9668002
0.179326 -0.099806 0.852000 9010580
0.179326 -0.094937 0.852000 8747661
0.179326 -0.090069 0.852000 8287108
0.167329 -0.079500 0.795000 10791102
0.167960 -0.075240 0.798000 10850471
0.167960 -0.070680 0.798000 11113635
0.168802 -0.066451 0.802000 11179178
0.169223 -0.062023 0.804000 11310507
0.170065 -0.057714 0.808000 11378093
0.170486 -0.053229 0.810000 11508660
0.171328 -0.048840 0.814000 11574451
0.171538 -0.044243 0.815000 11640243
0.171959 -0.039683 0.817000 11705265
0.172801 -0.035186 0.821000 11574447
0.173643 -0.030643 0.825000 11574454
0.174064 -0.025991 0.827000 11573936
0.174906 -0.021369 0.831000 11704755
0.175748 -0.016700 0.835000 11771054
0.180524 -0.104429 0.850000 9864374
0.180099 -0.099337 0.848000 9010323
0.180524 -0.094714 0.850000 8813198
0.180524 -0.089857 0.850000 8024455
0.168843 -0.079500 0.795000 11387331
0.169905 -0.075429 0.800000 11178923
0.170330 -0.071034 0.802000 11311274
0.170754 -0.066617 0.804000 11442350
0.171179 -0.062177 0.806000 11573168
0.171604 -0.057714 0.808000 11640754
0.172453 -0.053360 0.812000 11771832
0.172453 -0.048720 0.812000 11771830
0.173515 -0.044351 0.817000 11771831
0.173515 -0.039683 0.817000 11967411
0.174790 -0.035271 0.823000 11705008
0.175639 -0.030717 0.827000 11639726
0.176064 -0.026054 0.829000 11442606
0.176489 -0.021369 0.831000 11705008
0.177338 -0.016700 0.835000 11836077
0.181071 -0.103814 0.845000 10524618
0.181071 -0.098986 0.845000 9076114
0.181071 -0.094157 0.845000 8813198
0.181714 -0.089646 0.848000 8023434
0.171000 -0.079800 0.798000 11710407
0.171429 -0.075429 0.800000 11442607
0.171857 -0.071034 0.802000 11573937
0.172286 -0.066617 0.804000 11706546
0.172714 -0.062177 0.806000 11837621
0.173571 -0.057857 0.810000 11904696
0.174000 -0.053360 0.812000 11903675
0.174643 -0.048900 0.815000 11838137
0.175071 -0.044351 0.817000 11706298
0.176357 -0.039974 0.823000 11508405
0.176786 -0.035357 0.825000 11573169
0.177214 -0.030717 0.827000 11573414
0.177643 -0.026054 0.829000 11574187
0.178071 -0.021369 0.831000 11771566
0.179357 -0.016740 0.837000 11573676
0.182681 -0.103814 0.845000 11183561
0.182681 -0.098986 0.845000 9075860
0.182681 -0.094157 0.845000 8813199
0.182681 -0.089329 0.845000 7957897
0.172520 -0.079800 0.798000 12106458
0.172952 -0.075429 0.800000 11705522
0.173817 -0.071211 0.804000 11836596
0.173817 -0.066617 0.804000 11903927
0.174682 -0.062331 0.808000 12035771
0.175114 -0.057857 0.810000 12167101
0.175979 -0.053491 0.814000 12100796
0.176628 -0.049020 0.817000 11903418
0.177060 -0.044460 0.819000 11706042
0.177492 -0.039877 0.821000 10984374
0.178790 -0.035443 0.827000 11441330
0.179222 -0.030791 0.829000 11443888
0.179654 -0.026117 0.831000 11708339
0.180087 -0.021420 0.833000 11776712
0.181816 -0.016820 0.841000 11311524
0.183854 -0.103569 0.843000 11511751
0.183854 -0.098751 0.843000 9075863
0.183854 -0.093934 0.843000 8878991
0.183854 -0.089117 0.843000 7758984
0.174476 -0.080000 0.800000 12565228
0.174912 -0.075617 0.802000 12034741
0.175349 -0.071211 0.804000 12035766
0.175785 -0.066783 0.806000 12102844
0.176657 -0.062486 0.810000 12298433
0.177093 -0.058000 0.812000 12233154
0.177530 -0.053491 0.814000 12166589
0.178620 -0.049140 0.819000 12100028
0.179056 -0.044569 0.821000 11771577
0.179492 -0.039974 0.823000 11640504
0.180365 -0.035443 0.827000 12231347
0.180801 -0.030791 0.829000 12562618
0.181237 -0.026117 0.831000 12891579
0.183418 -0.021626 0.841000 13159906
0.184290 -0.016900 0.845000 10718620
0.185460 -0.103569 0.843000 11841468
0.185460 -0.098751 0.843000 9011103
0.185020 -0.093711 0.841000 9010321
0.185020 -0.088906 0.841000 7563920
0.176440 -0.080200 0.802000 13029858
0.176880 -0.075806 0.804000 12363196
0.176880 -0.071211 0.804000 12233663
0.177320 -0.066783 0.806000 12299714
0.178640 -0.062640 0.812000 12495306
0.179080 -0.058143 0.814000 12299204
0.179300 -0.053557 0.815000 12231610
0.180620 -0.049260 0.821000 12231093
0.181500 -0.044786 0.825000 11837109
0.181940 -0.040169 0.827000 12297396
0.182380 -0.035529 0.829000 13019826
0.182380 -0.030791 0.829000 13611192
0.182820 -0.026117 0.831000 14005687
0.185900 -0.021729 0.845000 14470885
0.187066 -0.103569 0.843000 12429745
0.187066 -0.098751 0.843000 9076647
0.186622 -0.093711 0.841000 9010322
0.186622 -0.088906 0.841000 8539544
0.178411 -0.080400 0.804000 13287384
0.178411 -0.075806 0.804000 12693955
0.178855 -0.071389 0.806000 12496839
0.179299 -0.066949 0.808000 12693192
0.180187 -0.062640 0.812000 12891858
0.180630 -0.058143 0.814000 12430534
0.181740 -0.053820 0.819000 12296631
0.182184 -0.049260 0.821000 12492974
0.183071 -0.044786 0.825000 12625584
0.183959 -0.040266 0.829000 13020848
0.184403 -0.035614 0.831000 13479601
0.183959 -0.030791 0.829000 13610678
0.184403 -0.026117 0.831000 13874099
0.187510 -0.021729 0.845000 14338535
0.188224 -0.103323 0.841000 13083562
0.187776 -0.098283 0.839000 9147831
0.187329 -0.093266 0.837000 9075854
0.187776 -0.088694 0.839000 9474225
0.179943 -0.080400 0.804000 13610199
0.180390 -0.075994 0.806000 13022927
0.180390 -0.071389 0.806000 12759765
0.180838 -0.066949 0.808000 13087435
0.182181 -0.062794 0.814000 13287102
0.182852 -0.058357 0.817000 12494520
0.183748 -0.053951 0.821000 12296114
0.183748 -0.049260 0.821000 12755886
0.184643 -0.044786 0.825000 13478580
0.185538 -0.040266 0.829000 13741744
0.185986 -0.035614 0.831000 13938606
0.189826 -0.103323 0.841000 13149858
0.188923 -0.098049 0.837000 10790599
0.188471 -0.093043 0.835000 9009290
0.188020 -0.088060 0.833000 12042186
0.182377 -0.080800 0.808000 13613270
0.181926 -0.075994 0.806000 13287643
0.182377 -0.071566 0.808000 13485795
0.183280 -0.067280 0.812000 12366542
0.183731 -0.062794 0.814000 12294825
0.185311 -0.058643 0.821000 12820394
0.185311 -0.053951 0.821000 12887981
0.185311 -0.049260 0.821000 13084845
0.186214 -0.044786 0.825000 13544375
0.190517 -0.098049 0.837000 12365500
0.189151 -0.092597 0.831000 8948399
0.188241 -0.087426 0.827000 14534613
0.183916 -0.080800 0.808000 13613006
0.183461 -0.075994 0.806000 13483216
0.184827 -0.071920 0.812000 14210030
0.185965 -0.067694 0.817000 11639999
0.186420 -0.063180 0.819000 11235735
0.187330 -0.058786 0.823000 13083564
0.186875 -0.053951 0.821000 13478316
0.192111 -0.098049 0.837000 12826034
0.190275 -0.092374 0.829000 11451348
0.189816 -0.087426 0.827000 14344161
0.185455 -0.080800 0.808000 13415365
0.185455 -0.076183 0.808000 13217990
0.187521 -0.072363 0.817000 14210297
0.188439 -0.068026 0.821000 10189744
0.188439 -0.063334 0.821000 11304324
0.188898 -0.058786 0.823000 13215919
0.191854 -0.092374 0.829000 14010303
0.191391 -0.087426 0.827000 14138048
0.186994 -0.080800 0.808000 13281199
0.186994 -0.076183 0.808000 12952240
0.190003 -0.072717 0.821000 14212855
0.190466 -0.068191 0.823000 8682922
0.190466 -0.063489 0.823000 11372681
0.190003 -0.058643 0.821000 13346732
0.192967 -0.087426 0.827000 13343135
0.188533 -0.080800 0.808000 13082009
0.188533 -0.076183 0.808000 12684955
0.191567 -0.072717 0.821000 14145268
0.192500 -0.068357 0.825000 8811685
0.192033 -0.063489 0.823000 11965837
0.191567 -0.058643 0.821000 13345962
0.193130 -0.072717 0.821000 14081778
0.194071 -0.068357 0.825000 8879277
0.194071 -0.063643 0.825000 12493461
0.195643 -0.073071 0.825000 14078959
0.195643 -0.068357 0.825000 9271221
0.195643 -0.063643 0.825000 12558237
0.197214 -0.073071 0.825000 14144745
0.197214 -0.068357 0.825000 9669043
0.197214 -0.063643 0.825000 12693403
0.198786 -0.073071 0.825000 14142435
0.197822 -0.068026 0.821000 10128306
0.197822 -0.063334 0.821000 12559257
0.200357 -0.073071 0.825000 14142931
0.200357 -0.068357 0.825000 10591168
0.199386 -0.063334 0.821000 12430228
0.205943 -0.016960 0.848000 10258077
0.201929 -0.068357 0.825000 11381454
0.201929 -0.063643 0.825000 12229775
0.206824 -0.021729 0.845000 10719656
0.207558 -0.016960 0.848000 10715802
0.203500 -0.068357 0.825000 12171488
0.203500 -0.063643 0.825000 12098688
0.209173 -0.021806 0.848000 9931414
0.208433 -0.016900 0.845000 11171481
0.205071 -0.068357 0.825000 13488883
0.205071 -0.063643 0.825000 11634544
0.210043 -0.026557 0.845000 12361903
0.209546 -0.021677 0.843000 9798532
0.209049 -0.016820 0.841000 12031383
0.206643 -0.068357 0.825000 14735088
0.206643 -0.063643 0.825000 11173500
0.211652 -0.026557 0.845000 11306909
0.211151 -0.021677 0.843000 9599113
0.210650 -0.016820 0.841000 12957100
0.207710 -0.068191 0.823000 15201005
0.208214 -0.063643 0.825000 11111048
0.213262 -0.026557 0.845000 10256010
0.212757 -0.021677 0.843000 10513550
0.212252 -0.016820 0.841000 13546689
0.209277 -0.068191 0.823000 15587283
0.209786 -0.063643 0.825000 10979779
0.214363 -0.026494 0.843000 9204869
0.214363 -0.021677 0.843000 11375520
0.214363 -0.016860 0.843000 14137276
0.210845 -0.068191 0.823000 14795705
0.211357 -0.063643 0.825000 12499966
0.215456 -0.031237 0.841000 10315909
0.215969 -0.026494 0.843000 10124928
0.215969 -0.021677 0.843000 12824755
0.215969 -0.016860 0.843000 13939638
0.212412 -0.063489 0.823000 14020606
0.216026 -0.035871 0.837000 10845589
0.217058 -0.031237 0.841000 8746642
0.217574 -0.026494 0.843000 10981278
0.217574 -0.021677 0.843000 14202036
0.213980 -0.063489 0.823000 14673150
0.213980 -0.054083 0.823000 10644845
0.216580 -0.040460 0.833000 10636413
0.217100 -0.035786 0.835000 10385784
0.218660 -0.031237 0.841000 10519967
0.219180 -0.026494 0.843000 12429499
0.219180 -0.021677 0.843000 13873589
0.215024 -0.063334 0.821000 15322057
0.214500 -0.058500 0.819000 13616863
0.216071 -0.054214 0.825000 8618915
0.218167 -0.040460 0.833000 8747939
0.218690 -0.035786 0.835000 9929375
0.220262 -0.031237 0.841000 12232109
0.220786 -0.021677 0.843000 13545652
0.216588 -0.063334 0.821000 14200467
0.216060 -0.058500 0.819000 13822185
0.217115 -0.054083 0.823000 11318489
0.217643 -0.049500 0.825000 10656710
0.218698 -0.045003 0.829000 10655946
0.219753 -0.040460 0.833000 11119305
0.220281 -0.035786 0.835000 11839941
0.221336 -0.031163 0.839000 12957114
0.218151 -0.063334 0.821000 13080732
0.217089 -0.058357 0.817000 14006982
0.218151 -0.053951 0.821000 14076613
0.219214 -0.049500 0.825000 13285567
0.220277 -0.045003 0.829000 13158347
0.220809 -0.040363 0.831000 13481408
0.221340 -0.035700 0.833000 13810112
0.222934 -0.031163 0.839000 13676726
0.218645 -0.058357 0.817000 13476514
0.219180 -0.053820 0.819000 13611696
0.220250 -0.049380 0.823000 13219512
0.221856 -0.045003 0.829000 13220556
0.222927 -0.040460 0.833000 13414583
0.222927 -0.035700 0.833000 13743034
0.220201 -0.058357 0.817000 12952740
0.220740 -0.053820 0.819000 13149359
0.224513 -0.040460 0.833000 13348789
0.224513 -0.035700 0.833000 13677238
0.222300 -0.053820 0.819000 13215662
0.105424 -0.044262 0.845000 11242126
0.105798 -0.039573 0.848000 10584966
0.106048 -0.034810 0.850000 10060163
0.106297 -0.030023 0.852000 9862271
0.106547 -0.025213 0.854000 10123902
0.106527 -0.053664 0.841000 11238270
0.106527 -0.048858 0.841000 10911614
0.106780 -0.044157 0.843000 10516861
0.107413 -0.039573 0.848000 10190726
0.107413 -0.034728 0.848000 10059654
0.107667 -0.029952 0.850000 9862018
0.107920 -0.025154 0.852000 9862012
0.107871 -0.053536 0.839000 9993345
0.108129 -0.048858 0.841000 9796480
0.108386 -0.044157 0.843000 9730686
0.108643 -0.039433 0.845000 9862531
0.108643 -0.034605 0.845000 9993090
0.109029 -0.029882 0.848000 9861503
0.109286 -0.025095 0.850000 9598844
0.107904 -0.090576 0.827000 11964820
0.107904 -0.085850 0.827000 11702420
0.108426 -0.076769 0.831000 11042939
0.108426 -0.072020 0.831000 10910847
0.108687 -0.067433 0.833000 10583932
0.108687 -0.062673 0.833000 10255741
0.108948 -0.058052 0.835000 10058884
0.109470 -0.053536 0.839000 9993861
0.109470 -0.048742 0.839000 9862018
0.109730 -0.044052 0.841000 9796480
0.109730 -0.039247 0.841000 9796479
0.109991 -0.034523 0.843000 9861502
0.110252 -0.029776 0.845000 9664380
0.110644 -0.025036 0.848000 9532795
0.108950 -0.090138 0.823000 10321545
0.108950 -0.085435 0.823000 10124936
0.108950 -0.080732 0.823000 9928066
0.109479 -0.076399 0.827000 9928062
0.109479 -0.071673 0.827000 9993344
0.109744 -0.067110 0.829000 9861758
0.110009 -0.062523 0.831000 10058622
0.110009 -0.057774 0.831000 9992833
0.110538 -0.053281 0.835000 9927553
0.110538 -0.048510 0.835000 9861760
0.111068 -0.043948 0.839000 9861757
0.110803 -0.039060 0.837000 9730173
0.111068 -0.034359 0.839000 9664381
0.111597 -0.029706 0.843000 9532795
0.111597 -0.024889 0.843000 9467258
0.111862 -0.020119 0.845000 9401971
0.113203 -0.101963 0.843000 14282489
0.110249 -0.089919 0.821000 10056061
0.109980 -0.085020 0.819000 10058620
0.109980 -0.080340 0.819000 9860997
0.110517 -0.076030 0.823000 9862272
0.111054 -0.071673 0.827000 9928066
0.111054 -0.066948 0.827000 9796224
0.111323 -0.062372 0.829000 9861760
0.110786 -0.057357 0.825000 9795965
0.111860 -0.053153 0.833000 9730430
0.111860 -0.048393 0.833000 9730430
0.111860 -0.043633 0.833000 9730427
0.112129 -0.038967 0.835000 9664378
0.112666 -0.034359 0.839000 9598332
0.112934 -0.029635 0.841000 9467257
0.112666 -0.024770 0.839000 9401977
0.112934 -0.020024 0.841000 9335920
0.115081 -0.107033 0.845000 14007757
0.114809 -0.101963 0.843000 15655923
0.115081 -0.097376 0.845000 12175325
0.111812 -0.089919 0.821000 9794961
0.111268 -0.084812 0.817000 9992575
0.111540 -0.080340 0.819000 9795457
0.111812 -0.075845 0.821000 9861502
0.112085 -0.071327 0.823000 9795968
0.112085 -0.066624 0.823000 9730175
0.112357 -0.062071 0.825000 9599358
0.112357 -0.057357 0.825000 9664636
0.112630 -0.052770 0.827000 9533565
0.112902 -0.048161 0.829000 9599100
0.112902 -0.043424 0.829000 9598840
0.113174 -0.038780 0.831000 9598585
0.113719 -0.034195 0.835000 9532795
0.114264 -0.029565 0.839000 9401720
0.114264 -0.024770 0.839000 9335929
0.114264 -0.019976 0.839000 9335667
0.116690 -0.107033 0.845000 14735614
0.116690 -0.102205 0.845000 14537198
0.117657 -0.098183 0.852000 12764398
0.113100 -0.089700 0.819000 9533348
0.112824 -0.084812 0.817000 9729922
0.112824 -0.080144 0.817000 9598845
0.113100 -0.075660 0.819000 9599100
0.113376 -0.071153 0.821000 9598846
0.113652 -0.066624 0.823000 9598846
0.113652 -0.061921 0.823000 9533563
0.113652 -0.057218 0.823000 9533306
0.114205 -0.052770 0.827000 9468028
0.114205 -0.048045 0.827000 9533306
0.114481 -0.043424 0.829000 9533046
0.114757 -0.038780 0.831000 9467512
0.115033 -0.034113 0.833000 9467002
0.115310 -0.029424 0.835000 9270390
0.115586 -0.024711 0.837000 9270138
0.115586 -0.019929 0.837000 9270389
0.118720 -0.107413 0.848000 15400445
0.118300 -0.102205 0.845000 13354474
0.119280 -0.098183 0.852000 13354981
0.114380 -0.089481 0.817000 9211314
0.114100 -0.084605 0.815000 9467262
0.114100 -0.079948 0.815000 9402236
0.114380 -0.075475 0.817000 9401980
0.114940 -0.071153 0.821000 9336445
0.114940 -0.066462 0.821000 9467517
0.114940 -0.061770 0.821000 9402234
0.115220 -0.057218 0.823000 9467257
0.115500 -0.052643 0.825000 9402233
0.115500 -0.047929 0.825000 9467514
0.115780 -0.043319 0.827000 9467768
0.116060 -0.038687 0.829000 9335927
0.116340 -0.034031 0.831000 9336185
0.116620 -0.029353 0.833000 9204856
0.116900 -0.024652 0.835000 9204602
0.117180 -0.019929 0.837000 9270388
0.120335 -0.107413 0.848000 15002619
0.119910 -0.102205 0.845000 13023974
0.120619 -0.097952 0.850000 13024731
0.115510 -0.089152 0.814000 10526656
0.115510 -0.084501 0.814000 9204345
0.115652 -0.079948 0.815000 9336444
0.115936 -0.075475 0.817000 9270907
0.116504 -0.071153 0.821000 9270652
0.116504 -0.066462 0.821000 9401723
0.116504 -0.061770 0.821000 9336442
0.116504 -0.057079 0.821000 9401976
0.116788 -0.052515 0.823000 9401974
0.116788 -0.047812 0.823000 9401978
0.117071 -0.043214 0.825000 9402233
0.117355 -0.038593 0.827000 9270646
0.117639 -0.033950 0.829000 9336441
0.117923 -0.029283 0.831000 9270649
0.118207 -0.024593 0.833000 9270138
0.118774 -0.019929 0.837000 9270387
0.121950 -0.107413 0.848000 14544635
0.121950 -0.102568 0.848000 12695516
0.122238 -0.097952 0.850000 12694996
0.117061 -0.089152 0.814000 11838916
0.117061 -0.084501 0.814000 8941689
0.117061 -0.079850 0.814000 9205629
0.117205 -0.075290 0.815000 9139836
0.117492 -0.070807 0.817000 9139323
0.117780 -0.066300 0.819000 9336187
0.117780 -0.061620 0.819000 9270651
0.117780 -0.056940 0.819000 9336185
0.118068 -0.052388 0.821000 9401976
0.118355 -0.047812 0.823000 9336442
0.118643 -0.043214 0.825000 9336442
0.118643 -0.038500 0.825000 9205112
0.119218 -0.033950 0.829000 9270649
0.119506 -0.029283 0.831000 9401721
0.119506 -0.024534 0.831000 9270395
0.120081 -0.019881 0.835000 9270390
0.120369 -0.015146 0.837000 9139318
0.123566 -0.107413 0.848000 14276858
0.123857 -0.102810 0.850000 12431826
0.124149 -0.098183 0.852000 12037069
0.118029 -0.088714 0.810000 12040905
0.118320 -0.084293 0.812000 9204345
0.118320 -0.079653 0.812000 9271422
0.118611 -0.075198 0.814000 9271164
0.118757 -0.070633 0.815000 9139323
0.119049 -0.066138 0.817000 9139067
0.119049 -0.061470 0.817000 9270397
0.119049 -0.056801 0.817000 9336185
0.119631 -0.052388 0.821000 9336443
0.119631 -0.047696 0.821000 9336186
0.119923 -0.043110 0.823000 9270651
0.120214 -0.038500 0.825000 9270649
0.120506 -0.033868 0.827000 9335929
0.120797 -0.029212 0.829000 9336184
0.121089 -0.024534 0.831000 9335931
0.121671 -0.019881 0.835000 9270392
0.121671 -0.015110 0.835000 9270391
0.125476 -0.107667 0.850000 14008813
0.125771 -0.103051 0.852000 12102859
0.126067 -0.098413 0.854000 11446722
0.119276 -0.088495 0.808000 12166080
0.119276 -0.083878 0.808000 9465724
0.119571 -0.079457 0.810000 9270910
0.119867 -0.075013 0.812000 9402493
0.119867 -0.070373 0.812000 9139582
0.120310 -0.065976 0.815000 9007739
0.120310 -0.061319 0.815000 9205114
0.120310 -0.056662 0.815000 9270393
0.120900 -0.052260 0.819000 9270651
0.121195 -0.047696 0.821000 9270648
0.121490 -0.043110 0.823000 9139834
0.121490 -0.038407 0.823000 9336443
0.122081 -0.033868 0.827000 9336441
0.122376 -0.029212 0.829000 9336441
0.122376 -0.024475 0.829000 9401724
0.122671 -0.019786 0.831000 9335930
0.123262 -0.015110 0.835000 9336439
0.127394 -0.112789 0.852000 13942473
0.127095 -0.107667 0.850000 13154528
0.127693 -0.103293 0.854000 11707332
0.127992 -0.098644 0.856000 11050422
0.120815 -0.088495 0.808000 11179702
0.120815 -0.083878 0.808000 9665407
0.120815 -0.079261 0.808000 9205118
0.120815 -0.074644 0.808000 9270909
0.120815 -0.070027 0.808000 9140097
0.121712 -0.065895 0.814000 9007739
0.121862 -0.061319 0.815000 9139831
0.121862 -0.056662 0.815000 9270392
0.121862 -0.052005 0.815000 9336186
0.122460 -0.047580 0.819000 9270646
0.122759 -0.043005 0.821000 9205370
0.122759 -0.038313 0.821000 9336444
0.123357 -0.033786 0.825000 9402234
0.123656 -0.029142 0.827000 9402233
0.123955 -0.024475 0.829000 9467261
0.124254 -0.019786 0.831000 9336444
0.124553 -0.015073 0.833000 9336440
0.129017 -0.112789 0.852000 13876934
0.129320 -0.108173 0.854000 12232924
0.129623 -0.103535 0.856000 11313341
0.129926 -0.098874 0.858000 10656178
0.130986 -0.094738 0.865000 10130095
0.122051 -0.083670 0.806000 9862294
0.122051 -0.079065 0.806000 9139321
0.122051 -0.074459 0.806000 9139580
0.122354 -0.070027 0.808000 9140094
0.122657 -0.065571 0.810000 9073788
0.122960 -0.061093 0.812000 9008760
0.123263 -0.056592 0.814000 9270393
0.123414 -0.052005 0.815000 9336186
0.123414 -0.047348 0.815000 9336183
0.124020 -0.042900 0.819000 9205370
0.124323 -0.038313 0.821000 9336701
0.124626 -0.033704 0.823000 9402235
0.125231 -0.029142 0.827000 9402231
0.125534 -0.024475 0.829000 9467516
0.125837 -0.019786 0.831000 9336446
0.126140 -0.015073 0.833000 9336698
0.130640 -0.112789 0.852000 13943491
0.130947 -0.108173 0.854000 11839447
0.131253 -0.103535 0.856000 11049909
0.131867 -0.099105 0.860000 10392750
0.132633 -0.094738 0.865000 9798568
0.123587 -0.083670 0.806000 10062252
0.123280 -0.078869 0.804000 9204596
0.123587 -0.074459 0.806000 9139835
0.123587 -0.069853 0.806000 9205627
0.123893 -0.065410 0.808000 9139324
0.124200 -0.060943 0.810000 9205369
0.124813 -0.056592 0.814000 9270394
0.124813 -0.051941 0.814000 9336443
0.124967 -0.047348 0.815000 9401976
0.125273 -0.042795 0.817000 9271162
0.125887 -0.038313 0.821000 9336701
0.125887 -0.033622 0.821000 9467773
0.126193 -0.029001 0.823000 9402484
0.126807 -0.024416 0.827000 9467515
0.127113 -0.019738 0.829000 9336703
0.127727 -0.015073 0.833000 9402236
0.132263 -0.112789 0.852000 13941956
0.132573 -0.108173 0.854000 11378893
0.133505 -0.104019 0.860000 10721201
0.133815 -0.099335 0.862000 10195371
0.134281 -0.094738 0.865000 9405602
0.125122 -0.083670 0.806000 10329263
0.124811 -0.078869 0.804000 9204086
0.124811 -0.074274 0.804000 9205115
0.125122 -0.069853 0.806000 9271165
0.125432 -0.065410 0.808000 9204860
0.125743 -0.060943 0.810000 9401721
0.126053 -0.056453 0.812000 9270394
0.126364 -0.051941 0.814000 9336442
0.126519 -0.047348 0.815000 9467515
0.126830 -0.042795 0.817000 9336700
0.127140 -0.038220 0.819000 9402237
0.127450 -0.033622 0.821000 9468028
0.127761 -0.029001 0.823000 9402488
0.128382 -0.024416 0.827000 9402236
0.128692 -0.019738 0.829000 9402239
0.128692 -0.015001 0.829000 9468028
0.134200 -0.113053 0.854000 13680325
0.134514 -0.108427 0.856000 11247298
0.135143 -0.104019 0.860000 10523052
0.135457 -0.099335 0.862000 9931943
0.135929 -0.094738 0.865000 9273756
0.136243 -0.090003 0.867000 10458802
0.126029 -0.078672 0.802000 9204344
0.126657 -0.074459 0.806000 9270651
0.126657 -0.069853 0.806000 9271168
0.126971 -0.065410 0.808000 9204860
0.126971 -0.060792 0.808000 9401722
0.127600 -0.056453 0.812000 9270906
0.127914 -0.051941 0.814000 9336442
0.128071 -0.047348 0.815000 9402237
0.128071 -0.042690 0.815000 9336446
0.128700 -0.038220 0.819000 9402237
0.129014 -0.033622 0.821000 9468028
0.129329 -0.029001 0.823000 9468284
0.129643 -0.024357 0.825000 9468029
0.129957 -0.019690 0.827000 9468030
0.130271 -0.015001 0.829000 9533565
0.136145 -0.113318 0.856000 13416642
0.136463 -0.108680 0.858000 11048121
0.136781 -0.104019 0.860000 10260649
0.137099 -0.099335 0.862000 9734050
0.137576 -0.094738 0.865000 9142936
0.137576 -0.089795 0.865000 10527150
0.127556 -0.078672 0.802000 9204093
0.127874 -0.074274 0.804000 9336444
0.128192 -0.069853 0.806000 9271167
0.128192 -0.065248 0.806000 9138811
0.128510 -0.060792 0.808000 9336442
0.128829 -0.056314 0.810000 9271162
0.129147 -0.051813 0.812000 9336698
0.129465 -0.047290 0.814000 9336700
0.129624 -0.042690 0.815000 9336446
0.129942 -0.038127 0.817000 9468030
0.130578 -0.033622 0.821000 9468284
0.130896 -0.029001 0.823000 9468031
0.131214 -0.024357 0.825000 9533821
0.131532 -0.019690 0.827000 9533822
0.131850 -0.015001 0.829000 9533567
0.137775 -0.113318 0.856000 13418431
0.138097 -0.108680 0.858000 10785967
0.138741 -0.104261 0.862000 10128807
0.138741 -0.099335 0.862000 9602972
0.139224 -0.094738 0.865000 9208212
0.139224 -0.089795 0.865000 10261674
0.129084 -0.078672 0.802000 9072771
0.129084 -0.074090 0.802000 9402236
0.129406 -0.069680 0.804000 9271421
0.129728 -0.065248 0.806000 9074041
0.130050 -0.060792 0.808000 9336442
0.130371 -0.056314 0.810000 9336442
0.130693 -0.051813 0.812000 9402233
0.131015 -0.047290 0.814000 9467771
0.131176 -0.042690 0.815000 9401982
0.131176 -0.038033 0.815000 9468030
0.131820 -0.033540 0.819000 9533821
0.132464 -0.029001 0.823000 9533825
0.132464 -0.024298 0.823000 9533822
0.133108 -0.019690 0.827000 9599613
0.133430 -0.015001 0.829000 9599361
0.140057 -0.113848 0.860000 13350080
0.139731 -0.108680 0.858000 10523050
0.140383 -0.104261 0.862000 9996707
0.140871 -0.099681 0.865000 9471386
0.140871 -0.094738 0.865000 9207700
0.141197 -0.090003 0.867000 10001311
0.130611 -0.078672 0.802000 8876678
0.130286 -0.073905 0.800000 9468028
0.130611 -0.069507 0.802000 9271165
0.130937 -0.065086 0.804000 9074553
0.131589 -0.060792 0.808000 9336443
0.131914 -0.056314 0.810000 9401723
0.132240 -0.051813 0.812000 9467514
0.132566 -0.047290 0.814000 9533563
0.132566 -0.042638 0.814000 9467518
0.132729 -0.038033 0.815000 9533310
0.133054 -0.033458 0.817000 9533822
0.133706 -0.028930 0.821000 9533823
0.134031 -0.024298 0.823000 9533823
0.134357 -0.019643 0.825000 9665151
0.135009 -0.015001 0.829000 9599361
0.141695 -0.113848 0.860000 13351873
0.141366 -0.108680 0.858000 10325412
0.142025 -0.104261 0.862000 9799839
0.142519 -0.099681 0.865000 9405592
0.142519 -0.094738 0.865000 9141908
0.142849 -0.090003 0.867000 10062996
0.131810 -0.078476 0.800000 9006985
0.131810 -0.073905 0.800000 9336699
0.131810 -0.069333 0.800000 9271166
0.132469 -0.065086 0.804000 9205369
0.132798 -0.060642 0.806000 9336443
0.133128 -0.056175 0.808000 9401980
0.133457 -0.051686 0.810000 9467515
0.134116 -0.047290 0.814000 9467771
0.134116 -0.042638 0.814000 9467518
0.134281 -0.038033 0.815000 9533566
0.134281 -0.033376 0.815000 9599359
0.135270 -0.028930 0.821000 9534076
0.135599 -0.024298 0.823000 9599104
0.136258 -0.019690 0.827000 9730688
0.136588 -0.015001 0.829000 9665152
0.136588 -0.010264 0.829000 9665156
0.143000 -0.108680 0.858000 10063012
0.143667 -0.104261 0.862000 9602461
0.144167 -0.099681 0.865000 9339286
0.144500 -0.094957 0.867000 9076371
0.144833 -0.090210 0.869000 10190225
0.133333 -0.078476 0.800000 9074827
0.133000 -0.073720 0.798000 9205371
0.133333 -0.069333 0.800000 9205371
0.133667 -0.064924 0.802000 9401722
0.134333 -0.060642 0.806000 9336443
0.134667 -0.056175 0.808000 9467773
0.135000 -0.051686 0.810000 9401980
0.135333 -0.047173 0.812000 9401981
0.135667 -0.042638 0.814000 9467774
0.135833 -0.038033 0.815000 9599357
0.135833 -0.033376 0.815000 9664895
0.136833 -0.028930 0.821000 9468543
0.136833 -0.024239 0.821000 9664897
0.137500 -0.019643 0.825000 9861761
0.137833 -0.014965 0.827000 9730690
0.144971 -0.108933 0.860000 9931171
0.145309 -0.104261 0.862000 9536411
0.145814 -0.099681 0.865000 9274004
0.146151 -0.094957 0.867000 8945041
0.146489 -0.090210 0.869000 9994638
0.134520 -0.078280 0.798000 9137549
0.134520 -0.073720 0.798000 9270651
0.134857 -0.069333 0.800000 9270649
0.135531 -0.065086 0.804000 9336187
0.135869 -0.060642 0.806000 9336444
0.136206 -0.056175 0.808000 9402237
0.136206 -0.051558 0.808000 9467516
0.136880 -0.047173 0.812000 9467774
0.137217 -0.042638 0.814000 9468286
0.137386 -0.038033 0.815000 9664892
0.137723 -0.033458 0.817000 9664640
0.138060 -0.028860 0.819000 9599874
0.138397 -0.024239 0.821000 9730946
0.139071 -0.019643 0.825000 9796225
0.139409 -0.014965 0.827000 9796228
0.139746 -0.010264 0.829000 9730948
0.146610 -0.108933 0.860000 9798046
0.146950 -0.104261 0.862000 9405338
0.147462 -0.099681 0.865000 9208213
0.147803 -0.094957 0.867000 8748432
0.148144 -0.090210 0.869000 9730187
0.136040 -0.078280 0.798000 9140880
0.135870 -0.073628 0.797000 9270650
0.136040 -0.069160 0.798000 9336442
0.136722 -0.064924 0.802000 9336187
0.137404 -0.060642 0.806000 9336700
0.137745 -0.056175 0.808000 9402238
0.137745 -0.051558 0.808000 9533309
0.138086 -0.047057 0.810000 9533565
0.138768 -0.042638 0.814000 9468287
0.138938 -0.038033 0.815000 9730686
0.138938 -0.033376 0.815000 9599617
0.139620 -0.028860 0.819000 9731204
0.139961 -0.024239 0.821000 9731200
0.140643 -0.019643 0.825000 9730946
0.140984 -0.014965 0.827000 9862275
0.141325 -0.010264 0.829000 9862276
0.148248 -0.108933 0.860000 9667225
0.148592 -0.104261 0.862000 9339801
0.149110 -0.099681 0.865000 9142422
0.149454 -0.094957 0.867000 8813967
0.149799 -0.090210 0.869000 9863304
0.137043 -0.077986 0.795000 9269394
0.137388 -0.073628 0.797000 9270904
0.137560 -0.069160 0.798000 9401980
0.137905 -0.064762 0.800000 9336443
0.138939 -0.060642 0.806000 9336700
0.139284 -0.056175 0.808000 9468030
0.139284 -0.051558 0.808000 9533565
0.139284 -0.046941 0.808000 9599356
0.140318 -0.042638 0.814000 9534080
0.140318 -0.037987 0.814000 9730688
0.140490 -0.033376 0.815000 9665409
0.140835 -0.028790 0.817000 9731205
0.141525 -0.024239 0.821000 9796991
0.142214 -0.019643 0.825000 9731459
0.142559 -0.014965 0.827000 9928067
0.142904 -0.010264 0.829000 9862532
0.149886 -0.108933 0.860000 9601430
0.150234 -0.104261 0.862000 9274008
0.150757 -0.099681 0.865000 9076630
0.151106 -0.094957 0.867000 8813712
0.151454 -0.090210 0.869000 9991814
0.138557 -0.077986 0.795000 9338259
0.138557 -0.073443 0.795000 9205626
0.139080 -0.069160 0.798000 9402235
0.139429 -0.064762 0.800000 9401978
0.140126 -0.060491 0.804000 9271676
0.140474 -0.056036 0.806000 9534075
0.140823 -0.051558 0.808000 9533821
0.140823 -0.046941 0.808000 9665406
0.141869 -0.042638 0.814000 9599616
0.141869 -0.037987 0.814000 9730944
0.142043 -0.033376 0.815000 9665410
0.142391 -0.028790 0.817000 9796996
0.143089 -0.024239 0.821000 9862784
0.143437 -0.019595 0.823000 9797253
0.143786 -0.014929 0.825000 9928324
0.144483 -0.010264 0.829000 9928069
0.151876 -0.109187 0.862000 9536403
0.151876 -0.104261 0.862000 9273496
0.152405 -0.099681 0.865000 9011094
0.152757 -0.094957 0.867000 8748176
0.153110 -0.090210 0.869000 9665924
0.139719 -0.077790 0.793000 9664661
0.140071 -0.073443 0.795000 9271163
0.140600 -0.069160 0.798000 9468027
0.140952 -0.064762 0.800000 9402489
0.141305 -0.060341 0.802000 9402749
0.142010 -0.056036 0.806000 9534072
0.142362 -0.051558 0.808000 9599614
0.142362 -0.046941 0.808000 9665407
0.143067 -0.042533 0.812000 9665153
0.143419 -0.037987 0.814000 9796736
0.143595 -0.033376 0.815000 9730948
0.143948 -0.028790 0.817000 9796995
0.144652 -0.024239 0.821000 9928321
0.145005 -0.019595 0.823000 9862790
0.145357 -0.014929 0.825000 9994118
0.146062 -0.010264 0.829000 9993861
0.153518 -0.109187 0.862000 9536403
0.153518 -0.104261 0.862000 9208215
0.154052 -0.099681 0.865000 8945045
0.154409 -0.094957 0.867000 8616847
0.154765 -0.090210 0.869000 9400448
0.141586 -0.077986 0.795000 9995929
0.141942 -0.073628 0.797000 9402235
0.142120 -0.069160 0.798000 9468285
0.142476 -0.064762 0.800000 9468283
0.142832 -0.060341 0.802000 9534078
0.143545 -0.056036 0.806000 9599611
0.143901 -0.051558 0.808000 9599871
0.143901 -0.046941 0.808000 9731201
0.144613 -0.042533 0.812000 9730947
0.144970 -0.037987 0.814000 9796994
0.145148 -0.033376 0.815000 9796741
0.145504 -0.028790 0.817000 9862787
0.146216 -0.024239 0.821000 9928322
0.146572 -0.019595 0.823000 9928582
0.146929 -0.014929 0.825000 9994118
0.147641 -0.010264 0.829000 10059911
0.155160 -0.109187 0.862000 9471123
0.155160 -0.104261 0.862000 9273751
0.155700 -0.099681 0.865000 8945043
0.156060 -0.094957 0.867000 8682382
0.156420 -0.090210 0.869000 9270907
0.142740 -0.077790 0.793000 10129054
0.143460 -0.073628 0.797000 9402235
0.143640 -0.069160 0.798000 9534079
0.144000 -0.064762 0.800000 9533821
0.144360 -0.060341 0.802000 9599615
0.144720 -0.055897 0.804000 9665150
0.145080 -0.051430 0.806000 9665152
0.145440 -0.046941 0.808000 9731202
0.146160 -0.042533 0.812000 9796741
0.146520 -0.037987 0.814000 9862788
0.146700 -0.033376 0.815000 9928070
0.147420 -0.028860 0.819000 9928322
0.147780 -0.024239 0.821000 9993860
0.148140 -0.019595 0.823000 9994118
0.148500 -0.014929 0.825000 10059911
0.149220 -0.010264 0.829000 10060168
0.156802 -0.109187 0.862000 9470353
0.157348 -0.104624 0.865000 9273750
0.157348 -0.099681 0.865000 8944530
0.157711 -0.094957 0.867000 8682126
0.158075 -0.090210 0.869000 9203070
0.144250 -0.077790 0.793000 10196122
0.144978 -0.073628 0.797000 9402238
0.145160 -0.069160 0.798000 9534081
0.145524 -0.064762 0.800000 9599104
0.145888 -0.060341 0.802000 9599617
0.146251 -0.055897 0.804000 9665409
0.146615 -0.051430 0.806000 9731202
0.146979 -0.046941 0.808000 9796996
0.147707 -0.042533 0.812000 9862533
0.148070 -0.037987 0.814000 9993862
0.148252 -0.033376 0.815000 9994118
0.148980 -0.028860 0.819000 9994117
0.149344 -0.024239 0.821000 9994118
0.150071 -0.019643 0.825000 10059656
0.150071 -0.014929 0.825000 10060168
0.150799 -0.010264 0.829000 10125963
0.158444 -0.109187 0.862000 9470863
0.158444 -0.104261 0.862000 9273494
0.158995 -0.099681 0.865000 8944785
0.159363 -0.094957 0.867000 8681871
0.159730 -0.090210 0.869000 8808833
0.145026 -0.077397 0.789000 10723221
0.146496 -0.073628 0.797000 9402241
0.146680 -0.069160 0.798000 9599618
0.147048 -0.064762 0.800000 9599362
0.147048 -0.060190 0.800000 9665155
0.147783 -0.055897 0.804000 9730947
0.148150 -0.051430 0.806000 9862532
0.148518 -0.046941 0.808000 9862790
0.149253 -0.042533 0.812000 9993862
0.149621 -0.037987 0.814000 9994119
0.149805 -0.033376 0.815000 9994630
0.150540 -0.028860 0.819000 10059912
0.150908 -0.024239 0.821000 10059912
0.151643 -0.019643 0.825000 10125705
0.152010 -0.014965 0.827000 10125960
0.152378 -0.010264 0.829000 10191501
0.160086 -0.109187 0.862000 9535377
0.160086 -0.104261 0.862000 9208214
0.160643 -0.099681 0.865000 8944786
0.161014 -0.094957 0.867000 8616335
0.161386 -0.090210 0.869000 8480897
0.146529 -0.077397 0.789000 11246489
0.147643 -0.073443 0.795000 9403012
0.148014 -0.069073 0.797000 9599618
0.148200 -0.064600 0.798000 9665156
0.148200 -0.060040 0.798000 9730946
0.148571 -0.055619 0.800000 9796740
0.149314 -0.051303 0.804000 9928325
0.149686 -0.046825 0.806000 9994117
0.150429 -0.042429 0.810000 10059655
0.150800 -0.037893 0.812000 10059912
0.151171 -0.033335 0.814000 9994632
0.151729 -0.028790 0.817000 10125450
0.152471 -0.024239 0.821000 10125963
0.152843 -0.019595 0.823000 10192012
0.153214 -0.014929 0.825000 10191754
0.153586 -0.010239 0.827000 10322576
0.161352 -0.108933 0.860000 9536147
0.161352 -0.104019 0.860000 9208471
0.161728 -0.099335 0.862000 8945042
0.161728 -0.094410 0.862000 8616335
0.162290 -0.089795 0.865000 8415360
0.148407 -0.077593 0.791000 11512476
0.149157 -0.073443 0.795000 9533575
0.149532 -0.069073 0.797000 9665155
0.149720 -0.064600 0.798000 9796485
0.149720 -0.060040 0.798000 9796993
0.150095 -0.055619 0.800000 9862533
0.150846 -0.051303 0.804000 9928582
0.151221 -0.046825 0.806000 9994372
0.152347 -0.042533 0.812000 10125449
0.152722 -0.037987 0.814000 10060169
0.152722 -0.033335 0.814000 10125450
0.153660 -0.028860 0.819000 10191755
0.154035 -0.024239 0.821000 10257038
0.154035 -0.019548 0.821000 10257550
0.154786 -0.014929 0.825000 10322829
0.155536 -0.010264 0.829000 10388882
0.162990 -0.108933 0.860000 9535382
0.162990 -0.104019 0.860000 9142679
0.163370 -0.099335 0.862000 8879250
0.163370 -0.094410 0.862000 8616079
0.163938 -0.089795 0.865000 8351106
0.149913 -0.077593 0.791000 11770781
0.150671 -0.073443 0.795000 9599106
0.151050 -0.069073 0.797000 9730948
0.151240 -0.064600 0.798000 9927556
0.151240 -0.060040 0.798000 9862531
0.151619 -0.055619 0.800000 9928327
0.152377 -0.051303 0.804000 9928839
0.153135 -0.046941 0.808000 10059911
0.153893 -0.042533 0.812000 10191497
0.154272 -0.037987 0.814000 10126219
0.154272 -0.033335 0.814000 10191756
0.155220 -0.028860 0.819000 10323341
0.155599 -0.024239 0.821000 10323343
0.155599 -0.019548 0.821000 10389138
0.156357 -0.014929 0.825000 10454673
0.156736 -0.010239 0.827000 10520469
0.164629 -0.108933 0.860000 9601944
0.164629 -0.104019 0.860000 9207958
0.165011 -0.099335 0.862000 8813713
0.165011 -0.094410 0.862000 8616079
0.165586 -0.089795 0.865000 8219011
0.165969 -0.085049 0.867000 11970717
0.152569 -0.073628 0.797000 9664893
0.152569 -0.069073 0.797000 9796741
0.152760 -0.064600 0.798000 9928067
0.152760 -0.060040 0.798000 9993861
0.153143 -0.055619 0.800000 9994120
0.153909 -0.051303 0.804000 10059913
0.154674 -0.046941 0.808000 10125705
0.155440 -0.042533 0.812000 10257290
0.155823 -0.037987 0.814000 10257548
0.156014 -0.033376 0.815000 10323086
0.156780 -0.028860 0.819000 10389135
0.157163 -0.024239 0.821000 10454929
0.157163 -0.019548 0.821000 10454934
0.157929 -0.014929 0.825000 10520725
0.158694 -0.010264 0.829000 10652312
0.165880 -0.108680 0.858000 9731227
0.166267 -0.104019 0.860000 9207958
0.166267 -0.099105 0.860000 8813457
0.166653 -0.094410 0.862000 8550542
0.167233 -0.089795 0.865000 8153987
0.167233 -0.084852 0.865000 12165275
0.153700 -0.073443 0.795000 9730944
0.154087 -0.069073 0.797000 9862790
0.154280 -0.064600 0.798000 9993861
0.154667 -0.060190 0.800000 10059655
0.155053 -0.055758 0.802000 10125706
0.155827 -0.051430 0.806000 10125708
0.156600 -0.047057 0.810000 10257293
0.156987 -0.042533 0.812000 10323086
0.157373 -0.037987 0.814000 10323601
0.157567 -0.033376 0.815000 10389394
0.158340 -0.028860 0.819000 10455185
0.158727 -0.024239 0.821000 10520724
0.159113 -0.019595 0.823000 10586520
0.159500 -0.014929 0.825000 10587033
0.160273 -0.010264 0.829000 10783900
0.167124 -0.108427 0.856000 9799069
0.167514 -0.103777 0.858000 9273751
0.167905 -0.099105 0.860000 8813713
0.167905 -0.094190 0.860000 8485006
0.168295 -0.089484 0.862000 8089219
0.154433 -0.077593 0.791000 12167321
0.155605 -0.073628 0.797000 9796994
0.155605 -0.069073 0.797000 9928584
0.155800 -0.064600 0.798000 10059911
0.156190 -0.060190 0.800000 10125448
0.156581 -0.055758 0.802000 10191755
0.157362 -0.051430 0.806000 10257040
0.157752 -0.046941 0.808000 10323088
0.158533 -0.042533 0.812000 10454418
0.158924 -0.037987 0.814000 10455190
0.159119 -0.033376 0.815000 10520982
0.160290 -0.028930 0.821000 10586514
0.160290 -0.024239 0.821000 10717847
0.160681 -0.019595 0.823000 10718362
0.161071 -0.014929 0.825000 10783900
0.161852 -0.010264 0.829000 10849951
0.168360 -0.108173 0.854000 9928871
0.169149 -0.103777 0.858000 9273749
0.169543 -0.099105 0.860000 8878992
0.169543 -0.094190 0.860000 8419469
0.169937 -0.089484 0.862000 8023682
0.155940 -0.077593 0.791000 12163994
0.157123 -0.073628 0.797000 9797256
0.157123 -0.069073 0.797000 9994378
0.157320 -0.064600 0.798000 10125707
0.157714 -0.060190 0.800000 10191756
0.158503 -0.055897 0.804000 10257552
0.159291 -0.051558 0.808000 10323602
0.159686 -0.047057 0.810000 10454930
0.160080 -0.042533 0.812000 10520726
0.160474 -0.037987 0.814000 10520985
0.161066 -0.033458 0.817000 10652313
0.161854 -0.028930 0.821000 10718360
0.161854 -0.024239 0.821000 10849946
0.162643 -0.019643 0.825000 10849951
0.163037 -0.014965 0.827000 10915743
0.163826 -0.010289 0.831000 10981539
0.169987 -0.108173 0.854000 10194353
0.170385 -0.103535 0.856000 9339283
0.170783 -0.098874 0.858000 8878991
0.170783 -0.093971 0.858000 8485260
0.171181 -0.089276 0.860000 8023424
0.171579 -0.084558 0.862000 12168092
0.158641 -0.073628 0.797000 9928589
0.158641 -0.069073 0.797000 10125709
0.158641 -0.064519 0.797000 10191758
0.159238 -0.060190 0.800000 10323089
0.160034 -0.055897 0.804000 10323861
0.160830 -0.051558 0.808000 10454932
0.161229 -0.047057 0.810000 10586772
0.161627 -0.042533 0.812000 10717850
0.162025 -0.037987 0.814000 10652572
0.163020 -0.033540 0.819000 10849437
0.163418 -0.028930 0.821000 10915485
0.163816 -0.024298 0.823000 10981788
0.164214 -0.019643 0.825000 10982051
0.164612 -0.014965 0.827000 11113122
0.171613 -0.108173 0.854000 10389432
0.172015 -0.103535 0.856000 9339026
0.172417 -0.098874 0.858000 8878991
0.172417 -0.093971 0.858000 8550541
0.172819 -0.089276 0.860000 8089213
0.159355 -0.077790 0.793000 12165021
0.160159 -0.073628 0.797000 10060175
0.160159 -0.069073 0.797000 10257296
0.160360 -0.064600 0.798000 10323601
0.161164 -0.060341 0.802000 10389396
0.161566 -0.055897 0.804000 10455704
0.162370 -0.051558 0.808000 10521241
0.162771 -0.047057 0.810000 10718362
0.163575 -0.042638 0.814000 10849693
0.163575 -0.037987 0.814000 10849696
0.164580 -0.033540 0.819000 10981536
0.164982 -0.028930 0.821000 11047072
0.165786 -0.024357 0.825000 11048097
0.166188 -0.019690 0.827000 11113894
0.166590 -0.015001 0.829000 11244710
0.172834 -0.107920 0.852000 10720959
0.173240 -0.103293 0.854000 9339538
0.174051 -0.098874 0.858000 8879247
0.174051 -0.093971 0.858000 8550285
0.174457 -0.089276 0.860000 8087673
0.160460 -0.077593 0.791000 12234142
0.161677 -0.073628 0.797000 10191760
0.161677 -0.069073 0.797000 10388884
0.161880 -0.064600 0.798000 10389908
0.163097 -0.060491 0.804000 10586520
0.163097 -0.055897 0.804000 10587035
0.163909 -0.051558 0.808000 10718367
0.164314 -0.047057 0.810000 10915488
0.165126 -0.042638 0.814000 10981537
0.165329 -0.038033 0.815000 10981796
0.166140 -0.033540 0.819000 11113380
0.166546 -0.028930 0.821000 11179171
0.167357 -0.024357 0.825000 11245223
0.167763 -0.019690 0.827000 11245225
0.168169 -0.015001 0.829000 11376042
0.174457 -0.107920 0.852000 10987198
0.174867 -0.103293 0.854000 9338771
0.175276 -0.098644 0.856000 8879247
0.175276 -0.093752 0.856000 8484750
0.175686 -0.089069 0.858000 8087930
0.162376 -0.077790 0.793000 12297888
0.163195 -0.073628 0.797000 10323351
0.163195 -0.069073 0.797000 10455447
0.163400 -0.064600 0.798000 10522009
0.164219 -0.060341 0.802000 10718364
0.165038 -0.056036 0.806000 10783648
0.165857 -0.051686 0.810000 10916004
0.166267 -0.047173 0.812000 11047589
0.166676 -0.042638 0.814000 11113894
0.166881 -0.038033 0.815000 11113895
0.167700 -0.033540 0.819000 11244969
0.168519 -0.029001 0.823000 11376807
0.169338 -0.024416 0.827000 11376810
0.169748 -0.019738 0.829000 11376810
0.170567 -0.015073 0.833000 11442603
0.176080 -0.107920 0.852000 11183037
0.176493 -0.103293 0.854000 9339285
0.176493 -0.098413 0.854000 8879246
0.176493 -0.093533 0.854000 8550286
0.176907 -0.088861 0.856000 8284026
0.163887 -0.077790 0.793000 12299938
0.164713 -0.073628 0.797000 10455453
0.164713 -0.069073 0.797000 10718107
0.164920 -0.064600 0.798000 10719389
0.166160 -0.060491 0.804000 10915744
0.166573 -0.056036 0.806000 10981540
0.167400 -0.051686 0.810000 11113386
0.167813 -0.047173 0.812000 11245226
0.168227 -0.042638 0.814000 11311531
0.168847 -0.038127 0.817000 11311273
0.169673 -0.033622 0.821000 11310766
0.170500 -0.029071 0.825000 11442602
0.170913 -0.024416 0.827000 11639213
0.171327 -0.019738 0.829000 11508394
0.172153 -0.015073 0.833000 11639981
0.177703 -0.103051 0.852000 9272985
0.178120 -0.098413 0.854000 8878991
0.178120 -0.093533 0.854000 8550798
0.178120 -0.088653 0.854000 8415099
0.165814 -0.077986 0.795000 12233131
0.166231 -0.073628 0.797000 10654369
0.166440 -0.069160 0.798000 10916000
0.166440 -0.064600 0.798000 10917029
0.167691 -0.060491 0.804000 11113126
0.168526 -0.056175 0.808000 11179433
0.168943 -0.051686 0.810000 11311279
0.169360 -0.047173 0.812000 11442606
0.169986 -0.042690 0.815000 11508655
0.170403 -0.038127 0.817000 11508397
0.171237 -0.033622 0.821000 11377330
0.172071 -0.029071 0.825000 11508653
0.172906 -0.024475 0.829000 11836079
0.173323 -0.019786 0.831000 11639726
0.174157 -0.015110 0.835000 11837101
0.179326 -0.103051 0.852000 9075357
0.179326 -0.098183 0.852000 8944784
0.179326 -0.093314 0.852000 8616333
0.179747 -0.088653 0.854000 8941435
0.167750 -0.078182 0.797000 12102580
0.167960 -0.073720 0.798000 10916261
0.168381 -0.069333 0.800000 11113637
0.168802 -0.064924 0.802000 11244716
0.169644 -0.060642 0.806000 11376044
0.170065 -0.056175 0.808000 11443117
0.170907 -0.051813 0.812000 11574452
0.171328 -0.047290 0.814000 11574706
0.171538 -0.042690 0.815000 11640243
0.171959 -0.038127 0.817000 11639984
0.173222 -0.033704 0.823000 11509173
0.173643 -0.029071 0.825000 11574192
0.174485 -0.024475 0.829000 11573938
0.174906 -0.019786 0.831000 11705266
0.175748 -0.015110 0.835000 11902638
0.180099 -0.102568 0.848000 8879782
0.180524 -0.097952 0.850000 8944528
0.180524 -0.093095 0.850000 8681870
0.180524 -0.088238 0.850000 9399424
0.169480 -0.078280 0.798000 11904951
0.169905 -0.073905 0.800000 11243434
0.170330 -0.069507 0.802000 11311019
0.170754 -0.065086 0.804000 11506863
0.171179 -0.060642 0.806000 11573937
0.172029 -0.056314 0.810000 11706035
0.172453 -0.051813 0.812000 11771831
0.172878 -0.047290 0.814000 11772086
0.173515 -0.042795 0.817000 11706037
0.173940 -0.038220 0.819000 11836338
0.175214 -0.033786 0.825000 11639472
0.175639 -0.029142 0.827000 11639724
0.176064 -0.024475 0.829000 11245743
0.176913 -0.019833 0.833000 11771055
0.177763 -0.015146 0.837000 11902126
0.181071 -0.102205 0.845000 9076655
0.181714 -0.097722 0.848000 8944783
0.181071 -0.092548 0.845000 8747663
0.182143 -0.088238 0.850000 9795973
0.171000 -0.078280 0.798000 11836603
0.171429 -0.073905 0.800000 11507887
0.171857 -0.069507 0.802000 11573938
0.172286 -0.065086 0.804000 11771314
0.173143 -0.060792 0.808000 11838390
0.174000 -0.056453 0.812000 11903929
0.174000 -0.051813 0.812000 11903930
0.174643 -0.047348 0.815000 11837881
0.175500 -0.042900 0.819000 11640248
0.176357 -0.038407 0.823000 11508403
0.176786 -0.033786 0.825000 11507627
0.177643 -0.029212 0.829000 11573416
0.178071 -0.024534 0.831000 11507629
0.178500 -0.019833 0.833000 11706284
0.179786 -0.015182 0.839000 11508142
0.182681 -0.102205 0.845000 9276592
0.182681 -0.097376 0.845000 9010322
0.182681 -0.092548 0.845000 8747663
0.183330 -0.088030 0.848000 10185090
0.173385 -0.078672 0.802000 11772870
0.173385 -0.074090 0.802000 11771570
0.173817 -0.069680 0.804000 11837621
0.174250 -0.065248 0.806000 11968695
0.174682 -0.060792 0.808000 12035772
0.175547 -0.056453 0.812000 12166845
0.175979 -0.051941 0.814000 12035003
0.176628 -0.047464 0.817000 11837627
0.177060 -0.042900 0.819000 11574712
0.177492 -0.038313 0.821000 11246262
0.178790 -0.033868 0.827000 11377584
0.179222 -0.029212 0.829000 11573170
0.179654 -0.024534 0.831000 11709890
0.180951 -0.019929 0.837000 11643584
0.181384 -0.015182 0.839000 11046556
0.184290 -0.102205 0.845000 9736369
0.183854 -0.097146 0.843000 9010324
0.183854 -0.092329 0.843000 8878992
0.184290 -0.087719 0.845000 10388350
0.174912 -0.078672 0.802000 12099281
0.174912 -0.074090 0.802000 12034996
0.175349 -0.069680 0.804000 12102329
0.175785 -0.065248 0.806000 12167356
0.176657 -0.060943 0.810000 12298179
0.177530 -0.056592 0.814000 12232896
0.177530 -0.051941 0.814000 12100796
0.178620 -0.047580 0.819000 11968701
0.179056 -0.043005 0.821000 11705784
0.179056 -0.038313 0.821000 11837625
0.180365 -0.033868 0.827000 12430006
0.180801 -0.029212 0.829000 12626875
0.181673 -0.024593 0.833000 12961238
0.183854 -0.020071 0.843000 12170195
0.185460 -0.101963 0.843000 10132917
0.185460 -0.097146 0.843000 9010577
0.185020 -0.092110 0.841000 8944268
0.185460 -0.087511 0.843000 10584985
0.176880 -0.078869 0.804000 12430542
0.176880 -0.074274 0.804000 12297662
0.177320 -0.069853 0.806000 12299457
0.177760 -0.065410 0.808000 12430016
0.178640 -0.061093 0.812000 12496329
0.179080 -0.056592 0.814000 12298432
0.180180 -0.052260 0.819000 12165814
0.180620 -0.047696 0.821000 12034232
0.181500 -0.043214 0.825000 11772596
0.181940 -0.038593 0.827000 12494518
0.182380 -0.033950 0.829000 13413813
0.182820 -0.029283 0.831000 13742520
0.183260 -0.024593 0.833000 14206671
0.185900 -0.020119 0.845000 12762338
0.187510 -0.102205 0.845000 11776185
0.186622 -0.096915 0.841000 9142157
0.186622 -0.092110 0.841000 8944776
0.186622 -0.087304 0.841000 11312563
0.178411 -0.078869 0.804000 12493771
0.178411 -0.074274 0.804000 12627912
0.178855 -0.069853 0.806000 12496074
0.179299 -0.065410 0.808000 12891076
0.180187 -0.061093 0.812000 12695248
0.180852 -0.056662 0.815000 12363455
0.181740 -0.052260 0.819000 12296369
0.182184 -0.047696 0.821000 12559026
0.183515 -0.043319 0.827000 12692911
0.183515 -0.038593 0.827000 13217202
0.184403 -0.034031 0.831000 13545652
0.184403 -0.029283 0.831000 13676469
0.187510 -0.020119 0.845000 13224177
0.188224 -0.101721 0.841000 13348281
0.187776 -0.096685 0.839000 9208741
0.187329 -0.091671 0.837000 8876429
0.187776 -0.087096 0.839000 12045269
0.180390 -0.079065 0.806000 12562129
0.180390 -0.074459 0.806000 12956627
0.180390 -0.069853 0.806000 12629203
0.181286 -0.065571 0.810000 13416900
0.182181 -0.061244 0.814000 12889277
0.183300 -0.056940 0.819000 12361909
0.184643 -0.052643 0.825000 12362414
0.183748 -0.047696 0.821000 13084337
0.185090 -0.043319 0.827000 13544625
0.185090 -0.038593 0.827000 13938610
0.185986 -0.034031 0.831000 13676466
0.190686 -0.020286 0.852000 13693428
0.189826 -0.101721 0.841000 13415866
0.188923 -0.096454 0.837000 10064828
0.188471 -0.091452 0.835000 8675731
