# .PCD v.7 - Point Cloud Data file format
VERSION .7
FIELDS x y z rgb
SIZE 4 4 4 4
TYPE F F F I
COUNT 1 1 1 1
WIDTH 1335
HEIGHT 1
POINTS 1335
DATA ascii
0.195963 -0.001831 0.641000 9736647
0.197491 0.001846 0.646000 9078716
0.199020 0.005580 0.651000 8618675
0.200549 0.009371 0.656000 8289704
0.200854 0.013140 0.657000 8025505
0.202689 0.017049 0.663000 7893651
0.203300 0.020900 0.665000 6973831
0.177009 0.021506 0.579000 11246467
0.177314 0.024857 0.580000 11050188
0.177620 0.028220 0.581000 10916019
0.178231 0.031649 0.583000 10983350
0.178843 0.035100 0.585000 11115452
0.179760 0.038640 0.588000 11247036
0.180371 0.042143 0.590000 11378113
0.181289 0.045746 0.593000 11509445
0.182206 0.049383 0.596000 11641288
0.183429 0.053143 0.600000 11772873
0.184346 0.056854 0.603000 11904460
0.184957 0.060500 0.605000 12035792
0.187097 0.064697 0.612000 12036817
0.187403 0.068306 0.613000 12168147
0.188320 0.072160 0.616000 12233941
0.189237 0.076049 0.619000 12365019
0.191071 0.080357 0.625000 12431578
0.190724 -0.023029 0.620000 13091826
0.191339 -0.019549 0.622000 12564721
0.191954 -0.016046 0.624000 12302059
0.192877 -0.012540 0.627000 12039654
0.194415 -0.009029 0.632000 11183582
0.195338 -0.005443 0.635000 10328274
0.197184 -0.001831 0.641000 9605062
0.198722 0.001846 0.646000 9078202
0.200568 0.005589 0.652000 8618417
0.201798 0.009371 0.656000 8224168
0.202413 0.013160 0.658000 7959967
0.203951 0.017049 0.663000 7893138
0.204567 0.020900 0.665000 7564168
0.178111 0.021506 0.579000 9730426
0.178111 0.024814 0.579000 11579089
0.178419 0.028171 0.580000 11047346
0.179342 0.031649 0.583000 11114936
0.179957 0.035100 0.585000 11246781
0.180880 0.038640 0.588000 11312832
0.181188 0.042071 0.589000 11443908
0.181803 0.045591 0.591000 11641030
0.182726 0.049217 0.594000 11707593
0.184571 0.053143 0.600000 11838667
0.185802 0.056949 0.604000 11969998
0.186110 0.060500 0.605000 12101841
0.187955 0.064591 0.611000 12102866
0.188570 0.068306 0.613000 12168661
0.189186 0.072043 0.615000 12299736
0.190416 0.076049 0.619000 12431069
0.191954 0.080229 0.624000 12497373
0.192877 0.084197 0.627000 12498143
0.191905 -0.023029 0.620000 13090544
0.192833 -0.019580 0.623000 12564976
0.193452 -0.016071 0.625000 12367595
0.194381 -0.012560 0.628000 11973604
0.195929 -0.009043 0.633000 11117277
0.196857 -0.005451 0.636000 10262737
0.199333 -0.001840 0.644000 9605061
0.199952 0.001846 0.646000 9012664
0.201500 0.005580 0.651000 8618416
0.203048 0.009371 0.656000 8223912
0.204286 0.013200 0.660000 7959454
0.205833 0.017100 0.665000 7827601
0.205833 0.020900 0.665000 7696009
0.179214 0.021506 0.579000 9007729
0.178905 0.024771 0.578000 12763094
0.179214 0.028123 0.579000 11048113
0.180143 0.031594 0.582000 11180987
0.180762 0.035040 0.584000 11312573
0.181690 0.038574 0.587000 11443908
0.182310 0.042071 0.589000 11509958
0.182929 0.045591 0.591000 11707079
0.183857 0.049217 0.594000 11773386
0.185095 0.052966 0.598000 11904461
0.186643 0.056854 0.603000 11970255
0.187262 0.060500 0.605000 12233427
0.188500 0.064380 0.609000 12168658
0.189429 0.068194 0.612000 12299992
0.190357 0.072043 0.615000 12365786
0.191286 0.075926 0.618000 12497120
0.192833 0.080100 0.623000 12563168
0.194071 0.084197 0.627000 12629473
0.193709 -0.026657 0.622000 13555442
0.193709 -0.023103 0.622000 13025776
0.194020 -0.019580 0.623000 12564976
0.194643 -0.016071 0.625000 12367594
0.195577 -0.012560 0.628000 11907557
0.197134 -0.009043 0.633000 10986715
0.198691 -0.005469 0.638000 10196944
0.200560 -0.001840 0.644000 9539010
0.201494 0.001849 0.647000 8946871
0.202740 0.005580 0.651000 8617902
0.204297 0.009371 0.656000 8223654
0.205543 0.013200 0.660000 7959707
0.207100 0.017100 0.665000 7827599
0.207411 0.020931 0.666000 7761544
0.207411 0.024737 0.666000 8349052
0.179694 0.024729 0.577000 13874366
0.180006 0.028074 0.578000 11114171
0.180940 0.031540 0.581000 11247038
0.181874 0.035040 0.584000 11378368
0.182497 0.038509 0.586000 11509701
0.183431 0.042071 0.589000 11575752
0.184054 0.045591 0.591000 11707593
0.184677 0.049134 0.593000 11904459
0.186234 0.052966 0.598000 11970511
0.187791 0.056854 0.603000 12036304
0.188414 0.060500 0.605000 12299475
0.189660 0.064380 0.609000 12234197
0.190283 0.068083 0.611000 12365786
0.191217 0.071926 0.614000 12432093
0.192463 0.075926 0.618000 12497888
0.194020 0.080100 0.623000 12628962
0.195266 0.084197 0.627000 12695010
0.194893 -0.026657 0.622000 13619194
0.194893 -0.023103 0.622000 13025265
0.195520 -0.019611 0.624000 12499439
0.196147 -0.016097 0.626000 12302058
0.196773 -0.012560 0.628000 11842277
0.198340 -0.009043 0.633000 10986458
0.200220 -0.005477 0.639000 10131406
0.201787 -0.001840 0.644000 9472703
0.202727 0.001849 0.647000 8946869
0.204293 0.005589 0.652000 8552108
0.205547 0.009371 0.656000 8223652
0.206800 0.013200 0.660000 8025241
0.208367 0.017100 0.665000 7762060
0.208680 0.020931 0.666000 7696008
0.208993 0.024774 0.667000 7693702
0.180793 0.024729 0.577000 13022886
0.180793 0.028026 0.577000 11575748
0.181733 0.031486 0.580000 11378625
0.182360 0.034920 0.582000 11444163
0.183300 0.038443 0.585000 11641287
0.184553 0.042071 0.589000 11641546
0.184867 0.045514 0.590000 11773386
0.185807 0.049134 0.593000 11904971
0.187060 0.052877 0.597000 12036305
0.188000 0.056571 0.600000 12102353
0.189253 0.060400 0.604000 12365780
0.190507 0.064274 0.608000 12299991
0.190820 0.067860 0.609000 12431324
0.192387 0.071926 0.614000 12497888
0.193640 0.075926 0.618000 12563937
0.195207 0.080100 0.623000 12629475
0.196460 0.084197 0.627000 12760804
0.196078 -0.026657 0.622000 13755899
0.196078 -0.023103 0.622000 12959982
0.196709 -0.019611 0.624000 12499181
0.197339 -0.016097 0.626000 12236266
0.198285 -0.012580 0.629000 11776740
0.199861 -0.009057 0.634000 10920409
0.201437 -0.005477 0.639000 10065613
0.203013 -0.001840 0.644000 9341886
0.203959 0.001849 0.647000 8946868
0.205535 0.005589 0.652000 8421290
0.207111 0.009386 0.657000 8223394
0.208057 0.013200 0.660000 8025238
0.209633 0.017100 0.665000 7761804
0.209949 0.020931 0.666000 7630726
0.211210 0.024886 0.670000 7040644
0.181577 0.024686 0.576000 12162460
0.181577 0.027977 0.576000 12101345
0.182523 0.031431 0.579000 11444162
0.183153 0.034860 0.581000 11509957
0.184099 0.038377 0.584000 11707080
0.185360 0.042000 0.588000 11772876
0.185990 0.045514 0.590000 11839180
0.186621 0.049051 0.592000 11971020
0.188197 0.052877 0.597000 12036562
0.189143 0.056571 0.600000 12233684
0.190404 0.060400 0.604000 12365782
0.191350 0.064169 0.607000 12366041
0.191980 0.067860 0.609000 12497118
0.193556 0.071926 0.614000 12563681
0.194502 0.075803 0.617000 12629730
0.196393 0.080100 0.623000 12695269
0.197654 0.084197 0.627000 12761315
0.197263 -0.026657 0.622000 13883900
0.197263 -0.023103 0.622000 12893932
0.197897 -0.019611 0.624000 12433643
0.198849 -0.016123 0.627000 12236266
0.199483 -0.012580 0.629000 11776738
0.201386 -0.009071 0.635000 10853592
0.202654 -0.005477 0.639000 10065611
0.204240 -0.001840 0.644000 9342142
0.205191 0.001849 0.647000 8815794
0.207094 0.005597 0.653000 8421289
0.208363 0.009386 0.657000 8092319
0.209314 0.013200 0.660000 7959700
0.210900 0.017100 0.665000 7761803
0.211217 0.020931 0.666000 7696004
0.212486 0.024886 0.670000 7433345
0.182674 0.024686 0.576000 9794451
0.182674 0.027977 0.576000 12368126
0.182991 0.031323 0.577000 11509699
0.184260 0.034860 0.581000 11575750
0.185211 0.038377 0.584000 11772872
0.186480 0.042000 0.588000 11773133
0.186797 0.045437 0.589000 11904974
0.187749 0.049051 0.592000 12036556
0.189017 0.052789 0.596000 12102355
0.189969 0.056477 0.599000 12233942
0.191237 0.060300 0.603000 12431575
0.192506 0.064169 0.607000 12431835
0.193140 0.067860 0.609000 12562657
0.194409 0.071809 0.613000 12563938
0.195677 0.075803 0.617000 12695524
0.197580 0.080100 0.623000 12760806
0.198849 0.084197 0.627000 12827363
0.198767 -0.026700 0.623000 13955580
0.198448 -0.023103 0.622000 12763116
0.199405 -0.019643 0.625000 12433387
0.200043 -0.016123 0.627000 12170729
0.201319 -0.012620 0.631000 11711457
0.202595 -0.009071 0.635000 10789334
0.204190 -0.005486 0.640000 10065353
0.205786 -0.001843 0.645000 9276348
0.206424 0.001849 0.647000 8750001
0.208338 0.005597 0.653000 8355496
0.209614 0.009386 0.657000 8026527
0.210571 0.013200 0.660000 7893907
0.212167 0.017100 0.665000 7761546
0.212486 0.020931 0.666000 7761541
0.213762 0.024886 0.670000 7892355
0.183771 0.024686 0.576000 7434627
0.183133 0.027880 0.574000 12639990
0.184090 0.031323 0.577000 11574727
0.184729 0.034740 0.579000 11641544
0.186005 0.038311 0.583000 11773130
0.187281 0.041929 0.587000 11838926
0.187919 0.045437 0.589000 11905231
0.188876 0.049051 0.592000 12036816
0.190152 0.052789 0.596000 12168404
0.191110 0.056477 0.599000 12234199
0.192386 0.060300 0.603000 12431834
0.193343 0.064063 0.606000 12497887
0.194300 0.067860 0.609000 12563682
0.195576 0.071809 0.613000 12629987
0.196852 0.075803 0.617000 12761061
0.198448 0.079971 0.622000 12826599
0.200043 0.084197 0.627000 12827109
0.199953 -0.026700 0.623000 13883899
0.199953 -0.023140 0.623000 12827884
0.200595 -0.019643 0.625000 12367595
0.201558 -0.016149 0.628000 12170473
0.202842 -0.012640 0.632000 11645151
0.203805 -0.009071 0.635000 10723285
0.205410 -0.005486 0.640000 9999559
0.207014 -0.001843 0.645000 9276091
0.207656 0.001849 0.647000 8750000
0.209261 0.005589 0.652000 8355240
0.210545 0.009371 0.656000 8026270
0.211187 0.013160 0.658000 7893650
0.212791 0.017049 0.663000 7761545
0.213754 0.020931 0.666000 7826822
0.214717 0.024849 0.669000 7827076
0.215038 0.028714 0.670000 7362420
0.184227 0.027880 0.574000 12830958
0.185190 0.031323 0.577000 11574731
0.185831 0.034740 0.579000 11707338
0.186794 0.038246 0.582000 11773388
0.188078 0.041857 0.586000 11904719
0.189041 0.045437 0.589000 12036561
0.190004 0.049051 0.592000 12102867
0.191288 0.052789 0.596000 12168661
0.191930 0.056383 0.598000 12300248
0.192892 0.060100 0.601000 12497629
0.194497 0.064063 0.606000 12563682
0.195139 0.067749 0.608000 12629986
0.196744 0.071809 0.613000 12695523
0.198028 0.075803 0.617000 12826599
0.199632 0.079971 0.622000 12826856
0.201237 0.084197 0.627000 12827366
0.201140 -0.026700 0.623000 13885181
0.201140 -0.023140 0.623000 12828397
0.201786 -0.019643 0.625000 12367595
0.202754 -0.016149 0.628000 12104679
0.204046 -0.012640 0.632000 11579104
0.205014 -0.009071 0.635000 10657748
0.206629 -0.005486 0.640000 9934023
0.207920 -0.001840 0.644000 9210555
0.208889 0.001849 0.647000 8684208
0.210826 0.005597 0.653000 8289445
0.211794 0.009371 0.656000 8026013
0.212440 0.013160 0.658000 7893648
0.213409 0.016997 0.661000 7761289
0.214700 0.020900 0.665000 7892357
0.215991 0.024849 0.669000 7762053
0.216314 0.028714 0.670000 7299959
0.185320 0.027880 0.574000 13030347
0.185966 0.031269 0.576000 11510483
0.186611 0.034680 0.578000 11838923
0.187580 0.038180 0.581000 11773645
0.188549 0.041714 0.584000 11970513
0.190163 0.045437 0.589000 12102354
0.190809 0.048969 0.591000 12168660
0.191777 0.052611 0.594000 12169175
0.193069 0.056383 0.598000 12366299
0.194360 0.060200 0.602000 12498143
0.195329 0.063957 0.605000 12629221
0.196297 0.067749 0.608000 12695523
0.197911 0.071809 0.613000 12761059
0.199203 0.075803 0.617000 12827110
0.199849 0.079586 0.619000 12892647
0.202431 0.084197 0.627000 12827110
0.202327 -0.023140 0.623000 12762862
0.202976 -0.019643 0.625000 12301802
0.203950 -0.016149 0.628000 12038886
0.204925 -0.012620 0.631000 11513568
0.206224 -0.009071 0.635000 10656724
0.207848 -0.005486 0.640000 9868486
0.209147 -0.001840 0.644000 9145019
0.210121 0.001849 0.647000 8683951
0.212070 0.005597 0.653000 8289443
0.213044 0.009371 0.656000 8026011
0.213693 0.013160 0.658000 7893902
0.214668 0.016997 0.661000 7696008
0.215317 0.020837 0.663000 7826564
0.217590 0.024886 0.670000 7696517
0.217266 0.028671 0.669000 7497595
0.186413 0.027880 0.574000 12169127
0.187063 0.031269 0.576000 11641308
0.187388 0.034620 0.577000 11839179
0.188687 0.038180 0.581000 11904718
0.189986 0.041786 0.585000 11971282
0.190960 0.045360 0.588000 12168148
0.191934 0.048969 0.591000 12168917
0.192909 0.052611 0.594000 12300761
0.194208 0.056383 0.598000 12432094
0.195182 0.060100 0.601000 12563937
0.196481 0.063957 0.605000 12695271
0.197455 0.067749 0.608000 12761316
0.199079 0.071809 0.613000 12761315
0.200378 0.075803 0.617000 12827110
0.201028 0.079586 0.619000 12826853
0.203626 0.084197 0.627000 12695782
0.203513 -0.023140 0.623000 12631789
0.204167 -0.019643 0.625000 12301545
0.205147 -0.016149 0.628000 11973349
0.206453 -0.012640 0.632000 11448541
0.207433 -0.009071 0.635000 10591699
0.209067 -0.005486 0.640000 9802437
0.210373 -0.001840 0.644000 9078970
0.211027 0.001846 0.646000 8683694
0.212987 0.005589 0.652000 8223906
0.213967 0.009357 0.655000 8025754
0.214620 0.013140 0.657000 7827853
0.215927 0.016997 0.661000 7630215
0.216580 0.020837 0.663000 7695747
0.218540 0.024849 0.669000 7696517
0.218540 0.028671 0.669000 7629440
0.187507 0.027880 0.574000 11380619
0.188160 0.031269 0.576000 11775456
0.188160 0.034560 0.576000 11904973
0.189467 0.038114 0.580000 11971024
0.190773 0.041714 0.584000 12037076
0.191753 0.045283 0.587000 12233942
0.192733 0.048886 0.590000 12234967
0.194040 0.052611 0.594000 12366555
0.195020 0.056289 0.597000 12497887
0.196327 0.060100 0.601000 12564194
0.197633 0.063957 0.605000 12695782
0.198613 0.067749 0.608000 12827109
0.200247 0.071809 0.613000 12827105
0.201227 0.075680 0.616000 12826855
0.202207 0.079586 0.619000 12827108
0.204820 0.084197 0.627000 12564453
0.205029 -0.023177 0.624000 12631277
0.205686 -0.019674 0.626000 12236264
0.206671 -0.016174 0.629000 11973348
0.207657 -0.012640 0.632000 11447770
0.208643 -0.009071 0.635000 10590674
0.209957 -0.005477 0.639000 9736644
0.211600 -0.001840 0.644000 9078712
0.212257 0.001846 0.646000 8618157
0.214229 0.005589 0.652000 8289441
0.215214 0.009357 0.655000 8025753
0.215871 0.013140 0.657000 7892876
0.217186 0.016997 0.661000 7696005
0.217514 0.020806 0.662000 7761026
0.218829 0.024737 0.666000 7762052
0.219157 0.028586 0.667000 7761541
0.188600 0.027880 0.574000 10652015
0.188929 0.031214 0.575000 12169188
0.189257 0.034560 0.576000 11905230
0.190571 0.038114 0.580000 12037073
0.191886 0.041714 0.584000 12102870
0.192543 0.045206 0.586000 12299481
0.193529 0.048803 0.589000 12300504
0.194843 0.052523 0.593000 12432349
0.196157 0.056289 0.597000 12563424
0.197143 0.060000 0.600000 12695524
0.199114 0.064063 0.606000 12761572
0.200100 0.067860 0.609000 12827366
0.201086 0.071691 0.612000 12827103
0.202400 0.075680 0.616000 12892391
0.204371 0.079971 0.622000 12826851
0.206014 0.084197 0.627000 12695523
0.206217 -0.023177 0.624000 12565230
0.206878 -0.019674 0.626000 12236264
0.207539 -0.016149 0.628000 11907810
0.208861 -0.012640 0.632000 11447260
0.209852 -0.009071 0.635000 10525391
0.210844 -0.005469 0.638000 9736131
0.212166 -0.001834 0.642000 9078454
0.213488 0.001846 0.646000 8617901
0.215140 0.005580 0.651000 8289184
0.215801 0.009329 0.653000 8090775
0.216792 0.013120 0.656000 7893130
0.218114 0.016971 0.660000 7826821
0.218775 0.020806 0.662000 7761283
0.220097 0.024737 0.666000 7827332
0.220428 0.028586 0.667000 7892869
0.220428 0.032397 0.667000 9922931
0.189363 0.031106 0.573000 12564957
0.190024 0.034500 0.575000 11971024
0.191346 0.038049 0.579000 12037331
0.192337 0.041571 0.582000 12168663
0.192998 0.045051 0.584000 12299994
0.194320 0.048720 0.588000 12366300
0.195311 0.052346 0.591000 12498143
0.197294 0.056289 0.597000 12694753
0.198286 0.060000 0.600000 12761061
0.200269 0.064063 0.606000 12892390
0.200930 0.067749 0.608000 12827111
0.201921 0.071574 0.611000 12892391
0.203904 0.075803 0.617000 12957671
0.205556 0.079971 0.622000 12826592
0.207209 0.084197 0.627000 12760803
0.207738 -0.023214 0.625000 12564975
0.208070 -0.019674 0.626000 12170471
0.208735 -0.016149 0.628000 11907041
0.210065 -0.012640 0.632000 11381726
0.211062 -0.009071 0.635000 10524875
0.212059 -0.005469 0.638000 9736129
0.213056 -0.001831 0.641000 9078197
0.214718 0.001846 0.646000 8617900
0.216048 0.005571 0.650000 8288670
0.217045 0.009329 0.653000 8025493
0.218042 0.013120 0.656000 7762312
0.219371 0.016971 0.660000 7826821
0.219704 0.020774 0.661000 7695492
0.221033 0.024700 0.665000 7761795
0.221698 0.028586 0.667000 7892613
0.221698 0.032397 0.667000 9662839
0.190122 0.031051 0.572000 13090263
0.190787 0.034440 0.574000 11971282
0.192116 0.037983 0.578000 12168405
0.193446 0.041571 0.582000 12234456
0.194110 0.045051 0.584000 12365787
0.194775 0.048554 0.586000 12432095
0.196437 0.052346 0.591000 12629218
0.198099 0.056194 0.596000 12760546
0.199096 0.059900 0.599000 12761318
0.200758 0.063851 0.604000 12827111
0.201755 0.067637 0.607000 12826601
0.203085 0.071574 0.611000 12892398
0.204747 0.075680 0.616000 12892136
0.206741 0.079971 0.622000 12760797
0.208403 0.084197 0.627000 12760546
0.208260 -0.023140 0.623000 12499182
0.208929 -0.019643 0.625000 12169959
0.209597 -0.016123 0.627000 11841504
0.210266 -0.012580 0.629000 11316698
0.211937 -0.009057 0.634000 10459850
0.212606 -0.005451 0.636000 9735360
0.213609 -0.001826 0.639000 9078196
0.215949 0.001846 0.646000 8617385
0.217286 0.005571 0.650000 8223133
0.217954 0.009314 0.652000 8025492
0.218957 0.013100 0.655000 7631240
0.219960 0.016920 0.658000 7826822
0.220963 0.020774 0.661000 7564676
0.221631 0.024626 0.663000 7696259
0.222634 0.028543 0.666000 7827332
0.222300 0.032300 0.665000 9396087
0.191211 0.031051 0.572000 13550541
0.191880 0.034440 0.574000 11971026
0.193217 0.037983 0.578000 12234198
0.194220 0.041500 0.581000 12300250
0.195223 0.045051 0.584000 12366045
0.196226 0.048637 0.587000 12563681
0.197563 0.052346 0.591000 12695011
0.199234 0.056194 0.596000 12826340
0.200237 0.059900 0.599000 12761318
0.201909 0.063851 0.604000 12826855
0.202911 0.067637 0.607000 12826600
0.204249 0.071574 0.611000 12892139
0.206254 0.075803 0.617000 12826342
0.208260 0.080100 0.623000 12760544
0.209597 0.084197 0.627000 12695009
0.209447 -0.023140 0.623000 12499182
0.210119 -0.019643 0.625000 12104678
0.210791 -0.016123 0.627000 11775967
0.211464 -0.012580 0.629000 11249877
0.213145 -0.009057 0.634000 10459337
0.213481 -0.005443 0.635000 9670078
0.214826 -0.001826 0.639000 9012659
0.216843 0.001843 0.645000 8617382
0.217179 0.005537 0.646000 8223388
0.218860 0.009300 0.651000 8025234
0.219532 0.013060 0.653000 7696777
0.220877 0.016894 0.657000 7761287
0.221213 0.020680 0.658000 7630212
0.222222 0.024551 0.661000 7696002
0.223567 0.028500 0.665000 7827843
0.223567 0.032300 0.665000 8676982
0.192301 0.031051 0.572000 13881283
0.192637 0.034380 0.573000 12102353
0.194318 0.037983 0.578000 12299992
0.194990 0.041429 0.580000 12300508
0.195999 0.044974 0.583000 12497375
0.197008 0.048554 0.586000 12563939
0.198689 0.052346 0.591000 12695269
0.200370 0.056194 0.596000 12761062
0.201378 0.059900 0.599000 12826855
0.203059 0.063851 0.604000 12892647
0.204068 0.067637 0.607000 12892391
0.205412 0.071574 0.611000 12826600
0.207766 0.075926 0.618000 12826085
0.209783 0.080229 0.624000 12760546
0.211128 0.084331 0.628000 12826080
0.210633 -0.023140 0.623000 12500462
0.211310 -0.019643 0.625000 12104677
0.211648 -0.016097 0.626000 11710173
0.212662 -0.012580 0.629000 11183829
0.214352 -0.009057 0.634000 10459848
0.214690 -0.005443 0.635000 9670333
0.216043 -0.001826 0.639000 8947121
0.217733 0.001840 0.644000 8551845
0.218410 0.005537 0.646000 8223130
0.219086 0.009257 0.648000 8090259
0.220438 0.013040 0.652000 7762057
0.221790 0.016869 0.656000 7761542
0.222467 0.020680 0.658000 7629956
0.223481 0.024551 0.661000 7761540
0.224833 0.028500 0.665000 7827332
0.224833 0.032300 0.665000 8020857
0.193390 0.031051 0.572000 14140100
0.193729 0.034380 0.573000 12233684
0.195419 0.037983 0.578000 12300507
0.196095 0.041429 0.580000 12366302
0.197110 0.044974 0.583000 12563425
0.198124 0.048554 0.586000 12629988
0.199814 0.052346 0.591000 12629990
0.201167 0.056100 0.595000 12761319
0.202519 0.059900 0.599000 12827111
0.204210 0.063851 0.604000 12892906
0.205562 0.067749 0.608000 12957926
0.206576 0.071574 0.611000 12826599
0.208943 0.075926 0.618000 12826340
0.210971 0.080229 0.624000 12760546
0.212324 0.084331 0.628000 12891614
0.211820 -0.023140 0.623000 12499693
0.212500 -0.019643 0.625000 12039139
0.212840 -0.016097 0.626000 11644636
0.213520 -0.012560 0.628000 11183573
0.215560 -0.009057 0.634000 10459591
0.215900 -0.005443 0.635000 9604540
0.216240 -0.001817 0.636000 8947376
0.218280 0.001834 0.642000 8551844
0.219300 0.005529 0.645000 8223129
0.220320 0.009257 0.648000 8090259
0.221000 0.013000 0.650000 7827592
0.222700 0.016843 0.655000 7761541
0.223380 0.020649 0.657000 7629957
0.224400 0.024514 0.660000 7761541
0.225420 0.028414 0.663000 7827333
0.225420 0.032203 0.663000 7758459
0.225420 0.035991 0.663000 13814469
0.194820 0.034380 0.573000 12365526
0.196520 0.037983 0.578000 12431837
0.197200 0.041429 0.580000 12432351
0.197880 0.044897 0.582000 12563682
0.199240 0.048554 0.586000 12629989
0.200940 0.052346 0.591000 12695783
0.201620 0.055911 0.593000 12761575
0.203660 0.059900 0.599000 12826856
0.205360 0.063851 0.604000 12892653
0.206720 0.067749 0.608000 12892132
0.208420 0.071809 0.613000 12892134
0.210120 0.075926 0.618000 12826339
0.211820 0.080100 0.623000 12760545
0.213520 0.084331 0.628000 12760541
0.212665 -0.023103 0.622000 12500716
0.213690 -0.019643 0.625000 11973603
0.214032 -0.016097 0.626000 11512796
0.214716 -0.012560 0.628000 11118803
0.216426 -0.009043 0.633000 10394055
0.216768 -0.005434 0.634000 9604539
0.217451 -0.001817 0.636000 8881582
0.219503 0.001834 0.642000 8551586
0.220529 0.005529 0.645000 8157336
0.221212 0.009243 0.647000 8090001
0.222238 0.013000 0.650000 7893127
0.223264 0.016791 0.653000 7761541
0.224290 0.020617 0.656000 7564677
0.225657 0.024514 0.660000 7761541
0.226341 0.028371 0.662000 7761540
0.226683 0.032203 0.663000 7498625
0.226683 0.035991 0.663000 13415607
0.195570 0.034320 0.572000 12496092
0.196937 0.037851 0.576000 12497631
0.197963 0.041357 0.579000 12563680
0.199330 0.044974 0.583000 12564194
0.200698 0.048637 0.587000 12695527
0.202066 0.052346 0.591000 12695783
0.203433 0.056100 0.595000 12761574
0.204801 0.059900 0.599000 12826854
0.206169 0.063746 0.603000 12892137
0.207878 0.067749 0.608000 12826596
0.209588 0.071809 0.613000 12891877
0.210955 0.075803 0.617000 12760802
0.213007 0.080100 0.623000 12760289
0.214716 0.084331 0.628000 12629467
0.213850 -0.023103 0.622000 12565483
0.214537 -0.019611 0.624000 11907555
0.215225 -0.016097 0.626000 11512540
0.215569 -0.012540 0.627000 11052496
0.217288 -0.009029 0.632000 10327751
0.217975 -0.005434 0.634000 9604793
0.218663 -0.001817 0.636000 8881068
0.220382 0.001831 0.641000 8486048
0.221413 0.005520 0.644000 8157079
0.222101 0.009229 0.646000 8024719
0.222789 0.012960 0.648000 7893127
0.223820 0.016740 0.651000 7696005
0.225539 0.020617 0.656000 7630470
0.225883 0.024403 0.657000 7826564
0.227258 0.028329 0.661000 7761283
0.227602 0.032154 0.662000 7431815
0.227946 0.035991 0.663000 13285032
0.196659 0.034320 0.572000 12629217
0.197690 0.037786 0.575000 12563425
0.198722 0.041286 0.578000 12629473
0.200097 0.044897 0.582000 12695267
0.201816 0.048637 0.587000 12761065
0.202848 0.052257 0.590000 12761319
0.204567 0.056100 0.595000 12761572
0.205942 0.059900 0.599000 12761316
0.207661 0.063851 0.604000 12892133
0.209036 0.067749 0.608000 12826852
0.211099 0.071926 0.614000 12826339
0.212474 0.075926 0.618000 12695266
0.214193 0.080100 0.623000 12694497
0.215912 0.084331 0.628000 12564186
0.215034 -0.023103 0.622000 12631531
0.215726 -0.019611 0.624000 11906786
0.216071 -0.016071 0.625000 11446747
0.216763 -0.012540 0.627000 10986448
0.218491 -0.009029 0.632000 10262213
0.219183 -0.005434 0.634000 9604792
0.219529 -0.001814 0.635000 8815276
0.221257 0.001829 0.640000 8485792
0.221949 0.005503 0.642000 8156822
0.222986 0.009214 0.645000 8024719
0.223677 0.012940 0.647000 7827335
0.225060 0.016740 0.651000 7696006
0.226443 0.020586 0.655000 7695748
0.226789 0.024366 0.656000 7891842
0.227480 0.028200 0.658000 7761026
0.228517 0.032106 0.661000 7433093
0.228517 0.035883 0.661000 13083562
0.197749 0.034320 0.572000 12760803
0.198786 0.037786 0.575000 12629218
0.199823 0.041286 0.578000 12695267
0.201551 0.044974 0.583000 12761059
0.202934 0.048637 0.587000 12826600
0.204317 0.052346 0.591000 12826856
0.205700 0.056100 0.595000 12826852
0.207083 0.059900 0.599000 12630244
0.209503 0.064063 0.606000 12957667
0.210194 0.067749 0.608000 12760803
0.211923 0.071809 0.613000 12760803
0.213306 0.075803 0.617000 12629473
0.215380 0.080100 0.623000 12693726
0.216219 -0.023103 0.622000 12564972
0.216914 -0.019611 0.624000 11907041
0.217262 -0.016071 0.625000 11446490
0.217610 -0.012520 0.626000 10920656
0.219348 -0.009014 0.631000 10261444
0.220043 -0.005426 0.633000 9538742
0.220738 -0.001814 0.635000 8880556
0.222476 0.001829 0.640000 8420255
0.222824 0.005494 0.641000 8156822
0.223867 0.009200 0.644000 7958926
0.224562 0.012920 0.646000 7827079
0.225952 0.016714 0.650000 7761286
0.226995 0.020523 0.653000 7695491
0.227690 0.024329 0.655000 7760768
0.228386 0.028157 0.657000 7695488
0.229776 0.032106 0.661000 7366786
0.229776 0.035883 0.661000 12164524
0.198838 0.034320 0.572000 12959205
0.199881 0.037786 0.575000 12694756
0.201271 0.041357 0.579000 12760804
0.202662 0.044974 0.583000 12826596
0.204052 0.048637 0.587000 12892134
0.205443 0.052346 0.591000 12892905
0.206833 0.056100 0.595000 12826852
0.208224 0.059900 0.599000 12695781
0.210657 0.064063 0.606000 12891873
0.212395 0.068083 0.611000 12695266
0.213438 0.071926 0.614000 12760547
0.214481 0.075803 0.617000 12629216
0.217404 -0.023103 0.622000 12500712
0.218103 -0.019611 0.624000 11906528
0.218452 -0.016071 0.625000 11380697
0.218802 -0.012520 0.626000 10855119
0.219850 -0.008986 0.629000 10196674
0.221249 -0.005426 0.633000 9537974
0.221598 -0.001811 0.634000 8946091
0.223346 0.001826 0.639000 8419487
0.223695 0.005486 0.640000 8157078
0.225093 0.009200 0.644000 7958669
0.225792 0.012920 0.646000 7761798
0.226491 0.016663 0.648000 7761285
0.227890 0.020491 0.652000 7695746
0.228938 0.024329 0.655000 7695233
0.229288 0.028114 0.656000 7629441
0.230686 0.032057 0.660000 7368062
0.230686 0.035829 0.660000 11244455
0.199928 0.034320 0.572000 13221863
0.200976 0.037786 0.575000 12760549
0.202025 0.041286 0.578000 12826341
0.203423 0.044897 0.582000 12826597
0.205170 0.048637 0.587000 12957926
0.206569 0.052346 0.591000 12958183
0.207617 0.056006 0.594000 12892644
0.209015 0.059800 0.598000 12761316
0.212161 0.064169 0.607000 12826080
0.214258 0.068306 0.613000 12629729
0.214957 0.072043 0.615000 12694496
0.215307 0.075680 0.616000 12628955
0.217886 -0.023029 0.620000 12762084
0.219291 -0.019611 0.624000 11906783
0.219643 -0.016071 0.625000 11315160
0.219994 -0.012520 0.626000 10789070
0.221049 -0.008986 0.629000 10196417
0.222103 -0.005417 0.632000 9472949
0.222454 -0.001809 0.633000 8880554
0.224563 0.001826 0.639000 8419998
0.224914 0.005486 0.640000 8157078
0.225617 0.009171 0.642000 7958924
0.226671 0.012900 0.645000 7761798
0.227726 0.016663 0.648000 7695748
0.228780 0.020460 0.651000 7695746
0.229483 0.024254 0.653000 7629953
0.230186 0.028071 0.655000 7629442
0.231240 0.031960 0.658000 7366778
0.231240 0.035720 0.658000 10913442
0.201017 0.034320 0.572000 13288680
0.202071 0.037786 0.575000 12760807
0.203126 0.041286 0.578000 12761318
0.204883 0.044974 0.583000 12826598
0.206289 0.048637 0.587000 12892390
0.208046 0.052434 0.592000 12892645
0.209100 0.056100 0.595000 12761315
0.210506 0.059900 0.599000 12760803
0.213317 0.064169 0.607000 12760543
0.215426 0.068306 0.613000 12695008
0.215777 0.071926 0.614000 12694492
0.216480 0.075680 0.616000 12694487
0.219067 -0.023029 0.620000 13025765
0.220127 -0.019580 0.623000 11907548
0.220480 -0.016046 0.624000 11249111
0.221187 -0.012520 0.626000 10657229
0.221893 -0.008971 0.628000 10130881
0.222953 -0.005409 0.631000 9473459
0.223660 -0.001809 0.633000 8814761
0.224720 0.001817 0.636000 8419997
0.225780 0.005477 0.639000 8091285
0.226840 0.009171 0.642000 7958668
0.227900 0.012900 0.645000 7761798
0.228960 0.016663 0.648000 7630213
0.229667 0.020429 0.650000 7630210
0.230373 0.024217 0.652000 7630210
0.230727 0.027986 0.653000 7564164
0.232140 0.031911 0.657000 7367295
0.232140 0.035666 0.657000 10520480
0.202107 0.034320 0.572000 13419754
0.203167 0.037786 0.575000 12761319
0.204227 0.041286 0.578000 12761575
0.205993 0.044974 0.583000 12826854
0.207407 0.048637 0.587000 12892136
0.209173 0.052434 0.592000 12826853
0.210233 0.056100 0.595000 12630244
0.212000 0.060000 0.600000 12695010
0.214473 0.064169 0.607000 12760543
0.217300 0.068529 0.615000 12694495
0.216947 0.071926 0.614000 12693976
0.217653 0.075680 0.616000 12693204
0.220248 -0.023029 0.620000 13156839
0.221313 -0.019580 0.623000 11841240
0.221669 -0.016046 0.624000 11249110
0.222024 -0.012500 0.625000 10591692
0.222734 -0.008957 0.627000 10130626
0.223445 -0.005391 0.629000 9473201
0.224510 -0.001806 0.632000 8814504
0.225576 0.001814 0.635000 8485532
0.226642 0.005469 0.638000 8156564
0.227352 0.009143 0.640000 7893387
0.228063 0.012840 0.642000 7761798
0.229484 0.016611 0.646000 7630214
0.230905 0.020429 0.650000 7630211
0.231260 0.024180 0.651000 7564162
0.231615 0.027943 0.652000 7564422
0.232681 0.031814 0.655000 7301507
0.232681 0.035557 0.655000 10188190
0.203196 0.034320 0.572000 13486059
0.204262 0.037786 0.575000 12761576
0.205328 0.041286 0.578000 12761575
0.207104 0.044974 0.583000 12826855
0.208525 0.048637 0.587000 12826602
0.210301 0.052434 0.592000 12826854
0.211722 0.056194 0.596000 12695524
0.213143 0.060000 0.600000 12695009
0.215985 0.064274 0.608000 12694751
0.218827 0.068640 0.616000 12694238
0.218116 0.071926 0.614000 12628436
0.221429 -0.023029 0.620000 13222877
0.222143 -0.019549 0.622000 11776217
0.222500 -0.016020 0.623000 11183317
0.223214 -0.012500 0.625000 10525643
0.223929 -0.008957 0.627000 10130367
0.224643 -0.005391 0.629000 9472690
0.225357 -0.001803 0.631000 8814502
0.226429 0.001811 0.634000 8485275
0.227857 0.005469 0.638000 8156307
0.228571 0.009143 0.640000 7893386
0.228929 0.012820 0.641000 7761798
0.230000 0.016560 0.644000 7629958
0.231429 0.020366 0.648000 7629955
0.232143 0.024143 0.650000 7564166
0.232143 0.027857 0.650000 7564420
0.233929 0.031814 0.655000 7302530
0.233214 0.035449 0.653000 9796507
0.204286 0.034320 0.572000 13618671
0.205357 0.037786 0.575000 12761317
0.206429 0.041286 0.578000 12761322
0.208214 0.044974 0.583000 12761062
0.209643 0.048637 0.587000 12760806
0.211429 0.052434 0.592000 12761061
0.212857 0.056194 0.596000 12826339
0.215357 0.060300 0.603000 12695008
0.217143 0.064274 0.608000 12694238
0.220357 0.068751 0.617000 12628697
0.220357 0.072277 0.617000 12628175
0.222250 -0.022991 0.619000 13552083
0.223328 -0.019549 0.622000 11775450
0.223687 -0.016020 0.623000 11117780
0.224046 -0.012480 0.624000 10525386
0.224764 -0.008943 0.626000 10064829
0.225482 -0.005383 0.628000 9407154
0.225841 -0.001797 0.629000 8814756
0.227636 0.001811 0.634000 8419994
0.228354 0.005451 0.636000 8156305
0.229431 0.009129 0.639000 7893385
0.229790 0.012800 0.640000 7761798
0.230509 0.016509 0.642000 7564421
0.232663 0.020366 0.648000 7695490
0.233381 0.024143 0.650000 7433097
0.233381 0.027857 0.650000 7498626
0.234099 0.031669 0.652000 7235969
0.232663 0.035177 0.648000 9594777
0.205375 0.034320 0.572000 13617394
0.206452 0.037786 0.575000 12761571
0.207889 0.041357 0.579000 12826860
0.209325 0.044974 0.583000 12826341
0.210761 0.048637 0.587000 12760802
0.212556 0.052434 0.592000 12760804
0.213992 0.056194 0.596000 12760802
0.216506 0.060300 0.603000 12695007
0.217224 0.063957 0.605000 12628701
0.221532 0.068751 0.617000 12628949
0.223328 0.072863 0.622000 12626889
0.223328 0.076417 0.622000 12754862
0.223430 -0.022991 0.619000 13813200
0.223790 -0.019486 0.620000 11774942
0.224512 -0.015994 0.622000 11051986
0.224873 -0.012460 0.623000 10459079
0.225595 -0.008929 0.625000 9998779
0.226317 -0.005374 0.627000 9406640
0.227039 -0.001797 0.629000 8814500
0.228844 0.001811 0.634000 8354201
0.229205 0.005443 0.635000 8156305
0.230649 0.009129 0.639000 7958665
0.231010 0.012800 0.640000 7761798
0.231010 0.016457 0.640000 7564422
0.231370 0.020146 0.641000 7695494
0.233175 0.023994 0.646000 7367303
0.233536 0.027729 0.647000 7367553
0.233897 0.031474 0.648000 7236481
0.233175 0.035069 0.646000 9337496
0.206104 0.034260 0.571000 13683699
0.207548 0.037786 0.575000 12761316
0.208991 0.041357 0.579000 12892137
0.210435 0.044974 0.583000 12891877
0.211879 0.048637 0.587000 12761058
0.213684 0.052434 0.592000 12695266
0.215489 0.056289 0.597000 12760545
0.217654 0.060300 0.603000 12628958
0.218376 0.063957 0.605000 12562907
0.223069 0.068863 0.618000 12562381
0.224512 0.072863 0.622000 12625593
0.224512 0.076417 0.622000 12820655
0.224609 -0.022991 0.619000 14012364
0.224609 -0.019454 0.619000 11973090
0.225697 -0.015994 0.622000 11117520
0.226060 -0.012460 0.623000 10459332
0.226786 -0.008929 0.625000 9998522
0.227149 -0.005366 0.626000 9340846
0.227874 -0.001794 0.628000 8814499
0.229326 0.001806 0.632000 8354200
0.230051 0.005434 0.634000 8156049
0.230777 0.009086 0.636000 7893129
0.231866 0.012780 0.639000 7761798
0.232229 0.016457 0.640000 7564423
0.232591 0.020146 0.641000 7629705
0.234043 0.023957 0.645000 7433092
0.234043 0.027643 0.645000 7432832
0.234769 0.031426 0.647000 7235969
0.234406 0.035069 0.646000 9400472
0.207554 0.034320 0.572000 13683955
0.208643 0.037786 0.575000 12827109
0.210094 0.041357 0.579000 12826598
0.211546 0.044974 0.583000 12826340
0.213360 0.048720 0.588000 12760802
0.215174 0.052523 0.593000 12695265
0.216626 0.056289 0.597000 12694751
0.219166 0.060400 0.604000 12628444
0.219529 0.063957 0.605000 12497368
0.224971 0.069086 0.620000 12428740
0.225697 0.072863 0.622000 12492969
0.225423 -0.019423 0.618000 12170469
0.226152 -0.015943 0.620000 11117264
0.226882 -0.012440 0.622000 10460099
0.227976 -0.008929 0.625000 9998008
0.228341 -0.005366 0.626000 9340589
0.228706 -0.001791 0.627000 8748963
0.230165 0.001803 0.631000 8354200
0.230894 0.005426 0.633000 8090512
0.231624 0.009071 0.635000 7893128
0.232718 0.012760 0.638000 7761799
0.233083 0.016431 0.639000 7629959
0.233448 0.020114 0.640000 7564167
0.233812 0.023809 0.641000 7564161
0.234907 0.027600 0.644000 7498370
0.235271 0.031329 0.645000 7236482
0.235271 0.035014 0.645000 9469850
0.208644 0.034320 0.572000 13751025
0.209738 0.037786 0.575000 12892388
0.211197 0.041357 0.579000 12826341
0.212656 0.044974 0.583000 12760547
0.214480 0.048720 0.588000 12760545
0.216304 0.052523 0.593000 12629215
0.219587 0.056760 0.602000 12628444
0.219951 0.060300 0.603000 12563161
0.220681 0.063957 0.605000 12431823
0.226152 0.069086 0.620000 12296369
0.226882 0.072863 0.622000 12426921
0.226233 -0.019391 0.617000 12302823
0.226967 -0.015917 0.619000 11182800
0.228067 -0.012440 0.622000 10393793
0.228800 -0.008914 0.624000 9931959
0.229167 -0.005357 0.625000 9340843
0.229900 -0.001791 0.627000 8814499
0.230633 0.001797 0.629000 8354200
0.231367 0.005409 0.631000 8090768
0.232467 0.009057 0.634000 7893383
0.233200 0.012720 0.636000 7827337
0.233933 0.016406 0.638000 7630214
0.234300 0.020083 0.639000 7564421
0.234667 0.023771 0.640000 7498621
0.235400 0.027514 0.642000 7433093
0.236500 0.031329 0.645000 7104642
0.236500 0.035014 0.645000 9794972
0.209733 0.034320 0.572000 13683439
0.211200 0.037851 0.576000 12827362
0.212667 0.041429 0.580000 12826595
0.214133 0.045051 0.584000 12826338
0.215967 0.048803 0.589000 12760288
0.217433 0.052523 0.593000 12628958
0.222933 0.057326 0.608000 12628697
0.221467 0.060400 0.604000 12497878
0.221833 0.063957 0.605000 12297670
0.227333 0.069086 0.620000 12359326
0.227409 -0.019391 0.617000 12436458
0.227777 -0.015891 0.618000 11182546
0.228514 -0.012400 0.620000 10393023
0.229620 -0.008900 0.623000 9800628
0.229989 -0.005349 0.624000 9340585
0.230357 -0.001786 0.625000 8814241
0.231094 0.001791 0.627000 8419480
0.232569 0.005409 0.631000 8090768
0.233306 0.009043 0.633000 7893128
0.234043 0.012700 0.635000 7827337
0.234411 0.016354 0.636000 7695750
0.235149 0.020051 0.638000 7564165
0.235517 0.023734 0.639000 7432830
0.235886 0.027429 0.640000 7301760
0.237360 0.031280 0.644000 7039618
0.237729 0.035014 0.645000 10060957
0.210823 0.034320 0.572000 13682159
0.212297 0.037851 0.576000 12761314
0.214140 0.041500 0.581000 12826339
0.215246 0.045051 0.584000 12891617
0.217826 0.048969 0.591000 12825568
0.218563 0.052523 0.593000 12628698
0.224091 0.057326 0.608000 12628439
0.222617 0.060400 0.604000 12430279
0.228213 -0.019360 0.616000 12565740
0.228584 -0.015866 0.617000 11116757
0.229695 -0.012400 0.620000 10327229
0.230436 -0.008886 0.622000 9800626
0.230807 -0.005340 0.623000 9275046
0.231177 -0.001783 0.624000 8879776
0.231918 0.001789 0.626000 8485271
0.232289 0.005374 0.627000 8090768
0.233030 0.008986 0.629000 7893384
0.234882 0.012680 0.634000 7827081
0.235252 0.016329 0.635000 7629957
0.236364 0.020051 0.638000 7564164
0.236364 0.023697 0.638000 7432831
0.236734 0.027386 0.639000 7367036
0.238587 0.031280 0.644000 6973057
0.211912 0.031051 0.572000 10387358
0.211912 0.034320 0.572000 13550319
0.213394 0.037851 0.576000 12761058
0.215617 0.041571 0.582000 12760802
0.216358 0.045051 0.584000 12825824
0.218951 0.048969 0.591000 12760032
0.219692 0.052523 0.593000 12628694
0.225250 0.057326 0.608000 12496596
0.223768 0.060400 0.604000 12295609
0.229387 -0.019360 0.616000 12632286
0.229759 -0.015866 0.617000 11052498
0.230504 -0.012380 0.619000 10326467
0.231621 -0.008886 0.622000 9734832
0.231621 -0.005331 0.622000 9274790
0.232366 -0.001783 0.624000 8879774
0.233110 0.001789 0.626000 8485527
0.233483 0.005374 0.627000 8091025
0.233855 0.008971 0.628000 7958922
0.234972 0.012620 0.631000 7761543
0.235345 0.016251 0.632000 7564420
0.236462 0.019957 0.635000 7498628
0.236834 0.023623 0.636000 7432832
0.237579 0.027343 0.638000 7367038
0.237579 0.030989 0.638000 6908546
0.213002 0.031051 0.572000 10653607
0.213374 0.034380 0.573000 13418984
0.214864 0.037917 0.577000 12760800
0.217098 0.041643 0.583000 12760546
0.217843 0.045129 0.585000 12694751
0.219705 0.048886 0.590000 12628445
0.220822 0.052523 0.593000 12562903
0.226408 0.057326 0.608000 12364733
0.226035 0.060700 0.607000 12163500
0.230560 -0.019360 0.616000 12758991
0.230560 -0.015840 0.616000 11183312
0.231309 -0.012360 0.618000 10327241
0.232057 -0.008857 0.620000 9669294
0.232806 -0.005331 0.622000 9208998
0.233180 -0.001780 0.623000 8880028
0.233929 0.001786 0.625000 8485782
0.234303 0.005366 0.626000 8156817
0.234677 0.008957 0.627000 7958923
0.235426 0.012580 0.629000 7761540
0.236174 0.016226 0.631000 7629955
0.236549 0.019863 0.632000 7498371
0.237671 0.023586 0.635000 7432833
0.237297 0.027171 0.634000 7367040
0.237297 0.030794 0.634000 6841730
0.214091 0.031051 0.572000 11375536
0.214840 0.034440 0.574000 13287392
0.216337 0.037983 0.578000 12761055
0.218209 0.041643 0.583000 12760546
0.218957 0.045129 0.585000 12694494
0.220829 0.048886 0.590000 12562649
0.223074 0.052789 0.596000 12430297
0.227566 0.057326 0.608000 12164517
0.227191 0.060700 0.607000 12161952
0.231733 -0.019360 0.616000 12887988
0.231733 -0.015840 0.616000 11315923
0.232110 -0.012340 0.617000 10394054
0.233238 -0.008857 0.620000 9603760
0.233238 -0.005314 0.620000 9143461
0.233990 -0.001777 0.622000 8813980
0.234743 0.001783 0.624000 8485525
0.235119 0.005357 0.625000 8222353
0.235495 0.008943 0.626000 8023948
0.235871 0.012540 0.627000 7761543
0.236624 0.016174 0.629000 7629957
0.237376 0.019831 0.631000 7498628
0.237376 0.023437 0.631000 7432577
0.237376 0.027043 0.631000 7301248
0.236624 0.030551 0.629000 6776958
0.215181 0.031051 0.572000 12034738
0.215557 0.034380 0.573000 13221090
0.217814 0.038049 0.579000 12760544
0.218943 0.041571 0.582000 12760545
0.220071 0.045129 0.585000 12628698
0.221576 0.048803 0.589000 12497112
0.224210 0.052789 0.596000 12297154
0.232529 -0.015814 0.615000 11840213
0.233285 -0.012340 0.617000 10460098
0.234041 -0.008843 0.619000 9734834
0.234041 -0.005306 0.619000 9208996
0.234419 -0.001771 0.620000 8813723
0.235931 0.001783 0.624000 8551059
0.236310 0.005357 0.625000 8222352
0.236310 0.008929 0.625000 8024461
0.236688 0.012520 0.626000 7827083
0.237066 0.016123 0.627000 7695494
0.237444 0.019737 0.628000 7498628
0.237822 0.023363 0.629000 7432577
0.237444 0.026914 0.628000 7235969
0.237822 0.030551 0.629000 6643833
0.216270 0.031051 0.572000 12958389
0.216649 0.034380 0.573000 13024227
0.218917 0.038049 0.579000 12760289
0.220430 0.041643 0.583000 12694752
0.221942 0.045283 0.587000 12562903
0.222698 0.048803 0.589000 12365014
0.233700 -0.015814 0.615000 12301256
0.234080 -0.012320 0.616000 10592194
0.234840 -0.008829 0.618000 9866932
0.234840 -0.005297 0.618000 9208487
0.235220 -0.001769 0.619000 8813980
0.236360 0.001777 0.622000 8551060
0.237120 0.005349 0.624000 8222353
0.237500 0.008929 0.625000 8024461
0.237500 0.012500 0.625000 7827340
0.237500 0.016071 0.625000 7695751
0.237880 0.019674 0.626000 7498628
0.237880 0.023251 0.626000 7432578
0.237880 0.026829 0.626000 7170177
0.237880 0.030406 0.626000 6578041
0.217360 0.031051 0.572000 13810117
0.218120 0.034440 0.574000 12892385
0.220020 0.038049 0.579000 12694751
0.221920 0.041714 0.584000 12693980
0.223060 0.045283 0.587000 12496592
0.223820 0.048803 0.589000 12298433
0.234108 -0.015763 0.613000 12500410
0.234871 -0.012300 0.615000 10854337
0.235635 -0.008814 0.617000 9932727
0.235635 -0.005289 0.617000 9274538
0.236017 -0.001766 0.618000 8814237
0.236781 0.001771 0.620000 8551316
0.237927 0.005340 0.623000 8353938
0.237927 0.008900 0.623000 8090253
0.237927 0.012460 0.623000 7893134
0.238309 0.016046 0.624000 7696007
0.238309 0.019611 0.624000 7498372
0.238309 0.023177 0.624000 7367299
0.238690 0.026786 0.625000 7104898
0.239072 0.030406 0.626000 7101816
0.219213 0.031160 0.574000 14076886
0.219213 0.034440 0.574000 12826335
0.221123 0.038049 0.579000 12629213
0.223796 0.041857 0.586000 12628695
0.224178 0.045283 0.587000 12429769
0.235275 -0.015763 0.613000 12693686
0.235275 -0.012260 0.613000 11117512
0.236427 -0.008800 0.616000 9932982
0.236810 -0.005289 0.617000 9274283
0.236810 -0.001763 0.617000 8814237
0.237578 0.001769 0.619000 8551316
0.237962 0.005314 0.620000 8419218
0.238730 0.008886 0.622000 8221581
0.238730 0.012440 0.622000 7959181
0.239113 0.016020 0.623000 7761800
0.239113 0.019580 0.623000 7498629
0.239113 0.023140 0.623000 7302019
0.239497 0.026743 0.624000 6974083
0.240265 0.030406 0.626000 7625332
0.220307 0.031160 0.574000 14338522
0.220307 0.034440 0.574000 12759773
0.222993 0.038180 0.581000 12563675
0.224145 0.041714 0.584000 12562902
0.225296 0.045283 0.587000 12362422
0.236057 -0.012240 0.612000 11315663
0.236443 -0.008757 0.613000 10130358
0.236829 -0.005263 0.614000 9405612
0.237214 -0.001757 0.615000 8880029
0.237600 0.001760 0.616000 8551316
0.237600 0.005280 0.616000 8418962
0.237600 0.008800 0.616000 8287629
0.238371 0.012360 0.618000 8025228
0.239914 0.015994 0.622000 7762057
0.239914 0.019549 0.622000 7564422
0.238371 0.022954 0.618000 7367811
0.238757 0.026529 0.619000 7236483
0.241071 0.030357 0.625000 8152687
0.221400 0.031160 0.574000 14079966
0.221786 0.034500 0.575000 12694235
0.224871 0.038311 0.583000 12628697
0.225257 0.041714 0.584000 12430548
0.226029 0.045206 0.586000 12162466
0.236835 -0.012220 0.611000 11580627
0.237223 -0.008743 0.612000 10261437
0.237610 -0.005254 0.613000 9471150
0.237998 -0.001754 0.614000 8880286
0.238386 0.001757 0.615000 8551061
0.237610 0.005254 0.613000 8353681
0.238386 0.008786 0.615000 8418446
0.238773 0.012320 0.616000 8024973
0.239549 0.015891 0.618000 7827849
0.238773 0.019360 0.616000 7564679
0.239549 0.022954 0.618000 7498629
0.239936 0.026529 0.619000 7432579
0.242262 0.030357 0.625000 8609679
0.222493 0.031160 0.574000 13749218
0.222881 0.034500 0.575000 12627932
0.226757 0.038443 0.585000 12627667
0.226757 0.041786 0.585000 12364219
0.227145 0.045206 0.586000 11966627
0.237999 -0.012220 0.611000 12104150
0.237999 -0.008729 0.611000 10195909
0.238389 -0.005246 0.612000 9602991
0.238389 -0.001749 0.612000 9011360
0.238389 0.001749 0.612000 8616853
0.238389 0.005246 0.612000 8419217
0.238778 0.008757 0.613000 8418702
0.239168 0.012280 0.614000 8090765
0.239947 0.015840 0.616000 7893641
0.239557 0.019329 0.615000 7696008
0.240726 0.022954 0.618000 7629959
0.240726 0.026486 0.618000 7433091
0.223976 0.031214 0.575000 13353446
0.224366 0.034560 0.576000 12562397
0.227482 0.038377 0.584000 12495566
0.227871 0.041786 0.585000 12361890
0.239163 -0.012220 0.611000 12693177
0.239163 -0.008729 0.611000 10133966
0.239163 -0.005237 0.611000 9734573
0.239163 -0.001746 0.611000 9076899
0.239163 0.001746 0.611000 8616856
0.239163 0.005237 0.611000 8419218
0.239554 0.008743 0.612000 8418702
0.239554 0.012240 0.612000 8090765
0.239554 0.015737 0.612000 7958920
0.240337 0.019297 0.614000 7827335
0.225071 0.031214 0.575000 12959203
0.225463 0.034560 0.576000 12562133
0.228986 0.038443 0.585000 12362935
0.228594 0.041714 0.584000 12360612
0.240327 -0.012220 0.611000 12560284
0.239540 -0.008700 0.609000 11316695
0.239540 -0.005220 0.609000 9736106
0.239147 -0.001737 0.608000 9207974
0.239147 0.001737 0.608000 8748186
0.240327 0.005237 0.611000 8484755
0.240327 0.008729 0.611000 8353422
0.240327 0.012220 0.611000 8156046
0.239147 0.015634 0.608000 7959431
0.241113 0.019266 0.613000 7893127
0.226167 0.031214 0.575000 12760288
0.226560 0.034560 0.576000 12429516
0.230100 0.038443 0.585000 12360097
0.229707 0.041714 0.584000 12426662
0.240305 -0.008686 0.608000 12496071
0.239910 -0.005203 0.607000 9803713
0.240305 -0.001737 0.608000 9339814
0.239910 0.001734 0.607000 8814238
0.240700 0.005220 0.609000 8550806
0.240700 0.008700 0.609000 8287889
0.240700 0.012180 0.609000 8156558
0.239910 0.015609 0.607000 8025224
0.240700 0.019140 0.609000 7893127
0.228448 0.028074 0.578000 13032161
0.228052 0.031323 0.577000 12497360
0.227657 0.034560 0.576000 12364217
0.241463 -0.008686 0.608000 12430775
0.241066 -0.005203 0.607000 10592471
0.241066 -0.001734 0.607000 9471398
0.241066 0.001734 0.607000 9011361
0.241066 0.005203 0.607000 8682137
0.241066 0.008671 0.607000 8353684
0.241066 0.012140 0.607000 8222350
0.240669 0.015583 0.606000 8090760
0.240271 0.019014 0.605000 8024199
0.229549 0.028074 0.578000 13159150
0.229151 0.031323 0.577000 12429760
0.242621 -0.008686 0.608000 12296875
0.241823 -0.005194 0.606000 11448018
0.241823 -0.001731 0.606000 9538998
0.241823 0.001731 0.606000 9208484
0.241025 0.005177 0.604000 8748443
0.240626 0.008614 0.603000 8484760
0.241025 0.012080 0.604000 8222610
0.241025 0.015531 0.604000 8156302
0.239429 0.018857 0.600000 8155016
0.239030 0.022249 0.599000 7563913
0.230650 0.028074 0.578000 13288669
0.230250 0.031323 0.577000 12295853
0.242977 -0.005194 0.606000 12037580
0.242977 -0.001731 0.606000 10392775
0.242175 0.001726 0.604000 9209510
0.241774 0.005169 0.603000 9011358
0.241373 0.008600 0.602000 8747676
0.241774 0.012060 0.603000 8419734
0.240571 0.015429 0.600000 8156051
0.239770 0.018794 0.598000 8088970
0.239770 0.022211 0.598000 8681599
0.231750 0.028074 0.578000 12955595
0.231350 0.031323 0.577000 12293787
0.244131 -0.005194 0.606000 12692154
0.243326 -0.001726 0.604000 11183814
0.242923 0.001723 0.603000 9145791
0.242117 0.005151 0.601000 9274019
0.241311 0.008557 0.599000 9010075
0.242117 0.012020 0.601000 8616596
0.240909 0.015377 0.598000 8155027
0.240506 0.018763 0.597000 8023961
0.240103 0.022137 0.596000 9801387
0.232851 0.028074 0.578000 12624054
0.232449 0.031323 0.577000 12228510
0.244071 -0.001723 0.603000 11843014
0.243667 0.001720 0.602000 10395095
0.242857 0.005143 0.600000 9536681
0.242452 0.008557 0.599000 9011610
0.242452 0.011980 0.599000 8682131
0.240429 0.015274 0.594000 8747410
0.240429 0.018669 0.594000 9138345
0.241238 0.022137 0.596000 11449047
0.244813 -0.001720 0.602000 12495288
0.244407 0.001717 0.601000 11644361
