# .PCD v.7 - Point Cloud Data file format
VERSION .7
FIELDS x y z rgb
SIZE 4 4 4 4
TYPE F F F I
COUNT 1 1 1 1
WIDTH 1323
HEIGHT 1
POINTS 1323
DATA ascii
0.197171 -0.006474 0.618000 9930910
0.197490 -0.002948 0.619000 9602203
0.198448 0.000592 0.622000 9208216
0.198767 0.004153 0.623000 9011094
0.199086 0.007726 0.624000 8879248
0.180262 0.010224 0.565000 11564443
0.180262 0.013452 0.565000 15590902
0.180262 0.016681 0.565000 15063025
0.181538 0.020050 0.569000 14997488
0.182495 0.023425 0.572000 15129329
0.183452 0.026833 0.575000 15064048
0.184090 0.030224 0.577000 15129328
0.185048 0.033695 0.580000 15129328
0.186324 0.037265 0.584000 15063282
0.186962 0.040741 0.586000 15063536
0.187919 0.044315 0.589000 15063281
0.188876 0.047924 0.592000 15063537
0.190152 0.051653 0.596000 15129072
0.191110 0.055336 0.599000 14997487
0.192067 0.059053 0.602000 15063021
0.193662 0.063012 0.607000 15063023
0.193662 0.066481 0.607000 14997745
0.193981 0.070065 0.608000 14931692
0.197386 -0.020500 0.615000 10852036
0.197386 -0.016986 0.615000 10523562
0.197707 -0.013493 0.616000 10325668
0.198028 -0.009990 0.617000 10194079
0.198028 -0.006464 0.617000 9996191
0.198349 -0.002943 0.618000 9602459
0.198670 0.000590 0.619000 9273754
0.199632 0.004147 0.622000 9011095
0.199632 0.007701 0.622000 8748176
0.181338 0.010224 0.565000 11703481
0.181338 0.013452 0.565000 15458550
0.181659 0.016710 0.566000 15194354
0.182622 0.020050 0.569000 15128817
0.183585 0.023425 0.572000 15195121
0.184548 0.026833 0.575000 15129585
0.185510 0.030276 0.578000 15129584
0.186473 0.033753 0.581000 15129328
0.187757 0.037329 0.585000 15063281
0.188720 0.040880 0.588000 15063793
0.190004 0.044541 0.592000 15063537
0.190325 0.048005 0.593000 15063281
0.191609 0.051740 0.597000 15063279
0.192250 0.055336 0.599000 14997230
0.193213 0.059053 0.602000 14997483
0.195139 0.063116 0.608000 15063023
0.195139 0.066590 0.608000 15063026
0.195139 0.070065 0.608000 14866155
0.198234 -0.020467 0.614000 10788806
0.198234 -0.016958 0.614000 10523308
0.198557 -0.013471 0.615000 10325412
0.198880 -0.009973 0.616000 10193825
0.199203 -0.006464 0.617000 9996447
0.199526 -0.002943 0.618000 9668252
0.199526 0.000589 0.618000 9274010
0.199849 0.004127 0.619000 9076376
0.200171 0.007676 0.620000 8550798
0.200817 0.011255 0.622000 11840451
0.183060 0.013500 0.567000 15262454
0.183060 0.016740 0.567000 15260658
0.183706 0.020050 0.569000 15195121
0.184997 0.023466 0.573000 15260657
0.185966 0.026880 0.576000 15195121
0.186934 0.030329 0.579000 15194865
0.187903 0.033811 0.582000 15063792
0.188871 0.037329 0.585000 14997745
0.190163 0.040950 0.589000 15063793
0.191131 0.044541 0.592000 15063537
0.191454 0.048005 0.593000 15063024
0.192746 0.051740 0.597000 15063022
0.193714 0.055429 0.600000 14931438
0.194360 0.059053 0.602000 14931692
0.196620 0.063220 0.609000 15062246
0.196297 0.066590 0.608000 15062753
0.196297 0.070065 0.608000 14731990
0.199404 -0.020467 0.614000 11510729
0.199079 -0.016930 0.613000 10589101
0.199404 -0.013450 0.614000 10325157
0.199729 -0.009957 0.615000 10193826
0.200053 -0.006453 0.616000 9996703
0.200378 -0.002938 0.617000 9668252
0.200378 0.000588 0.617000 9340057
0.200703 0.004120 0.618000 9142168
0.201028 0.007664 0.619000 8485516
0.200703 0.011183 0.618000 12762317
0.184465 0.013524 0.568000 15194613
0.184465 0.016770 0.568000 15260657
0.184790 0.020050 0.569000 15195633
0.186089 0.023466 0.573000 15260657
0.187712 0.026973 0.578000 15194865
0.188362 0.030381 0.580000 15195121
0.189336 0.033870 0.583000 15129329
0.190310 0.037392 0.586000 14998001
0.191934 0.041089 0.591000 15129329
0.192584 0.044616 0.593000 15128817
0.192909 0.048086 0.594000 15063023
0.194208 0.051827 0.598000 14997485
0.194857 0.055429 0.600000 14865389
0.197780 0.059740 0.609000 14864108
0.197780 0.063220 0.609000 14667229
0.197780 0.066700 0.609000 14664655
0.200573 -0.020467 0.614000 12169681
0.200247 -0.016930 0.613000 10721191
0.200247 -0.013428 0.613000 10325668
0.200573 -0.009941 0.614000 10128289
0.200573 -0.006432 0.614000 9996702
0.200900 -0.002929 0.615000 9668253
0.200900 0.000586 0.615000 9340059
0.201553 0.004113 0.617000 9207704
0.201880 0.007651 0.618000 8417676
0.201553 0.011165 0.617000 13756133
0.185547 0.013524 0.568000 15064819
0.185547 0.016770 0.568000 15195377
0.186853 0.020156 0.572000 15195633
0.187833 0.023548 0.575000 15195121
0.189140 0.027020 0.579000 15129329
0.189793 0.030433 0.581000 15194865
0.190773 0.033928 0.584000 15129329
0.191427 0.037392 0.586000 15063280
0.193060 0.041089 0.591000 15129585
0.193713 0.044616 0.593000 15128561
0.194367 0.048167 0.595000 15063022
0.195347 0.051827 0.598000 14931181
0.196000 0.055429 0.600000 14733804
0.199593 0.059936 0.611000 14796246
0.199920 0.063531 0.612000 14268601
0.201086 -0.016903 0.612000 10720928
0.201086 -0.013406 0.612000 10391716
0.201414 -0.009925 0.613000 10128288
0.201743 -0.006432 0.614000 9996701
0.201743 -0.002924 0.614000 9734046
0.201743 0.000585 0.614000 9405596
0.202071 0.004100 0.615000 9207959
0.202729 0.007639 0.617000 7891339
0.186629 0.010278 0.568000 14606845
0.186629 0.013524 0.568000 15063281
0.186629 0.016770 0.568000 15195377
0.188271 0.020191 0.573000 15195633
0.189914 0.023670 0.578000 15195376
0.190571 0.027067 0.580000 15129329
0.191229 0.030486 0.582000 15129329
0.192214 0.033986 0.585000 15194865
0.193200 0.037520 0.588000 14997999
0.194514 0.041158 0.592000 15129841
0.195171 0.044691 0.594000 15128817
0.195500 0.048167 0.595000 15062765
0.196157 0.051740 0.597000 14931948
0.197143 0.055429 0.600000 14930668
0.201086 0.060034 0.612000 13675200
0.201921 -0.016875 0.611000 10721201
0.201921 -0.013384 0.611000 10392229
0.202251 -0.009909 0.612000 10128032
0.201921 -0.006401 0.611000 9996701
0.201921 -0.002910 0.611000 9733792
0.201921 0.000582 0.611000 9471132
0.201260 0.004060 0.609000 9273752
0.203573 0.007627 0.616000 7301276
0.187710 0.010278 0.568000 15531774
0.188041 0.013548 0.569000 14998513
0.188041 0.016799 0.569000 15129585
0.189363 0.020191 0.573000 15129841
0.191015 0.023670 0.578000 15129840
0.191676 0.027067 0.580000 15063792
0.192337 0.030486 0.582000 15063536
0.193659 0.034044 0.586000 15259890
0.194320 0.037520 0.588000 14997999
0.195642 0.041158 0.592000 15063279
0.196303 0.044691 0.594000 15194092
0.196633 0.048167 0.595000 15063023
0.197294 0.051740 0.597000 14935795
0.198286 0.055429 0.600000 15130354
0.202582 0.060132 0.613000 12553148
0.202088 -0.016792 0.608000 11182529
0.202420 -0.013340 0.609000 10524070
0.203085 -0.009892 0.611000 10193823
0.202420 -0.006380 0.609000 9996446
0.202088 -0.002895 0.608000 9733794
0.202088 0.000579 0.608000 9536667
0.202088 0.004053 0.608000 9208472
0.203750 0.007590 0.613000 8472749
0.189125 0.010296 0.569000 15790334
0.189125 0.013548 0.569000 15129328
0.189457 0.016829 0.570000 15195377
0.191451 0.020297 0.576000 15195377
0.192116 0.023670 0.578000 15194864
0.192781 0.027067 0.580000 15064048
0.193778 0.030538 0.583000 15063535
0.194443 0.033986 0.585000 15194355
0.196105 0.037648 0.590000 14866159
0.197102 0.041228 0.593000 14799342
0.197102 0.044616 0.593000 14667494
0.198099 0.048248 0.596000 14998002
0.198431 0.051740 0.597000 15658490
0.204082 0.060230 0.614000 12753591
0.203246 -0.016792 0.608000 11642066
0.203246 -0.013318 0.608000 10589094
0.203246 -0.009844 0.608000 10193570
0.202911 -0.006359 0.607000 9930910
0.202911 -0.002890 0.607000 9799072
0.202911 0.000578 0.607000 9536666
0.202577 0.004040 0.606000 9208466
0.204917 0.007590 0.613000 9669560
0.190209 0.010296 0.569000 16052729
0.190209 0.013548 0.569000 15260400
0.190877 0.016858 0.571000 15326705
0.192883 0.020332 0.577000 15260657
0.193551 0.023711 0.579000 15194609
0.194220 0.027113 0.581000 14998257
0.194889 0.030538 0.583000 15063280
0.195891 0.034044 0.586000 15062250
0.197897 0.037775 0.592000 14668512
0.198231 0.041228 0.593000 14468821
0.198231 0.044616 0.593000 14139848
0.199234 0.048248 0.596000 14932455
0.199569 0.051740 0.597000 16315897
0.204917 0.060132 0.613000 12883379
0.203731 -0.016737 0.606000 12433378
0.203731 -0.013274 0.606000 10523814
0.203731 -0.009811 0.606000 10259365
0.203395 -0.006338 0.605000 9930911
0.203395 -0.002881 0.605000 9733789
0.203395 0.000576 0.605000 9602200
0.203731 0.004040 0.606000 8944780
0.206085 0.007590 0.613000 12166852
0.191292 0.010296 0.569000 15854068
0.191629 0.013571 0.570000 15194609
0.192637 0.016917 0.573000 15195121
0.193982 0.020332 0.577000 15260914
0.194654 0.023711 0.579000 15129330
0.195327 0.027113 0.581000 14997489
0.195999 0.030538 0.583000 14733553
0.197008 0.034044 0.586000 14535137
0.199025 0.037775 0.592000 14467536
0.200370 0.048248 0.596000 14865116
0.206421 0.060230 0.614000 12885423
0.204886 -0.016737 0.606000 13290720
0.204548 -0.013252 0.605000 10459835
0.204210 -0.009779 0.604000 10390948
0.203871 -0.006317 0.603000 9930658
0.204548 -0.002881 0.605000 9733534
0.204548 0.000576 0.605000 9667481
0.204886 0.004040 0.606000 8681863
0.207252 0.007590 0.613000 14666458
0.193052 0.010332 0.571000 15719665
0.193052 0.013595 0.571000 15129328
0.194067 0.016947 0.574000 15129073
0.195081 0.020332 0.577000 15194352
0.195757 0.023711 0.579000 15063787
0.196433 0.027113 0.581000 14930404
0.197110 0.030538 0.583000 14468828
0.197786 0.033986 0.585000 14008779
0.201505 0.048248 0.596000 14734044
0.207252 0.060132 0.613000 12948394
0.205360 -0.013230 0.604000 11247568
0.204680 -0.009747 0.602000 10325922
0.204680 -0.006307 0.602000 9930662
0.205020 -0.002871 0.603000 9799326
0.205360 0.000575 0.604000 9536154
0.205700 0.004033 0.605000 9533825
0.194480 0.010350 0.572000 15457518
0.194820 0.013643 0.573000 15195120
0.195160 0.016947 0.574000 14998001
0.196180 0.020332 0.577000 14864623
0.196860 0.023711 0.579000 14667235
0.197540 0.027113 0.581000 14467799
0.198560 0.030590 0.584000 14334407
0.208420 0.060132 0.613000 12884645
0.206169 -0.013209 0.603000 11974104
0.205485 -0.009730 0.601000 10260663
0.205143 -0.006286 0.600000 9866404
0.204117 -0.002843 0.597000 9864860
0.206510 0.000575 0.604000 9404569
0.206852 0.004033 0.605000 10453419
0.195911 0.010369 0.573000 15260655
0.195911 0.013643 0.573000 15194350
0.196253 0.016947 0.574000 14866150
0.197279 0.020332 0.577000 14469854
0.209588 0.060132 0.613000 12880290
0.206973 -0.013187 0.602000 13356000
0.205942 -0.009698 0.599000 11116748
0.205598 -0.006265 0.598000 10260899
0.205254 -0.002843 0.597000 9668506
0.197003 0.010369 0.573000 14996975
0.196659 0.013619 0.572000 14799083
0.208120 -0.013187 0.602000 14731471
0.206737 -0.009682 0.598000 11974108
0.206046 -0.006244 0.596000 10590400
0.205354 -0.002829 0.594000 9539515
0.197749 0.013619 0.572000 14403798
0.209267 -0.013187 0.602000 14599102
0.207181 -0.009650 0.596000 13355243
0.206486 -0.006223 0.594000 12298974
0.206138 -0.002824 0.593000 11577820
0.207617 -0.009617 0.594000 14666446
0.207268 -0.006212 0.593000 13946592
0.206918 -0.002819 0.592000 13685991
0.206569 0.000563 0.591000 14998503
0.208749 -0.009617 0.594000 14532017
0.207694 -0.006191 0.591000 14409443
0.207694 -0.002814 0.591000 14474481
0.207694 0.000563 0.591000 14999791
0.208820 -0.006191 0.591000 14797770
0.208820 -0.002814 0.591000 15321553
0.214120 0.010966 0.606000 14202062
0.214919 0.007490 0.605000 16710138
0.215274 0.010966 0.606000 14070711
0.216071 0.007490 0.605000 16709114
0.216071 0.010948 0.605000 13936564
0.230000 0.044773 0.644000 14068401
0.217224 0.007490 0.605000 16710393
0.217224 0.010948 0.605000 13872304
0.231227 0.044773 0.644000 13018034
0.219098 0.004047 0.607000 16248053
0.218376 0.007490 0.605000 16642809
0.218376 0.010948 0.605000 13871279
0.231731 0.044634 0.642000 11903925
0.231010 0.048152 0.640000 12626118
0.220254 0.004047 0.607000 16182516
0.219891 0.007503 0.606000 16710905
0.219529 0.010948 0.605000 13805741
0.232954 0.044634 0.642000 11967928
0.232229 0.048152 0.640000 12627143
0.221410 0.004047 0.607000 16051447
0.221046 0.007503 0.606000 16708345
0.220681 0.010948 0.605000 13804718
0.233448 0.040838 0.640000 13151916
0.233448 0.044495 0.640000 12033720
0.233083 0.048077 0.639000 12691656
0.222200 0.007503 0.606000 16711417
0.222200 0.010966 0.606000 13740974
0.234667 0.040838 0.640000 12493233
0.234300 0.044426 0.639000 12099256
0.233933 0.048002 0.638000 12692937
0.223354 0.007503 0.606000 16709626
0.223354 0.010966 0.606000 13740209
0.235149 0.040710 0.638000 11835825
0.234411 0.044217 0.636000 12100282
0.234411 0.047851 0.636000 12759240
0.224509 0.007503 0.606000 16711420
0.224509 0.010966 0.606000 13740723
0.234511 0.036774 0.633000 12687789
0.236364 0.040710 0.638000 11836080
0.235252 0.044148 0.635000 12166587
0.235252 0.047776 0.635000 12824518
0.235252 0.051405 0.635000 13680335
0.226035 0.007515 0.607000 16710909
0.226035 0.010984 0.607000 13738682
0.234972 0.033052 0.631000 14004907
0.235717 0.036774 0.633000 11179946
0.235717 0.040391 0.633000 11836336
0.236090 0.044078 0.634000 12166590
0.236090 0.047701 0.634000 12889799
0.236090 0.051324 0.634000 13744581
0.227566 0.007528 0.608000 16711422
0.227940 0.011020 0.609000 13806784
0.228689 0.014548 0.611000 14530475
0.236174 0.033052 0.631000 12753570
0.236549 0.036716 0.632000 11179432
0.236549 0.040328 0.632000 11837104
0.236923 0.044009 0.633000 12362944
0.236549 0.047550 0.632000 13087944
0.237297 0.051324 0.634000 13940411
0.228724 0.007528 0.608000 16710397
0.228724 0.011002 0.608000 13870809
0.229852 0.014548 0.611000 14593449
0.236624 0.032948 0.629000 11567264
0.237376 0.036658 0.631000 11114156
0.237752 0.040328 0.632000 11838389
0.238129 0.044009 0.633000 12495041
0.237752 0.047550 0.632000 13220547
0.238129 0.051243 0.633000 14070967
0.229882 0.007528 0.608000 16578811
0.230260 0.011020 0.609000 14072818
0.231016 0.014548 0.611000 13607590
0.231394 0.018069 0.612000 14069425
0.236688 0.029213 0.626000 12487072
0.237822 0.032948 0.629000 11308702
0.237822 0.036542 0.629000 11376816
0.238578 0.040264 0.631000 11968953
0.238956 0.043939 0.632000 12430530
0.238956 0.047550 0.632000 13744574
0.231040 0.007528 0.608000 16445681
0.231420 0.011020 0.609000 14341366
0.232180 0.014548 0.611000 12621745
0.232940 0.018098 0.613000 13542058
0.237500 0.029167 0.625000 10915233
0.238640 0.032895 0.628000 11114664
0.238640 0.036484 0.628000 11639473
0.239780 0.040264 0.631000 12099768
0.239780 0.043870 0.631000 12367303
0.239780 0.047475 0.631000 14202808
0.232580 0.011020 0.609000 14867706
0.233344 0.014548 0.611000 11895996
0.234490 0.018128 0.614000 12225954
0.237545 0.025472 0.622000 11572126
0.238309 0.029120 0.624000 11244707
0.239836 0.032895 0.628000 11311281
0.239836 0.036484 0.628000 11639475
0.240218 0.040136 0.629000 12429751
0.240218 0.043730 0.629000 13483981
0.240982 0.047475 0.631000 14333362
0.233740 0.011020 0.609000 15395580
0.233740 0.014500 0.609000 11182035
0.235659 0.018128 0.614000 10980770
0.236810 0.021742 0.617000 10981280
0.237962 0.025390 0.620000 11114145
0.239113 0.029073 0.623000 11573414
0.240265 0.032790 0.626000 11442103
0.240649 0.036426 0.627000 11575742
0.241416 0.040136 0.629000 12759749
0.241416 0.043730 0.629000 14531524
0.242184 0.047475 0.631000 14398388
0.234900 0.011020 0.609000 15592190
0.235671 0.014548 0.611000 12825835
0.237214 0.018157 0.615000 11179682
0.237986 0.021742 0.617000 11048358
0.238757 0.025350 0.619000 11114659
0.240300 0.029073 0.623000 11508650
0.241071 0.032738 0.625000 11838397
0.241457 0.036368 0.626000 12562121
0.242614 0.040136 0.629000 13548243
0.242614 0.043730 0.629000 14399163
0.235672 0.011002 0.608000 15785180
0.236835 0.014548 0.611000 14406897
0.238386 0.018157 0.615000 11380674
0.239161 0.021742 0.617000 11050685
0.239936 0.025350 0.619000 11115454
0.240324 0.028933 0.620000 11446212
0.241874 0.032686 0.624000 12236748
0.242650 0.036368 0.626000 13548488
0.243812 0.040136 0.629000 14335171
0.236830 0.011002 0.608000 15123898
0.237999 0.014548 0.611000 14873590
0.238389 0.018069 0.612000 13027041
0.240336 0.021742 0.617000 12432085
0.241505 0.025390 0.620000 12498392
0.241505 0.028933 0.620000 12960222
0.243063 0.032686 0.624000 13485787
0.244621 0.040072 0.628000 14268339
0.239163 0.014548 0.611000 15257813
0.239554 0.018069 0.612000 14735316
0.241120 0.021707 0.616000 13812432
0.242294 0.025350 0.619000 13881809
0.242294 0.028887 0.619000 14468303
0.245817 0.040072 0.628000 14201775
0.240327 0.014548 0.611000 14725555
0.238360 0.017891 0.606000 14599623
0.242293 0.021707 0.616000 14205900
0.243867 0.025390 0.620000 14271690
0.243473 0.028887 0.619000 14334656
0.239119 0.017862 0.605000 14462903
0.243467 0.021707 0.616000 14530748
0.244652 0.025350 0.619000 14597053
0.243862 0.028793 0.617000 14202551
0.240271 0.017862 0.605000 14397607
0.245831 0.025350 0.619000 14398896
0.123586 0.056066 0.633000 10517884
0.124791 0.056066 0.633000 10452095
0.125997 0.056066 0.633000 10321026
0.122983 0.019234 0.612000 12289927
0.122983 0.022731 0.612000 11240324
0.125394 0.048137 0.624000 10387329
0.127203 0.056066 0.633000 10190211
0.125595 0.058929 0.625000 10321541
0.123946 0.019203 0.611000 11302781
0.124149 0.022731 0.612000 10845576
0.126177 0.047983 0.622000 10452869
0.126380 0.051620 0.623000 10321545
0.126786 0.058929 0.625000 10387335
0.122448 0.005126 0.598000 11764619
0.125110 0.019203 0.611000 10320769
0.125314 0.022731 0.612000 10452356
0.127362 0.047983 0.622000 10453127
0.127567 0.051620 0.623000 10387337
0.127771 0.055269 0.624000 10322310
0.127771 0.058834 0.624000 10387847
0.123587 0.001709 0.598000 11370111
0.123380 0.005117 0.597000 11107200
0.122967 0.008500 0.595000 10714498
0.126273 0.022694 0.611000 10387328
0.126480 0.026229 0.612000 10452352
0.126687 0.029774 0.613000 10387076
0.126480 0.033223 0.612000 10387334
0.126687 0.036780 0.613000 10387590
0.127307 0.040480 0.616000 10322305
0.127927 0.047751 0.619000 10453130
0.128133 0.051371 0.620000 10453128
0.128753 0.055180 0.623000 10453639
0.128753 0.058740 0.623000 10453895
0.129167 0.062500 0.625000 10519177
0.124726 0.001709 0.598000 10452865
0.124309 0.005109 0.596000 10452354
0.123891 0.008486 0.594000 10452357
0.124100 0.011900 0.595000 10518146
0.125977 0.022434 0.604000 10321795
0.126603 0.026014 0.607000 10321795
0.127854 0.029774 0.613000 10387077
0.127646 0.033223 0.612000 10387591
0.127646 0.036720 0.612000 10387848
0.128271 0.040414 0.615000 10388101
0.128689 0.044071 0.617000 10453896
0.128897 0.047674 0.618000 10453643
0.128897 0.051206 0.618000 10518922
0.129106 0.054826 0.619000 10519433
0.129731 0.058646 0.622000 10519689
0.130149 0.062400 0.624000 10519434
0.127549 -0.012120 0.606000 15068670
0.125865 0.001709 0.598000 10387330
0.125233 0.005100 0.595000 10518149
0.125023 0.008486 0.594000 10452615
0.125233 0.011900 0.595000 10452609
0.126075 0.015403 0.599000 10453126
0.126286 0.018857 0.600000 10322310
0.127128 0.022434 0.604000 10453125
0.127338 0.025929 0.605000 10387590
0.127128 0.029337 0.604000 10453126
0.127549 0.032897 0.606000 10453385
0.128180 0.036540 0.609000 10453642
0.129022 0.040283 0.613000 10453385
0.129443 0.043929 0.615000 10519689
0.129653 0.047520 0.616000 10584973
0.129653 0.051040 0.616000 10519436
0.129864 0.054649 0.617000 10585226
0.130285 0.058363 0.619000 10585226
0.130495 0.062000 0.620000 10585228
0.128915 -0.015609 0.607000 16709115
0.128915 -0.012140 0.607000 16314615
0.125942 -0.005083 0.593000 13291751
0.125517 -0.001689 0.591000 9799850
0.126367 0.001700 0.595000 10387328
0.126154 0.005091 0.594000 10518406
0.125942 0.008471 0.593000 10452617
0.126367 0.011900 0.595000 10387589
0.127216 0.015403 0.599000 10387846
0.127216 0.018826 0.599000 10191496
0.127641 0.022323 0.601000 10649735
0.128066 0.025843 0.603000 10453383
0.128066 0.029289 0.603000 10453895
0.128490 0.032843 0.605000 10453644
0.128915 0.036420 0.607000 10519435
0.129765 0.040151 0.611000 10519434
0.129977 0.043714 0.612000 10519691
0.129977 0.047211 0.612000 10650765
0.130190 0.050791 0.613000 10585227
0.130827 0.054560 0.616000 10651275
0.131251 0.058269 0.618000 10650508
0.131464 0.061900 0.619000 10585230
0.132101 0.065754 0.622000 10716557
0.130500 -0.015660 0.609000 16051960
0.130286 -0.012160 0.608000 15589616
0.126857 -0.005074 0.592000 14080763
0.126643 -0.001689 0.591000 11114949
0.126643 0.001689 0.591000 10190206
0.127286 0.005091 0.594000 10518664
0.126857 0.008457 0.592000 10453130
0.127500 0.011900 0.595000 10453129
0.127929 0.015351 0.597000 10388102
0.127929 0.018763 0.597000 10388106
0.128357 0.022249 0.599000 10584200
0.129000 0.025800 0.602000 10519177
0.129000 0.029240 0.602000 10519432
0.129214 0.032734 0.603000 10519183
0.129429 0.036240 0.604000 10585227
0.130286 0.039954 0.608000 10585228
0.130500 0.043500 0.609000 10585485
0.130929 0.047134 0.611000 10651278
0.131143 0.050709 0.612000 10651018
0.131571 0.054383 0.614000 10848140
0.131786 0.057986 0.615000 10716557
0.132000 0.061600 0.616000 10651024
0.132643 0.065437 0.619000 10716815
0.132525 -0.019266 0.613000 16514812
0.132092 -0.015711 0.611000 15394548
0.131444 -0.012160 0.608000 14866416
0.127769 -0.005066 0.591000 14932982
0.127769 -0.001689 0.591000 12368352
0.127769 0.001689 0.591000 10058629
0.128201 0.005083 0.593000 10453389
0.127552 0.008429 0.590000 10453641
0.128417 0.011880 0.594000 10453641
0.128633 0.015300 0.595000 10453640
0.128850 0.018731 0.596000 10518923
0.129282 0.022211 0.598000 10519177
0.129714 0.025714 0.600000 10519177
0.129930 0.029191 0.601000 10585225
0.130147 0.032680 0.602000 10519695
0.130579 0.036240 0.604000 10651019
0.131228 0.039889 0.607000 10651277
0.131444 0.043429 0.608000 10716813
0.131660 0.046980 0.609000 10651278
0.132092 0.050626 0.611000 10782348
0.132525 0.054294 0.613000 11045005
0.132741 0.057891 0.614000 10847630
0.132957 0.061500 0.615000 10717071
0.133390 0.065226 0.617000 10782863
0.134347 -0.026400 0.616000 14330806
0.134129 -0.022843 0.615000 15989228
0.133910 -0.019297 0.614000 16250106
0.133474 -0.015737 0.612000 15327216
0.132602 -0.012160 0.608000 14867184
0.128894 -0.005066 0.591000 14603249
0.128458 -0.001683 0.589000 13752572
0.128022 0.001677 0.587000 10586764
0.128022 0.005031 0.587000 10453649
0.128240 0.008400 0.588000 10453640
0.128676 0.011800 0.590000 10519178
0.129112 0.015223 0.592000 10388362
0.129767 0.018700 0.595000 10584717
0.130421 0.022211 0.598000 10650250
0.130639 0.025671 0.599000 10650506
0.130639 0.029094 0.599000 10585226
0.131075 0.032626 0.601000 10585230
0.131293 0.036120 0.602000 10651274
0.132384 0.039889 0.607000 10717070
0.132166 0.043286 0.606000 10782349
0.132602 0.046903 0.608000 10717070
0.132602 0.050377 0.608000 10782606
0.133474 0.054206 0.612000 10979470
0.133692 0.057797 0.613000 10848398
0.134129 0.061500 0.615000 10848911
0.134347 0.065120 0.616000 10783119
0.135520 -0.026400 0.616000 14461624
0.135300 -0.022843 0.615000 16710132
0.135300 -0.019329 0.615000 15987190
0.135080 -0.015789 0.614000 15261680
0.135960 -0.012360 0.618000 14933232
0.136840 -0.008886 0.622000 14538479
0.130020 -0.005066 0.591000 14339825
0.129580 -0.001683 0.589000 15126263
0.128920 0.001674 0.586000 11180468
0.128700 0.005014 0.585000 10387598
0.129140 0.008386 0.587000 10453641
0.129580 0.011780 0.589000 10519178
0.130020 0.015197 0.591000 10388362
0.130240 0.018606 0.592000 10585227
0.130680 0.022063 0.594000 10781577
0.131340 0.025586 0.597000 10781836
0.131560 0.029046 0.598000 10651019
0.131780 0.032517 0.599000 10585487
0.132000 0.036000 0.600000 10717068
0.132000 0.039429 0.600000 10717069
0.133100 0.043214 0.605000 10847630
0.133540 0.046826 0.607000 10782607
0.133540 0.050294 0.607000 10782864
0.134420 0.054117 0.611000 10848655
0.134640 0.057703 0.612000 10914192
0.135080 0.061400 0.614000 10914448
0.135300 0.065014 0.615000 10848914
0.135740 0.068751 0.617000 10979985
0.136693 -0.026400 0.616000 14924729
0.136915 -0.022917 0.617000 16580347
0.136915 -0.019391 0.617000 15722482
0.136915 -0.015866 0.617000 15196144
0.137359 -0.012380 0.619000 14932976
0.138025 -0.008886 0.622000 14538479
0.131146 -0.005066 0.591000 14143217
0.130702 -0.001683 0.589000 14206194
0.129592 0.001669 0.584000 12169179
0.129592 0.005006 0.584000 10387339
0.130036 0.008371 0.586000 10519690
0.130258 0.011740 0.587000 10584971
0.130924 0.015171 0.590000 10519689
0.131146 0.018574 0.591000 10650762
0.131590 0.022026 0.593000 10716552
0.132033 0.025500 0.595000 10716301
0.132033 0.028900 0.595000 10716811
0.132255 0.032354 0.596000 10716560
0.132699 0.035880 0.598000 10848141
0.132921 0.039363 0.599000 10717069
0.133809 0.043071 0.603000 10913167
0.134474 0.046749 0.606000 10848143
0.134696 0.050294 0.607000 10848913
0.134918 0.053851 0.608000 10914449
0.135584 0.057609 0.611000 10914449
0.136028 0.061300 0.613000 11110802
0.136471 0.065014 0.615000 10914452
0.136693 0.068640 0.616000 11045780
0.138538 -0.026529 0.619000 15384275
0.138314 -0.022954 0.618000 16447483
0.138314 -0.019423 0.618000 15525106
0.138538 -0.015917 0.619000 15130352
0.138762 -0.012400 0.620000 14866928
0.139433 -0.008900 0.623000 14538224
0.139881 -0.005357 0.625000 14012401
0.130481 0.001666 0.583000 13093606
0.130481 0.004997 0.583000 10388122
0.130929 0.008357 0.585000 10585738
0.131152 0.011720 0.586000 10650763
0.131600 0.015120 0.588000 10651018
0.131824 0.018511 0.589000 10651274
0.132271 0.021951 0.591000 10651530
0.132719 0.025414 0.593000 10651279
0.132943 0.028851 0.594000 10782862
0.133390 0.032354 0.596000 10782352
0.133614 0.035820 0.597000 10913677
0.134062 0.039363 0.599000 10717325
0.134286 0.042857 0.600000 10978705
0.135405 0.046671 0.605000 10913936
0.135629 0.050211 0.606000 10914450
0.135852 0.053763 0.607000 10914707
0.136300 0.057420 0.609000 10980243
0.136971 0.061200 0.612000 11242388
0.137419 0.064909 0.614000 10980246
0.137643 0.068529 0.615000 11046038
0.139717 -0.026529 0.619000 15455981
0.139717 -0.022991 0.619000 16183546
0.139717 -0.019454 0.619000 15459057
0.140394 -0.015994 0.622000 15130608
0.140620 -0.012460 0.623000 14867183
0.141071 -0.008929 0.625000 14472176
0.141297 -0.005366 0.626000 13814257
0.141749 -0.001794 0.628000 13088999
0.131591 0.001666 0.583000 13288433
0.131591 0.004997 0.583000 10388138
0.131817 0.008343 0.584000 10651018
0.132043 0.011700 0.585000 10716555
0.132494 0.015094 0.587000 10651275
0.132946 0.018511 0.589000 10717067
0.133397 0.021951 0.591000 10717068
0.133623 0.025371 0.592000 10716816
0.133849 0.028803 0.593000 10782864
0.134074 0.032246 0.594000 10782865
0.134526 0.035760 0.596000 10848397
0.134977 0.039297 0.598000 10783118
0.135203 0.042786 0.599000 10979219
0.136106 0.046517 0.603000 10979472
0.136331 0.050046 0.604000 10980498
0.137009 0.053763 0.607000 10980501
0.137009 0.057231 0.607000 10980501
0.137911 0.061100 0.611000 11177110
0.138137 0.064697 0.612000 10980504
0.138589 0.068417 0.614000 11111832
0.140896 -0.026529 0.619000 15593974
0.141124 -0.023029 0.620000 15921399
0.141579 -0.019549 0.622000 15458544
0.141807 -0.016020 0.623000 15130608
0.142034 -0.012480 0.624000 14867184
0.142717 -0.008957 0.627000 14406640
0.142945 -0.005383 0.628000 13683178
0.143172 -0.001797 0.629000 12892134
0.132702 0.001666 0.583000 13483744
0.132702 0.004997 0.583000 10393276
0.132702 0.008329 0.583000 10651019
0.133157 0.011700 0.585000 10716557
0.133612 0.015094 0.587000 10717069
0.133612 0.018449 0.587000 10717069
0.133840 0.021840 0.588000 10717327
0.134295 0.025286 0.590000 10717075
0.134523 0.028706 0.591000 10847889
0.134978 0.032191 0.593000 10782866
0.135661 0.035760 0.596000 10848400
0.136116 0.039297 0.598000 10849167
0.136344 0.042786 0.599000 10979478
0.136799 0.046363 0.601000 11045523
0.137254 0.049963 0.603000 10980757
0.137710 0.053586 0.605000 10980759
0.137937 0.057137 0.606000 11046040
0.138165 0.060700 0.607000 11111833
0.139075 0.064591 0.611000 11046041
0.139530 0.068306 0.613000 11177625
0.142075 -0.026529 0.619000 15986430
0.142305 -0.023029 0.620000 15723509
0.142764 -0.019549 0.622000 15327471
0.143223 -0.016046 0.624000 15064816
0.143452 -0.012500 0.625000 14801392
0.144141 -0.008971 0.628000 14406128
0.144370 -0.005391 0.629000 13485027
0.145289 -0.001809 0.633000 12694501
0.133812 0.001666 0.583000 12957391
0.133583 0.004989 0.582000 11838671
0.133583 0.008314 0.582000 10584971
0.133812 0.011660 0.583000 10782350
0.134501 0.015069 0.586000 10782607
0.134501 0.018417 0.586000 10782606
0.134730 0.021803 0.587000 10782866
0.135419 0.025286 0.590000 10782615
0.135649 0.028706 0.591000 10848401
0.135878 0.032137 0.592000 10848658
0.136337 0.035640 0.594000 10783379
0.137026 0.039231 0.597000 10914961
0.137255 0.042714 0.598000 11045528
0.137485 0.046209 0.599000 11111061
0.138403 0.049963 0.603000 11046295
0.138632 0.053497 0.604000 11112089
0.138862 0.057043 0.605000 11112091
0.139091 0.060600 0.606000 11177628
0.139550 0.064274 0.608000 11177882
0.140698 0.068306 0.613000 11243418
0.143486 -0.026571 0.620000 16383742
0.143949 -0.023103 0.622000 15526131
0.144180 -0.019580 0.623000 15261680
0.144643 -0.016071 0.625000 14998512
0.144874 -0.012520 0.626000 14735601
0.145569 -0.008986 0.629000 14340079
0.146263 -0.005417 0.632000 13222369
0.146957 -0.001814 0.635000 12432097
0.147651 0.001823 0.638000 12494035
0.134691 0.004989 0.582000 13284306
0.134229 0.008286 0.580000 10518412
0.134460 0.011620 0.581000 10782352
0.134923 0.014991 0.583000 10782353
0.135154 0.018354 0.584000 10782864
0.135154 0.021691 0.584000 10848659
0.136311 0.025243 0.589000 10783125
0.136311 0.028609 0.589000 10914196
0.136774 0.032083 0.591000 10914708
0.137469 0.035640 0.594000 10783891
0.137931 0.039166 0.596000 10980753
0.138163 0.042643 0.597000 11111575
0.138626 0.046209 0.599000 11111830
0.139320 0.049880 0.602000 11112089
0.139551 0.053409 0.603000 11177626
0.140014 0.057043 0.605000 11243676
0.140246 0.060600 0.606000 11243420
0.140709 0.064274 0.608000 11309722
0.141634 0.068194 0.612000 11309723
0.144667 -0.026571 0.620000 16448766
0.145133 -0.023103 0.622000 15393522
0.145367 -0.019580 0.623000 15130353
0.145833 -0.016071 0.625000 14932208
0.146300 -0.012540 0.627000 14669809
0.147467 -0.009029 0.632000 13945583
0.147700 -0.005426 0.633000 13024479
0.148400 -0.001817 0.636000 12300509
0.149333 0.001829 0.640000 11838678
0.134867 0.008257 0.578000 10716557
0.135100 0.011580 0.579000 10848402
0.135800 0.014966 0.582000 10848402
0.136033 0.018323 0.583000 10848658
0.136033 0.021654 0.583000 10848660
0.137200 0.025200 0.588000 10849171
0.137433 0.028609 0.589000 10914710
0.137667 0.032029 0.590000 10980502
0.138133 0.035520 0.592000 10915219
0.138833 0.039100 0.595000 11046290
0.139067 0.042571 0.596000 11177622
0.139533 0.046131 0.598000 11178136
0.140467 0.049880 0.602000 11177882
0.140700 0.053409 0.603000 11243420
0.140933 0.056949 0.604000 11309724
0.141167 0.060500 0.605000 11375005
0.141867 0.064274 0.608000 11375769
0.142567 0.068083 0.611000 11441308
0.142800 0.071691 0.612000 11441819
0.145848 -0.026571 0.620000 16449278
0.146553 -0.023140 0.623000 15196913
0.146789 -0.019611 0.624000 15064561
0.147259 -0.016097 0.626000 14801392
0.147730 -0.012560 0.628000 14604016
0.148906 -0.009043 0.633000 13551852
0.149141 -0.005434 0.634000 12892896
0.149611 -0.001817 0.636000 12103129
0.150552 0.001829 0.640000 11248595
0.151023 0.005503 0.642000 14202581
0.135968 0.008257 0.578000 10914209
0.135968 0.011560 0.578000 10913938
0.136673 0.014940 0.581000 10914451
0.136909 0.018291 0.582000 10914450
0.136909 0.021617 0.582000 10914197
0.137850 0.025114 0.586000 10914965
0.138085 0.028511 0.587000 10980504
0.138320 0.031920 0.588000 11046040
0.139026 0.035460 0.591000 11046294
0.139731 0.039034 0.594000 11112341
0.139967 0.042500 0.595000 11243417
0.140437 0.046054 0.597000 11243930
0.140908 0.049631 0.599000 11243932
0.141613 0.053320 0.602000 11309469
0.141849 0.056854 0.603000 11375774
0.142319 0.060500 0.605000 11441055
0.143025 0.064274 0.608000 11441821
0.143730 0.068083 0.611000 11507359
0.143966 0.071691 0.612000 11572896
0.147503 -0.026657 0.622000 16250878
0.147740 -0.023140 0.623000 15196145
0.148214 -0.019643 0.625000 14998768
0.148689 -0.016123 0.627000 14735600
0.148926 -0.012560 0.628000 14340847
0.150111 -0.009043 0.633000 13484778
0.150349 -0.005434 0.634000 12695264
0.151297 -0.001823 0.638000 11971030
0.151771 0.001829 0.640000 11116240
0.152246 0.005503 0.642000 13413588
0.136594 0.008229 0.576000 11507637
0.136594 0.011520 0.576000 10979986
0.137069 0.014863 0.578000 10980244
0.137543 0.018229 0.580000 10980498
0.137543 0.021543 0.580000 11045782
0.138254 0.024986 0.583000 11046551
0.138729 0.028414 0.585000 11046297
0.138966 0.031811 0.586000 11111322
0.139677 0.035340 0.589000 11112089
0.140626 0.038969 0.593000 11178136
0.140389 0.042286 0.592000 11309468
0.141337 0.045977 0.596000 11309724
0.142049 0.049631 0.599000 11375261
0.142286 0.053143 0.600000 11440799
0.142760 0.056760 0.602000 11441824
0.142997 0.060300 0.603000 11506848
0.143946 0.064169 0.607000 11507360
0.144183 0.067749 0.608000 11638690
0.144894 0.071574 0.611000 11638692
0.148927 -0.026700 0.623000 16054524
0.149166 -0.023177 0.624000 15196144
0.149405 -0.019643 0.625000 14932976
0.150122 -0.016149 0.628000 14604016
0.150361 -0.012580 0.629000 14144238
0.151317 -0.009043 0.633000 13354215
0.151556 -0.005434 0.634000 12498138
0.152751 -0.001826 0.639000 11773907
0.153230 0.001831 0.641000 10985165
0.153947 0.005520 0.644000 12625357
0.137213 0.008200 0.574000 12098758
0.137452 0.011500 0.575000 11045270
0.137930 0.014837 0.577000 11046039
0.138409 0.018197 0.579000 11046038
0.138648 0.021543 0.580000 11111320
0.139126 0.024943 0.582000 11112344
0.139604 0.028366 0.584000 11177371
0.140082 0.031811 0.586000 11177883
0.140560 0.035280 0.588000 11243419
0.141277 0.038837 0.591000 11243931
0.141516 0.042286 0.592000 11375518
0.141994 0.045823 0.594000 11375773
0.142472 0.049383 0.596000 11440799
0.143190 0.053054 0.599000 11506850
0.143429 0.056571 0.600000 11507362
0.143907 0.060200 0.602000 11573155
0.144624 0.063957 0.605000 11638691
0.145102 0.067637 0.607000 11704484
0.145580 0.071340 0.609000 11770022
0.149872 -0.026657 0.622000 15988217
0.150113 -0.023140 0.623000 15129584
0.150836 -0.019674 0.626000 14866927
0.151318 -0.016149 0.628000 14538223
0.151559 -0.012580 0.629000 14012652
0.152282 -0.009029 0.632000 13026021
0.152764 -0.005434 0.634000 12300756
0.153728 -0.001823 0.638000 11641808
0.154450 0.001831 0.641000 10853065
0.155173 0.005520 0.644000 11244229
0.138307 0.008200 0.574000 12365782
0.138307 0.011480 0.574000 11045531
0.138789 0.014811 0.576000 11046297
0.139270 0.018166 0.578000 11111833
0.139511 0.021506 0.579000 11177369
0.139993 0.024900 0.581000 11178137
0.140234 0.028269 0.582000 11243421
0.140957 0.031757 0.585000 11309469
0.141439 0.035220 0.587000 11375005
0.142162 0.038771 0.590000 11374750
0.142403 0.042214 0.591000 11441568
0.142885 0.045746 0.593000 11507102
0.143367 0.049300 0.595000 11572641
0.144090 0.052966 0.598000 11638437
0.144330 0.056477 0.599000 11638947
0.144812 0.060100 0.601000 11704743
0.145776 0.063957 0.605000 11770277
0.146017 0.067526 0.606000 11835813
0.146499 0.071223 0.608000 11836327
0.151057 -0.026657 0.622000 15989238
0.151543 -0.023177 0.624000 14998768
0.152271 -0.019706 0.627000 14735600
0.152514 -0.016149 0.628000 14472176
0.153243 -0.012620 0.631000 13946605
0.153729 -0.009043 0.633000 12696800
0.154214 -0.005443 0.635000 12103893
0.155186 -0.001826 0.639000 11444941
0.155914 0.001834 0.642000 10787016
0.156400 0.005520 0.644000 9867711
0.139400 0.008200 0.574000 12634587
0.139400 0.011480 0.574000 11045534
0.139643 0.014786 0.575000 11112090
0.140129 0.018134 0.577000 11177883
0.140371 0.021469 0.578000 11243674
0.141100 0.024900 0.581000 11243931
0.141343 0.028269 0.582000 11309214
0.142071 0.031757 0.585000 11375519
0.142314 0.035160 0.586000 11441055
0.143286 0.038771 0.590000 11441312
0.143529 0.042214 0.591000 11572642
0.143771 0.045669 0.592000 11638690
0.144257 0.049217 0.594000 11704483
0.144986 0.052877 0.597000 11704487
0.145229 0.056383 0.598000 11770278
0.145229 0.059800 0.598000 11770537
0.146686 0.063851 0.604000 11901611
0.147171 0.067526 0.606000 11901865
0.147657 0.071223 0.608000 11967914
0.152487 -0.026700 0.623000 15920627
0.152976 -0.023214 0.625000 14932720
0.153466 -0.019706 0.627000 14669040
0.153955 -0.016174 0.629000 14340848
0.154690 -0.012640 0.632000 13682670
0.155179 -0.009057 0.634000 12629980
0.155669 -0.005451 0.636000 11906261
0.156648 -0.001829 0.640000 11313097
0.157137 0.001834 0.642000 10655687
0.157871 0.005529 0.645000 9864889
0.140249 0.008186 0.573000 12828384
0.140249 0.011460 0.573000 11045281
0.140493 0.014760 0.574000 11178139
0.141228 0.018134 0.577000 11309468
0.141472 0.021469 0.578000 11309722
0.141962 0.024857 0.580000 11374750
0.142451 0.028269 0.582000 11375263
0.142941 0.031703 0.584000 11441313
0.143430 0.035160 0.586000 11506849
0.144165 0.038706 0.589000 11573154
0.144410 0.042143 0.590000 11638691
0.144654 0.045591 0.591000 11704741
0.145389 0.049217 0.594000 11704741
0.145878 0.052789 0.596000 11835817
0.146123 0.056289 0.597000 11836073
0.146368 0.059800 0.598000 11901868
0.147591 0.063746 0.603000 11967665
0.148081 0.067414 0.605000 12032942
0.148570 0.071106 0.607000 12033709
0.153920 -0.026743 0.624000 15784945
0.154167 -0.023214 0.625000 14801392
0.154660 -0.019706 0.627000 14537456
0.155153 -0.016174 0.629000 14143470
0.155893 -0.012640 0.632000 13419244
0.156387 -0.009057 0.634000 12563672
0.157373 -0.005469 0.638000 11708628
0.157867 -0.001829 0.640000 11116744
0.158853 0.001840 0.644000 10589378
0.159100 0.005529 0.645000 9865140
0.141093 0.008171 0.572000 13028304
0.141093 0.011440 0.572000 11046316
0.141340 0.014734 0.573000 11309470
0.141833 0.018071 0.575000 11375518
0.142327 0.021431 0.577000 11441310
0.143067 0.024857 0.580000 11506336
0.143313 0.028220 0.581000 11507105
0.144053 0.031703 0.584000 11507364
0.144547 0.035160 0.586000 11572643
0.145287 0.038706 0.589000 11704485
0.145533 0.042143 0.590000 11704743
0.145780 0.045591 0.591000 11770535
0.146520 0.049217 0.594000 11770794
0.147013 0.052789 0.596000 11901869
0.147260 0.056289 0.597000 11967405
0.147507 0.059800 0.598000 12033711
0.148493 0.063640 0.602000 12033714
0.148987 0.067303 0.604000 12165040
0.149480 0.070989 0.606000 12165042
0.149973 0.074697 0.608000 12231347
0.154860 -0.026700 0.623000 15589615
0.155606 -0.023251 0.626000 14735088
0.155854 -0.019706 0.627000 14406384
0.156351 -0.016174 0.629000 14011372
0.157097 -0.012640 0.632000 13287402
0.157594 -0.009057 0.634000 12365781
0.158589 -0.005469 0.638000 11510994
0.159334 -0.001831 0.641000 10919110
0.160329 0.001843 0.645000 10458045
0.160577 0.005537 0.646000 9996207
0.142183 0.008171 0.572000 12498112
0.142183 0.011440 0.572000 11241911
0.142431 0.014734 0.573000 11375264
0.142680 0.018040 0.574000 11507104
0.142929 0.021357 0.575000 11507105
0.143674 0.024771 0.578000 11572131
0.144420 0.028220 0.581000 11573155
0.144917 0.031649 0.583000 11638696
0.145414 0.035100 0.585000 11704485
0.145663 0.038509 0.586000 11770281
0.146409 0.042071 0.589000 11770794
0.146657 0.045514 0.590000 11901866
0.147403 0.049134 0.593000 11902127
0.147900 0.052700 0.595000 11967665
0.148397 0.056289 0.597000 12098737
0.148646 0.059800 0.598000 12165298
0.149391 0.063534 0.601000 12099763
0.149889 0.067191 0.603000 12296883
0.150386 0.070871 0.605000 12296630
0.151131 0.074697 0.608000 12362934
0.156548 -0.026786 0.625000 15389934
0.157049 -0.023289 0.627000 14669552
0.157049 -0.019706 0.627000 14340593
0.157550 -0.016174 0.629000 13814507
0.158551 -0.012660 0.633000 13156070
0.159052 -0.009071 0.635000 12169173
0.160054 -0.005477 0.639000 11313613
0.160555 -0.001831 0.641000 10656195
0.161557 0.001843 0.645000 10391995
0.162058 0.005546 0.647000 10127535
0.143272 0.008171 0.572000 12038572
0.143272 0.011440 0.572000 11376829
0.143523 0.014734 0.573000 11506594
0.143773 0.018040 0.574000 11572644
0.144024 0.021357 0.575000 11638437
0.144775 0.024771 0.578000 11638437
0.145276 0.028171 0.580000 11704742
0.145777 0.031594 0.582000 11704747
0.146278 0.035040 0.584000 11770537
0.146779 0.038509 0.586000 11836332
0.147280 0.042000 0.588000 11902382
0.147781 0.045514 0.590000 11967662
0.148532 0.049134 0.593000 11968178
0.148783 0.052611 0.594000 12033715
0.149284 0.056194 0.596000 12230323
0.149534 0.059700 0.597000 12231348
0.150536 0.063534 0.601000 12231094
0.151037 0.067191 0.603000 12362933
0.151538 0.070871 0.605000 12428217
0.152039 0.074574 0.607000 12494266
0.157990 -0.026829 0.626000 15129580
0.158495 -0.023326 0.628000 14537968
0.158495 -0.019737 0.628000 14142961
0.158748 -0.016174 0.629000 13813482
0.159757 -0.012660 0.633000 12892642
0.160514 -0.009086 0.636000 12036820
0.161271 -0.005477 0.639000 11182535
0.161776 -0.001831 0.641000 10589633
0.163038 0.001846 0.646000 10260664
0.163290 0.005546 0.647000 9996718
0.163290 0.009243 0.647000 11837336
0.144110 0.011420 0.571000 11573955
0.144362 0.014709 0.572000 11572388
0.144614 0.018009 0.573000 11638185
0.144867 0.021320 0.574000 11704233
0.145876 0.024771 0.578000 11769768
0.146129 0.028123 0.579000 11770280
0.146886 0.031594 0.582000 11836078
0.147138 0.034980 0.583000 11901868
0.147895 0.038509 0.586000 11967663
0.148400 0.042000 0.588000 11968177
0.148652 0.045437 0.589000 12098995
0.149662 0.049134 0.593000 12099765
0.149914 0.052611 0.594000 12165301
0.150419 0.056194 0.596000 12296629
0.150671 0.059700 0.597000 12297142
0.151681 0.063534 0.601000 12297401
0.152186 0.067191 0.603000 12428984
0.152690 0.070871 0.605000 12494523
0.153195 0.074574 0.607000 12625597
0.159183 -0.026829 0.626000 14933998
0.159691 -0.023326 0.628000 14406128
0.159691 -0.019737 0.628000 14011630
0.160454 -0.016226 0.631000 13747688
0.161217 -0.012680 0.634000 12629723
0.161726 -0.009086 0.636000 11904978
0.162489 -0.005477 0.639000 11051205
0.163251 -0.001834 0.642000 10524094
0.164269 0.001846 0.646000 10129076
0.164523 0.005546 0.647000 9865644
0.164523 0.009243 0.647000 11699352
0.144943 0.011400 0.570000 11775685
0.145451 0.014709 0.572000 11703975
0.145706 0.018009 0.573000 11638954
0.145960 0.021320 0.574000 11835564
0.146723 0.024729 0.577000 11835818
0.147231 0.028123 0.579000 11901613
0.147740 0.031540 0.581000 11902129
0.148249 0.034980 0.583000 11967663
0.148757 0.038443 0.585000 12033969
0.149520 0.042000 0.588000 12099763
0.149774 0.045437 0.589000 12165046
0.150791 0.049134 0.593000 12231607
0.151046 0.052611 0.594000 12296887
0.151300 0.056100 0.595000 12362935
0.151809 0.059700 0.597000 12363194
0.152571 0.063429 0.600000 12428989
0.153334 0.067191 0.603000 12429499
0.153843 0.070871 0.605000 12561087
0.154097 0.074451 0.606000 12691903
0.160375 -0.026829 0.626000 14801647
0.160888 -0.023326 0.628000 14339824
0.161144 -0.019769 0.629000 13880299
0.161912 -0.016251 0.632000 13550311
0.162425 -0.012680 0.634000 12432339
0.162937 -0.009086 0.636000 11773136
0.163706 -0.005477 0.639000 10919107
0.164474 -0.001834 0.642000 10393020
0.165499 0.001846 0.646000 10063536
0.165755 0.005546 0.647000 9799593
0.166011 0.009257 0.648000 11372951
0.145772 0.011380 0.569000 12565191
0.146285 0.014683 0.571000 11704490
0.146541 0.017977 0.572000 11770540
0.147053 0.021320 0.574000 11901614
0.147822 0.024729 0.577000 11967148
0.148078 0.028074 0.578000 11967665
0.148590 0.031486 0.580000 12033460
0.149103 0.034920 0.582000 12099506
0.149871 0.038443 0.585000 12165299
0.150384 0.041929 0.587000 12165556
0.150896 0.045437 0.589000 12296633
0.151665 0.049051 0.592000 12297657
0.151921 0.052523 0.593000 12428473
0.152433 0.056100 0.595000 12428985
0.152946 0.059700 0.597000 12494526
0.153458 0.063323 0.599000 12560576
0.154227 0.067080 0.602000 12626623
0.154739 0.070754 0.604000 12692418
0.155251 0.074451 0.606000 12758209
0.161568 -0.026829 0.626000 14736111
0.162084 -0.023326 0.628000 14208751
0.162342 -0.019769 0.629000 13815018
0.163116 -0.016251 0.632000 13352931
0.163632 -0.012680 0.634000 12235988
0.164149 -0.009086 0.636000 11641547
0.164923 -0.005477 0.639000 10852546
0.165697 -0.001834 0.642000 10261434
0.166730 0.001846 0.646000 9997742
0.166988 0.005546 0.647000 9668775
0.167762 0.009286 0.650000 11039377
0.146856 0.011380 0.569000 13352393
0.147114 0.014657 0.570000 11704747
0.147372 0.017946 0.571000 11902126
0.147889 0.021283 0.573000 11967920
0.148663 0.024686 0.576000 12033199
0.149179 0.028074 0.578000 12099506
0.149695 0.031486 0.580000 12099510
0.150211 0.034920 0.582000 12230837
0.150728 0.038377 0.584000 12231094
0.151244 0.041857 0.586000 12296889
0.152018 0.045437 0.589000 12363194
0.152792 0.049051 0.592000 12364219
0.153309 0.052611 0.594000 12560315
0.153567 0.056100 0.595000 12495292
0.154083 0.059700 0.597000 12560832
0.154599 0.063323 0.599000 12692418
0.155373 0.067080 0.602000 12823746
0.155890 0.070754 0.604000 12823493
0.156406 0.074451 0.606000 12824516
0.163020 -0.026871 0.627000 14603758
0.163280 -0.023326 0.628000 14077166
0.163540 -0.019769 0.629000 13616617
0.164320 -0.016251 0.632000 13089759
0.164840 -0.012680 0.634000 12103381
0.165360 -0.009086 0.636000 11444423
0.166140 -0.005477 0.639000 10721473
0.166920 -0.001834 0.642000 10194871
0.167960 0.001846 0.646000 9866412
0.168220 0.005546 0.647000 9602981
0.168480 0.009257 0.648000 10386314
0.147160 0.011320 0.566000 14011339
0.148200 0.014657 0.570000 11835820
0.148460 0.017946 0.571000 11968176
0.148980 0.021283 0.573000 12033713
0.149760 0.024686 0.576000 12164531
0.150020 0.028026 0.577000 12165555
0.150540 0.031431 0.579000 12230840
0.151060 0.034860 0.581000 12362168
0.151840 0.038377 0.584000 12362681
0.152360 0.041857 0.586000 12428477
0.152880 0.045360 0.588000 12429499
0.153660 0.048969 0.591000 12495548
0.154180 0.052523 0.593000 12691902
0.154440 0.056006 0.594000 12626879
0.154960 0.059600 0.596000 12692417
0.155740 0.063323 0.599000 12824004
0.156520 0.067080 0.602000 12955076
0.157040 0.070754 0.604000 12890055
0.157560 0.074451 0.606000 12956104
0.164214 -0.030454 0.627000 16181998
0.164214 -0.026871 0.627000 14406382
0.164476 -0.023326 0.628000 13945581
0.164738 -0.019769 0.629000 13484773
0.165524 -0.016251 0.632000 12827354
0.166048 -0.012680 0.634000 12037073
0.166571 -0.009086 0.636000 11247812
0.167357 -0.005477 0.639000 10589629
0.167881 -0.001831 0.641000 10063541
0.169190 0.001846 0.646000 9800618
0.169452 0.005546 0.647000 9471651
0.170238 0.009286 0.650000 9730703
0.147976 0.011300 0.565000 14664647
0.149024 0.014631 0.569000 11966895
0.149286 0.017914 0.570000 12033971
0.149810 0.021246 0.572000 12099509
0.150857 0.024686 0.576000 12230839
0.151119 0.028026 0.577000 12297143
0.151643 0.031431 0.579000 12297146
0.152167 0.034860 0.581000 12493500
0.152690 0.038311 0.583000 12428731
0.153476 0.041857 0.586000 12560061
0.154000 0.045360 0.588000 12495550
0.154524 0.048886 0.590000 12561344
0.155048 0.052434 0.592000 12757953
0.155571 0.056006 0.594000 12758722
0.156357 0.059700 0.597000 12824260
0.156881 0.063323 0.599000 12955846
0.157667 0.067080 0.602000 13021127
0.157929 0.070637 0.603000 13021896
0.158452 0.074329 0.605000 13087434
0.165409 -0.030454 0.627000 15985647
0.165409 -0.026871 0.627000 14340333
0.165672 -0.023326 0.628000 13813739
0.166464 -0.019831 0.631000 13353184
0.166728 -0.016251 0.632000 12695510
0.167255 -0.012680 0.634000 11839692
0.167783 -0.009086 0.636000 11051202
0.168574 -0.005477 0.639000 10458552
0.169102 -0.001831 0.641000 10063282
0.170157 0.001843 0.645000 9734823
0.170685 0.005546 0.647000 9471649
0.170949 0.009257 0.648000 9337235
0.149052 0.011300 0.565000 14734276
0.149844 0.014606 0.568000 12099249
0.150371 0.017914 0.570000 12165302
0.151163 0.021283 0.573000 12165560
0.151690 0.024643 0.575000 12296891
0.152218 0.028026 0.577000 12428474
0.152482 0.031377 0.578000 12428732
0.153273 0.034860 0.581000 12560063
0.153801 0.038311 0.583000 12495037
0.154592 0.041857 0.586000 12626621
0.155120 0.045360 0.588000 12626882
0.155648 0.048886 0.590000 12692932
0.156175 0.052434 0.592000 12889541
0.156703 0.056006 0.594000 12824773
0.157230 0.059600 0.596000 12955591
0.157758 0.063217 0.598000 13021896
0.158550 0.066969 0.601000 13087179
0.159077 0.070637 0.603000 13087945
0.159605 0.074329 0.605000 13153485
0.166603 -0.030454 0.627000 15787501
