# .PCD v.7 - Point Cloud Data file format
VERSION .7
FIELDS x y z rgb
SIZE 4 4 4 4
TYPE F F F I
COUNT 1 1 1 1
WIDTH 1309
HEIGHT 1
POINTS 1309
DATA ascii
0.293085 -0.147544 0.701000 8682390
0.293921 -0.143948 0.703000 8615303
0.265909 -0.126594 0.636000 10793367
0.266745 -0.123347 0.638000 10259375
0.267163 -0.119889 0.639000 10849694
0.268417 -0.116783 0.642000 10850208
0.270090 -0.113819 0.646000 11047587
0.270508 -0.110298 0.647000 10983079
0.270926 -0.106766 0.648000 11179949
0.272180 -0.103540 0.651000 11377071
0.273016 -0.100127 0.653000 11508913
0.274689 -0.096986 0.657000 11706039
0.275107 -0.093373 0.658000 11838141
0.276361 -0.090022 0.661000 12035264
0.277197 -0.086506 0.663000 12167361
0.278870 -0.083216 0.667000 12233927
0.279706 -0.079643 0.669000 12496333
0.281796 -0.076387 0.674000 12563152
0.282632 -0.072750 0.676000 12760274
0.283887 -0.069193 0.679000 12957397
0.285559 -0.065698 0.683000 13220058
0.285977 -0.061886 0.684000 13352157
0.291480 -0.165899 0.694000 11711420
0.291900 -0.162167 0.695000 9602457
0.292740 -0.158650 0.697000 9339544
0.294000 -0.155333 0.700000 9076885
0.294000 -0.151333 0.700000 9010835
0.294420 -0.147544 0.701000 8682385
0.295260 -0.143948 0.703000 8419462
0.267120 -0.126594 0.636000 10656393
0.267960 -0.123347 0.638000 10389941
0.268380 -0.119889 0.639000 10915489
0.270480 -0.117147 0.644000 10982051
0.271320 -0.113819 0.646000 11113894
0.271740 -0.110298 0.647000 11114924
0.272160 -0.106766 0.648000 11311282
0.273420 -0.103540 0.651000 11508658
0.274260 -0.100127 0.653000 11574964
0.275940 -0.096986 0.657000 11837884
0.276360 -0.093373 0.658000 12035009
0.277620 -0.090022 0.661000 12166343
0.278460 -0.086506 0.663000 12298951
0.280140 -0.083216 0.667000 12365772
0.280980 -0.079643 0.669000 12627921
0.283080 -0.076387 0.674000 12694996
0.283920 -0.072750 0.676000 12891606
0.285180 -0.069193 0.679000 13154777
0.286860 -0.065698 0.683000 13286109
0.292802 -0.165899 0.694000 12036277
0.293224 -0.162167 0.695000 9667483
0.293224 -0.158195 0.695000 9405081
0.294490 -0.154890 0.698000 9142422
0.294490 -0.150901 0.698000 9010834
0.295333 -0.147333 0.700000 8747920
0.295755 -0.143538 0.701000 8157323
0.269175 -0.126992 0.638000 10524042
0.269175 -0.123347 0.638000 10523319
0.269597 -0.119889 0.639000 11047075
0.271707 -0.117147 0.644000 11048103
0.272550 -0.113819 0.646000 11180203
0.272972 -0.110298 0.647000 11246255
0.273394 -0.106766 0.648000 11442613
0.274660 -0.103540 0.651000 11640245
0.275504 -0.100127 0.653000 11706808
0.276770 -0.096838 0.656000 11904191
0.277613 -0.093373 0.658000 12166339
0.278879 -0.090022 0.661000 12233159
0.279723 -0.086506 0.663000 12430538
0.281410 -0.083216 0.667000 12497615
0.282254 -0.079643 0.669000 12759506
0.284364 -0.076387 0.674000 12826582
0.286051 -0.072966 0.678000 13022680
0.287739 -0.069499 0.682000 13286361
0.288583 -0.065794 0.684000 13352160
0.294124 -0.165899 0.694000 12496558
0.294548 -0.162167 0.695000 9733789
0.294548 -0.158195 0.695000 9470873
0.295395 -0.154668 0.697000 9076630
0.295819 -0.150901 0.698000 8945296
0.296667 -0.147333 0.700000 8747919
0.297090 -0.143538 0.701000 8288911
0.270390 -0.126992 0.638000 10523530
0.270390 -0.123347 0.638000 10718393
0.270814 -0.119889 0.639000 11113381
0.272933 -0.117147 0.644000 11113899
0.273781 -0.113819 0.646000 11311279
0.274205 -0.110298 0.647000 11377331
0.274629 -0.106766 0.648000 11574455
0.275900 -0.103540 0.651000 11772088
0.276748 -0.100127 0.653000 11838396
0.278443 -0.096986 0.657000 12101569
0.278867 -0.093373 0.658000 12233668
0.280562 -0.090158 0.662000 12431815
0.281833 -0.086767 0.665000 12562637
0.282681 -0.083216 0.667000 12694738
0.283952 -0.079762 0.670000 12891858
0.285648 -0.076387 0.674000 13023704
0.287767 -0.073073 0.679000 13154778
0.289038 -0.069499 0.682000 13352665
0.289886 -0.065794 0.684000 13483490
0.295446 -0.165899 0.694000 12889008
0.295871 -0.162167 0.695000 9864096
0.295871 -0.158195 0.695000 9470874
0.295871 -0.154224 0.695000 9076630
0.297149 -0.150901 0.698000 8879760
0.297149 -0.146912 0.698000 8747920
0.298000 -0.143333 0.700000 8419472
0.271606 -0.126992 0.638000 10520714
0.271606 -0.123347 0.638000 10851771
0.272457 -0.120076 0.640000 11245481
0.274160 -0.117147 0.644000 11180205
0.274586 -0.113643 0.645000 11377074
0.275437 -0.110298 0.647000 11443381
0.275863 -0.106766 0.648000 11706299
0.277566 -0.103699 0.652000 11903932
0.278843 -0.100433 0.655000 11969984
0.279694 -0.096986 0.657000 12233413
0.280120 -0.093373 0.658000 12366024
0.281823 -0.090158 0.662000 12563148
0.283526 -0.086897 0.666000 12694736
0.284803 -0.083466 0.669000 12826580
0.285654 -0.079881 0.671000 13023958
0.287357 -0.076500 0.675000 13155544
0.289060 -0.073073 0.679000 13352156
0.290763 -0.069601 0.683000 13418456
0.292040 -0.065987 0.686000 13614294
0.296340 -0.165660 0.693000 12956081
0.296768 -0.161933 0.694000 9996706
0.296768 -0.157968 0.694000 9470875
0.298050 -0.154668 0.697000 9076630
0.298050 -0.150685 0.697000 8879505
0.298478 -0.146912 0.698000 8682384
0.298478 -0.142924 0.698000 8419472
0.272821 -0.126992 0.638000 10521738
0.272821 -0.123347 0.638000 10981822
0.273676 -0.120076 0.640000 11311277
0.275387 -0.117147 0.644000 11377327
0.276242 -0.113819 0.646000 11509173
0.276670 -0.110298 0.647000 11640504
0.277097 -0.106766 0.648000 11838142
0.278380 -0.103540 0.651000 12035776
0.279235 -0.100127 0.653000 12102340
0.280518 -0.096838 0.656000 12365257
0.281373 -0.093373 0.658000 12497356
0.283084 -0.090158 0.662000 12694481
0.285222 -0.087028 0.667000 12826067
0.286505 -0.083590 0.670000 13024471
0.287360 -0.080000 0.672000 13155545
0.289070 -0.076613 0.676000 13287129
0.290353 -0.073073 0.679000 13418206
0.292064 -0.069601 0.683000 13484247
0.293774 -0.066083 0.687000 13613257
0.297660 -0.165660 0.693000 12954289
0.296801 -0.161233 0.691000 10194344
0.297660 -0.157740 0.693000 9405340
0.298519 -0.154224 0.695000 9076630
0.299378 -0.150685 0.697000 8879505
0.298519 -0.146281 0.695000 8681875
0.298519 -0.142310 0.695000 8419214
0.274036 -0.126992 0.638000 10518155
0.274036 -0.123347 0.638000 11116226
0.274466 -0.119889 0.639000 11377328
0.276613 -0.117147 0.644000 11509171
0.277472 -0.113819 0.646000 11706040
0.277902 -0.110298 0.647000 11772605
0.278331 -0.106766 0.648000 11969987
0.280050 -0.103699 0.652000 12167363
0.281338 -0.100433 0.655000 12300997
0.282197 -0.096986 0.657000 12497101
0.283486 -0.093657 0.660000 12694481
0.284774 -0.090294 0.663000 12826579
0.287351 -0.087289 0.669000 12957397
0.288210 -0.083715 0.671000 13155802
0.289499 -0.080238 0.674000 13287129
0.291217 -0.076840 0.678000 13352665
0.292076 -0.073181 0.680000 13549525
0.293365 -0.069601 0.683000 13547977
0.295083 -0.066083 0.687000 13677762
0.298117 -0.165182 0.691000 13019056
0.298117 -0.161233 0.691000 10391725
0.298117 -0.157285 0.691000 9471134
0.299411 -0.154002 0.694000 9076374
0.299411 -0.150036 0.694000 8879505
0.299843 -0.146281 0.695000 8682134
0.299843 -0.142310 0.695000 8353420
0.274389 -0.126594 0.636000 10520203
0.274389 -0.122960 0.636000 11311303
0.276114 -0.120076 0.640000 11508915
0.277840 -0.117147 0.644000 11640502
0.278703 -0.113819 0.646000 11837883
0.279134 -0.110298 0.647000 11904450
0.279566 -0.106766 0.648000 12101575
0.281723 -0.103858 0.653000 12364743
0.282586 -0.100433 0.655000 12432070
0.283449 -0.096986 0.657000 12628689
0.284743 -0.093657 0.660000 12826069
0.286037 -0.090294 0.663000 13023957
0.289057 -0.087419 0.670000 13155543
0.289489 -0.083715 0.671000 13287134
0.291214 -0.080357 0.675000 13418456
0.292509 -0.076840 0.678000 13418713
0.294234 -0.073396 0.682000 13547979
0.294666 -0.069601 0.683000 13610427
0.297254 -0.066275 0.689000 13743291
0.299000 -0.164943 0.690000 13018539
0.299000 -0.161000 0.690000 10588346
0.299000 -0.157057 0.690000 9470876
0.299433 -0.153336 0.691000 9076118
0.300300 -0.149820 0.693000 8879505
0.300733 -0.146070 0.694000 8616339
0.300733 -0.142105 0.694000 8287886
0.275600 -0.126594 0.636000 10516619
0.276467 -0.123347 0.638000 11511241
0.277333 -0.120076 0.640000 11706038
0.279067 -0.117147 0.644000 11772091
0.279933 -0.113819 0.646000 11969983
0.280367 -0.110298 0.647000 11970500
0.281667 -0.107095 0.650000 12233418
0.282967 -0.103858 0.653000 12496586
0.284267 -0.100587 0.656000 12628941
0.285133 -0.097133 0.658000 12760530
0.286433 -0.093799 0.661000 13022934
0.288167 -0.090567 0.665000 13221080
0.290333 -0.087419 0.670000 13352924
0.291200 -0.083840 0.672000 13418205
0.292933 -0.080476 0.676000 13549272
0.293800 -0.076840 0.678000 13482696
0.295533 -0.073396 0.682000 13547199
0.295967 -0.069601 0.683000 13676217
0.298567 -0.066275 0.689000 13808569
0.300314 -0.164943 0.690000 12821159
0.300314 -0.161000 0.690000 10919366
0.300314 -0.157057 0.690000 9536411
0.300314 -0.153114 0.690000 9076374
0.300750 -0.149388 0.691000 8879249
0.301620 -0.145860 0.693000 8616336
0.301620 -0.141900 0.693000 8353425
0.276811 -0.126594 0.636000 10520459
0.277682 -0.123347 0.638000 11640266
0.278552 -0.120076 0.640000 11837624
0.280293 -0.117147 0.644000 11903680
0.280729 -0.113643 0.645000 12101570
0.281599 -0.110298 0.647000 12167622
0.282905 -0.107095 0.650000 12431052
0.284210 -0.103858 0.653000 12628429
0.285516 -0.100587 0.656000 12760532
0.286387 -0.097133 0.658000 12892371
0.288128 -0.093941 0.662000 13155031
0.289433 -0.090567 0.665000 13352667
0.291610 -0.087419 0.670000 13352929
0.293350 -0.084090 0.674000 13549788
0.295091 -0.080714 0.678000 13482456
0.295091 -0.076840 0.678000 13479094
0.295962 -0.073181 0.680000 13610419
0.296832 -0.069499 0.682000 13675959
0.301191 -0.164704 0.689000 12624036
0.301191 -0.160767 0.689000 11250634
0.301191 -0.156830 0.689000 9601692
0.301191 -0.152892 0.689000 9010839
0.301629 -0.149171 0.690000 8813711
0.302066 -0.145439 0.691000 8616335
0.302940 -0.141900 0.693000 8418958
0.278023 -0.126594 0.636000 10583690
0.278023 -0.122960 0.636000 11774415
0.278897 -0.119701 0.638000 11968956
0.280646 -0.116783 0.642000 12035779
0.281957 -0.113643 0.645000 12233415
0.282831 -0.110298 0.647000 12365258
0.284143 -0.107095 0.650000 12628430
0.285454 -0.103858 0.653000 12694737
0.287203 -0.100740 0.657000 12957653
0.287640 -0.097133 0.658000 13023958
0.289389 -0.093941 0.662000 13286617
0.290700 -0.090567 0.665000 13483739
0.292886 -0.087419 0.670000 13418458
0.294634 -0.084090 0.674000 13679050
0.296383 -0.080714 0.678000 13481924
0.296383 -0.076840 0.678000 13478325
0.297257 -0.073181 0.680000 13675188
0.302504 -0.164704 0.689000 12689057
0.301626 -0.160300 0.687000 11512013
0.302504 -0.156830 0.689000 9535902
0.302504 -0.152892 0.689000 9076375
0.302943 -0.149171 0.690000 8813710
0.302943 -0.145229 0.690000 8681869
0.302943 -0.141286 0.690000 8353419
0.279234 -0.126594 0.636000 10585992
0.279234 -0.122960 0.636000 11903956
0.280112 -0.119701 0.638000 12101055
0.281869 -0.116783 0.642000 12233157
0.283186 -0.113643 0.645000 12364747
0.284064 -0.110298 0.647000 12497358
0.285381 -0.107095 0.650000 12760272
0.286259 -0.103699 0.652000 12891861
0.288015 -0.100587 0.656000 13023445
0.288454 -0.096986 0.657000 13155289
0.290210 -0.093799 0.661000 13286875
0.291967 -0.090567 0.665000 13418204
0.294162 -0.087419 0.670000 13351891
0.295040 -0.083840 0.672000 13543865
0.296796 -0.080476 0.676000 13479088
0.297674 -0.076840 0.678000 13543349
0.298113 -0.073073 0.679000 13609908
0.303816 -0.164704 0.689000 12754594
0.302493 -0.160067 0.686000 11775935
0.302493 -0.156147 0.686000 9405864
0.302493 -0.152227 0.686000 9141911
0.302934 -0.148523 0.687000 8813711
0.302934 -0.144597 0.687000 8812686
0.303816 -0.141081 0.689000 8222346
0.280446 -0.126594 0.636000 10648466
0.280446 -0.122960 0.636000 12038356
0.281769 -0.119889 0.639000 12298434
0.283091 -0.116783 0.642000 12365000
0.284414 -0.113643 0.645000 12495821
0.285296 -0.110298 0.647000 12628944
0.286619 -0.107095 0.650000 12957651
0.287501 -0.103699 0.652000 13089239
0.289265 -0.100587 0.656000 13155032
0.290147 -0.097133 0.658000 13286620
0.291910 -0.093941 0.662000 13352666
0.293674 -0.090703 0.666000 13351374
0.294997 -0.087289 0.669000 13350335
0.297202 -0.084090 0.674000 13411759
0.298084 -0.080476 0.676000 13478319
0.298966 -0.076840 0.678000 13609395
0.302914 -0.159600 0.684000 12233393
0.303800 -0.156147 0.686000 9602483
0.302914 -0.151783 0.684000 9207958
0.303800 -0.148307 0.686000 8813712
0.304243 -0.144597 0.687000 8681870
0.304243 -0.140671 0.687000 8353674
0.304243 -0.136746 0.687000 10718876
0.282543 -0.123347 0.638000 12102357
0.283429 -0.120076 0.640000 12364741
0.284314 -0.116783 0.642000 12497099
0.285643 -0.113643 0.645000 12628942
0.286529 -0.110298 0.647000 12826066
0.288300 -0.107260 0.651000 13089237
0.289186 -0.103858 0.653000 13220825
0.290514 -0.100587 0.656000 13286619
0.292286 -0.097429 0.660000 13549535
0.293614 -0.094083 0.663000 13286360
0.294943 -0.090703 0.666000 13282752
0.296271 -0.087289 0.669000 13281451
0.298929 -0.084214 0.675000 13411238
0.299371 -0.080476 0.676000 13412782
0.304217 -0.159600 0.684000 12691113
0.304217 -0.155691 0.684000 9801394
0.304217 -0.151783 0.684000 9273496
0.304217 -0.147874 0.684000 8813713
0.305107 -0.144387 0.686000 8550797
0.305107 -0.140467 0.686000 8484743
0.306441 -0.137144 0.689000 10847898
0.284203 -0.123540 0.639000 12170710
0.284203 -0.119889 0.639000 12496073
0.285537 -0.116783 0.642000 12628942
0.286871 -0.113643 0.645000 12760786
0.287761 -0.110298 0.647000 12957909
0.289540 -0.107260 0.651000 13220823
0.291319 -0.104176 0.655000 13352154
0.292209 -0.100740 0.657000 13418458
0.293988 -0.097576 0.661000 13745360
0.295767 -0.094367 0.665000 13220034
0.296211 -0.090703 0.666000 13215155
0.297546 -0.087289 0.669000 13214123
0.300214 -0.084214 0.675000 13346215
0.300659 -0.080476 0.676000 13412527
0.305073 -0.159367 0.683000 12756640
0.305520 -0.155691 0.684000 10130609
0.305073 -0.151561 0.683000 9207962
0.305520 -0.147874 0.684000 8879250
0.305520 -0.143966 0.684000 8550795
0.306413 -0.140467 0.686000 8616068
0.305073 -0.135950 0.683000 10982808
0.285420 -0.123540 0.639000 12234198
0.285420 -0.119889 0.639000 12628684
0.287653 -0.117147 0.644000 12760273
0.288100 -0.113643 0.645000 12892118
0.289440 -0.110469 0.648000 13089497
0.290780 -0.107260 0.651000 13286616
0.293013 -0.104335 0.656000 13483739
0.293907 -0.100893 0.658000 13352408
0.295247 -0.097576 0.661000 13481153
0.297033 -0.094367 0.665000 13216171
0.297480 -0.090703 0.666000 13214119
0.298820 -0.087289 0.669000 13214379
0.301500 -0.084214 0.675000 13346216
0.306374 -0.159367 0.683000 12820387
0.306374 -0.155464 0.683000 10460855
0.305926 -0.151339 0.682000 9207960
0.305926 -0.147442 0.682000 8879251
0.305926 -0.143545 0.682000 8616333
0.306374 -0.139852 0.683000 8745861
0.305926 -0.135750 0.682000 11054494
0.286637 -0.123540 0.639000 12302041
0.286637 -0.119889 0.639000 12761041
0.288880 -0.117147 0.644000 12891861
0.289777 -0.113819 0.646000 13089240
0.290674 -0.110469 0.648000 13221085
0.292469 -0.107425 0.652000 13351897
0.294711 -0.104494 0.657000 13614038
0.296057 -0.101200 0.660000 13286082
0.296506 -0.097576 0.661000 13216952
0.300094 -0.094934 0.669000 13148844
0.298749 -0.090703 0.666000 13214377
0.300094 -0.087289 0.669000 13279919
0.307675 -0.159367 0.683000 12755109
0.307225 -0.155236 0.682000 11513021
0.306324 -0.150895 0.680000 9209238
0.306324 -0.147010 0.680000 8879251
0.306324 -0.143124 0.680000 8681871
0.307225 -0.139648 0.682000 8549766
0.288755 -0.127590 0.641000 11906468
0.287854 -0.123540 0.639000 12431323
0.288305 -0.120076 0.640000 12957653
0.290557 -0.117329 0.645000 13088728
0.291008 -0.113819 0.646000 13220826
0.293260 -0.110980 0.651000 13287393
0.294161 -0.107590 0.653000 13352153
0.295963 -0.104494 0.657000 13415377
0.297765 -0.101353 0.661000 13281963
0.300017 -0.098314 0.666000 13214894
0.301819 -0.095076 0.670000 13148844
0.300017 -0.090703 0.666000 13214379
0.308976 -0.159367 0.683000 12754596
0.307619 -0.154781 0.680000 12560567
0.307167 -0.150673 0.679000 9275807
0.306714 -0.146577 0.678000 8879511
0.306714 -0.142703 0.678000 8747408
0.307167 -0.139033 0.679000 8286855
0.290429 -0.127789 0.642000 12702404
0.289976 -0.123927 0.641000 12563164
0.289524 -0.120076 0.640000 13089240
0.291333 -0.117147 0.644000 13286107
0.292238 -0.113819 0.646000 13417947
0.294500 -0.110980 0.651000 13286872
0.295405 -0.107590 0.653000 13351880
0.297214 -0.104494 0.657000 13216957
0.299024 -0.101353 0.661000 13279661
0.301738 -0.098462 0.667000 13214892
0.303548 -0.095218 0.671000 13083564
0.310277 -0.159367 0.683000 12754595
0.308914 -0.154781 0.680000 12693937
0.308460 -0.150673 0.679000 9670568
0.308006 -0.146577 0.678000 9076635
0.307097 -0.142282 0.676000 8747409
0.308006 -0.138829 0.678000 8155529
0.291651 -0.127789 0.642000 13093603
0.291197 -0.123927 0.641000 12824796
0.291197 -0.120264 0.641000 13220826
0.293014 -0.117329 0.645000 13482973
0.293469 -0.113819 0.646000 13352668
0.296194 -0.111150 0.652000 13285327
0.297557 -0.107919 0.655000 13281975
0.298920 -0.104653 0.658000 13213865
0.300283 -0.101353 0.661000 13214638
0.303009 -0.098462 0.667000 13214890
0.304826 -0.095218 0.671000 13018028
0.309753 -0.154553 0.679000 12757166
0.309297 -0.150451 0.678000 10129345
0.308385 -0.146145 0.676000 9207961
0.307929 -0.142071 0.675000 8812694
0.307929 -0.138214 0.675000 7957898
0.291962 -0.127390 0.640000 13495536
0.292418 -0.123927 0.641000 13088217
0.292418 -0.120264 0.641000 13352410
0.294699 -0.117510 0.646000 13614297
0.295155 -0.113995 0.647000 13352656
0.297892 -0.111321 0.653000 13218494
0.298805 -0.107919 0.655000 13213361
0.300173 -0.104653 0.658000 13214119
0.301542 -0.101353 0.661000 13215152
0.305191 -0.098757 0.669000 13149354
0.310589 -0.154326 0.678000 12820907
0.310589 -0.150451 0.678000 10986201
0.309214 -0.145929 0.675000 9076630
0.308756 -0.141861 0.674000 8748187
0.308756 -0.138010 0.674000 7626636
0.293181 -0.127390 0.640000 13818620
0.293181 -0.123733 0.640000 13155031
0.295013 -0.120827 0.644000 13418202
0.295930 -0.117510 0.646000 13418197
0.298220 -0.114700 0.651000 13217476
0.299136 -0.111321 0.653000 13215150
0.300052 -0.107919 0.655000 13148330
0.300969 -0.104494 0.657000 13214630
0.302801 -0.101353 0.661000 13149618
0.306466 -0.098757 0.669000 13149353
0.311880 -0.154326 0.678000 12885670
0.310960 -0.150008 0.676000 11907019
0.310500 -0.145929 0.675000 8882345
0.310040 -0.141861 0.674000 8748956
0.310040 -0.138010 0.674000 7305376
0.295320 -0.127789 0.642000 14212852
0.294860 -0.123927 0.641000 13220566
0.296700 -0.121014 0.645000 13483731
0.297620 -0.117692 0.647000 13218494
0.299460 -0.114700 0.651000 13149365
0.300380 -0.111321 0.653000 13214891
0.301300 -0.107919 0.655000 13083048
0.302220 -0.104494 0.657000 13214376
0.313171 -0.154326 0.678000 12819617
0.311324 -0.149564 0.674000 12430269
0.311324 -0.145712 0.674000 9998523
0.310400 -0.141440 0.672000 9076636
0.310400 -0.137600 0.672000 9928373
0.296543 -0.127789 0.642000 14077675
0.296543 -0.124120 0.642000 13220822
0.297929 -0.121014 0.645000 13349068
0.299314 -0.117874 0.648000 13213863
0.300238 -0.114524 0.650000 13083557
0.301162 -0.111150 0.652000 13149608
0.302548 -0.107919 0.655000 13017254
0.311680 -0.149120 0.672000 12952492
0.311680 -0.145280 0.672000 11118785
0.311216 -0.141230 0.671000 9472184
0.299621 -0.132276 0.646000 12497609
0.299157 -0.128386 0.645000 13877204
0.298693 -0.124507 0.644000 13218755
0.299621 -0.121202 0.646000 13214646
0.301476 -0.118238 0.650000 13214377
0.301476 -0.114524 0.650000 13083559
0.302404 -0.111150 0.652000 13083819
0.303795 -0.107919 0.655000 13017512
0.312029 -0.148676 0.670000 12886171
0.312029 -0.144848 0.670000 12108232
0.310166 -0.140177 0.666000 11316179
0.300851 -0.132276 0.646000 13490909
0.300386 -0.128386 0.645000 13481661
0.300386 -0.124700 0.645000 13215153
0.301317 -0.121390 0.647000 13214623
0.303646 -0.118602 0.652000 13214635
0.302714 -0.114524 0.650000 13083305
0.311902 -0.148010 0.667000 12884895
0.311902 -0.144199 0.667000 13087928
0.311902 -0.140388 0.667000 13221831
0.302082 -0.132276 0.646000 14402763
0.301614 -0.128386 0.645000 13151156
0.301614 -0.124700 0.645000 13214636
0.303952 -0.121952 0.650000 13214372
0.304888 -0.118602 0.652000 13148842
0.313172 -0.148010 0.667000 12819619
0.312703 -0.143983 0.666000 13018792
0.310355 -0.139125 0.661000 13088699
0.305660 -0.133300 0.651000 13543354
0.303782 -0.128784 0.647000 13017770
0.303312 -0.124893 0.646000 13149096
0.305190 -0.121952 0.650000 13148841
0.314443 -0.148010 0.667000 12819874
0.313500 -0.143767 0.665000 12951975
0.310200 -0.138493 0.658000 12953771
0.306900 -0.133300 0.651000 12624304
0.305014 -0.128784 0.647000 12885929
0.304543 -0.124893 0.646000 13083562
0.305486 -0.121577 0.648000 13148330
0.315713 -0.148010 0.667000 12754593
0.313820 -0.143334 0.663000 12885671
0.311453 -0.138493 0.658000 12951963
0.308613 -0.133505 0.652000 12755111
0.306247 -0.128784 0.647000 12951464
0.305773 -0.124893 0.646000 13083821
0.315083 -0.143334 0.663000 12820136
0.312231 -0.138283 0.657000 12950944
0.309855 -0.133505 0.652000 12886438
0.307479 -0.128784 0.647000 13016999
0.307004 -0.124893 0.646000 13083305
0.313006 -0.138072 0.656000 12885925
0.311097 -0.133505 0.652000 12820902
0.314255 -0.138072 0.656000 12885926
0.312339 -0.133505 0.652000 12755366
0.313581 -0.133505 0.652000 12820646
0.192170 -0.112043 0.713000 9927558
0.192979 -0.108423 0.716000 10059396
0.194866 -0.105351 0.723000 10648452
0.193529 -0.112043 0.713000 9928334
0.193529 -0.107969 0.713000 10059914
0.195157 -0.104769 0.719000 10584201
0.195157 -0.100660 0.719000 11106676
0.192700 -0.122871 0.705000 9729407
0.194067 -0.115629 0.710000 9994122
0.194887 -0.112043 0.713000 9928848
0.194887 -0.107969 0.713000 10060683
0.195980 -0.104477 0.717000 10585993
0.196527 -0.100660 0.719000 10060418
0.194043 -0.126900 0.705000 10648449
0.193768 -0.122697 0.704000 9665922
0.194043 -0.118843 0.705000 9862782
0.194869 -0.115303 0.708000 10715795
0.195694 -0.111729 0.711000 10849938
0.196520 -0.108120 0.714000 10715788
0.197346 -0.104477 0.717000 10520201
0.197346 -0.100380 0.717000 10258831
0.195386 -0.126900 0.705000 10058878
0.195109 -0.122697 0.704000 9533577
0.195940 -0.119180 0.707000 10060177
0.196771 -0.115629 0.710000 11376544
0.197049 -0.111729 0.711000 11770016
0.197049 -0.107666 0.711000 11374748
0.198711 -0.104477 0.717000 10454166
0.199266 -0.100660 0.719000 10455191
0.196450 -0.130743 0.704000 10190732
0.196450 -0.126720 0.704000 9860731
0.196450 -0.122697 0.704000 10976144
0.196729 -0.118843 0.705000 11902627
0.198124 -0.115629 0.710000 12496045
0.198403 -0.111729 0.711000 12559789
0.198403 -0.107666 0.711000 12297388
0.200077 -0.104477 0.717000 11770274
0.200635 -0.100660 0.719000 10389407
0.200914 -0.096686 0.720000 10456472
0.196948 -0.130186 0.701000 10256007
0.197510 -0.126540 0.703000 9662346
0.197510 -0.122523 0.703000 12426660
0.198071 -0.118843 0.705000 13741477
0.198633 -0.115140 0.707000 13543596
0.199757 -0.111729 0.711000 13412012
0.199757 -0.107666 0.711000 13214122
0.201443 -0.104477 0.717000 13149352
0.201443 -0.100380 0.717000 10326686
0.202005 -0.096551 0.719000 10719132
0.198000 -0.130000 0.700000 9992835
0.198849 -0.126540 0.703000 11506840
0.199131 -0.122697 0.704000 13086391
0.199414 -0.118843 0.705000 13543591
0.199980 -0.115140 0.707000 13476779
0.200263 -0.111257 0.708000 13280426
0.202526 -0.100240 0.716000 11509150
0.204223 -0.096954 0.722000 10719135
0.198479 -0.133426 0.697000 10586263
0.198764 -0.129629 0.698000 9666957
0.200188 -0.126540 0.703000 13350820
0.200472 -0.122697 0.704000 13674932
0.200472 -0.118674 0.704000 13346217
0.203890 -0.100240 0.716000 12688286
0.205598 -0.096954 0.722000 10784928
0.199233 -0.133043 0.695000 10453650
0.200093 -0.129629 0.698000 11770263
0.200667 -0.126000 0.700000 13479599
0.201813 -0.122697 0.704000 13542832
0.205253 -0.100240 0.716000 12622751
0.206973 -0.096954 0.722000 11244192
0.200269 -0.132851 0.694000 10321541
0.201134 -0.129443 0.697000 13804711
0.201423 -0.125640 0.698000 13609136
0.203154 -0.122697 0.704000 13412273
0.208637 -0.097089 0.723000 11702943
0.201881 -0.137014 0.695000 10982568
0.201300 -0.132660 0.693000 10781048
0.202462 -0.129443 0.697000 13939895
0.202752 -0.125640 0.698000 13543856
0.210595 -0.097357 0.725000 11768733
0.202620 -0.140580 0.693000 11967150
0.202620 -0.136620 0.693000 10916259
0.202620 -0.132660 0.693000 11237512
0.202912 -0.128886 0.694000 14003889
0.203790 -0.125460 0.697000 13543854
0.211976 -0.097357 0.725000 11834269
0.203940 -0.140580 0.693000 11771314
0.203940 -0.136620 0.693000 10980510
0.203351 -0.132277 0.691000 11833751
0.203940 -0.128700 0.693000 13740715
0.213357 -0.097357 0.725000 11900060
0.204668 -0.140174 0.691000 11509684
0.204668 -0.136226 0.691000 10979992
0.204668 -0.132277 0.691000 12495271
0.205260 -0.128700 0.693000 13478060
0.214738 -0.097357 0.725000 11899801
0.204791 -0.139363 0.687000 11773109
0.205686 -0.136029 0.690000 10124689
0.205686 -0.132086 0.690000 12953270
0.205984 -0.128329 0.691000 13544364
0.214629 -0.092571 0.720000 11047832
0.206100 -0.139363 0.687000 12035513
0.206700 -0.135831 0.689000 9271958
0.207000 -0.132086 0.690000 13480116
0.216000 -0.092571 0.720000 10784921
0.207409 -0.139363 0.687000 12036284
0.208012 -0.135831 0.689000 9528220
0.208314 -0.132086 0.690000 13610673
0.209325 -0.139769 0.689000 12038333
0.209325 -0.135831 0.689000 9798295
0.209325 -0.131894 0.689000 13741745
0.218743 -0.092571 0.720000 10258318
0.210637 -0.139769 0.689000 12037054
0.210637 -0.135831 0.689000 10255763
0.210637 -0.131894 0.689000 13807025
0.220114 -0.092571 0.720000 9795971
0.211950 -0.139769 0.689000 12038333
0.211950 -0.135831 0.689000 10651793
0.211950 -0.131894 0.689000 13937840
0.221486 -0.092571 0.720000 9270906
0.213262 -0.139769 0.689000 11905723
0.212643 -0.135437 0.687000 10649230
0.222548 -0.092443 0.719000 9073009
0.213951 -0.139363 0.687000 11841211
0.213951 -0.135437 0.687000 10651280
0.223294 -0.092186 0.717000 8877173
0.215260 -0.139363 0.687000 11839675
0.215260 -0.135437 0.687000 10384531
0.224347 -0.096149 0.716000 9926782
0.224347 -0.092057 0.716000 8943226
0.216569 -0.143289 0.687000 12232628
0.216569 -0.139363 0.687000 11774906
0.216569 -0.135437 0.687000 10123923
0.225710 -0.096149 0.716000 9597565
0.225710 -0.092057 0.716000 8942968
0.217877 -0.143289 0.687000 12232628
0.217877 -0.139363 0.687000 11905209
0.217560 -0.135240 0.686000 9528979
0.224537 -0.095074 0.708000 9466747
0.226123 -0.091671 0.713000 8942967
0.218867 -0.139160 0.686000 12102330
0.218867 -0.135240 0.686000 8942226
0.224610 -0.102583 0.704000 9597818
0.224610 -0.098560 0.704000 9205113
0.225567 -0.094940 0.707000 9335673
0.226843 -0.091414 0.711000 8942709
0.227481 -0.087597 0.713000 9007732
0.220173 -0.139160 0.686000 12299194
0.220173 -0.135240 0.686000 9136528
0.225630 -0.102437 0.703000 9532794
0.225630 -0.098420 0.703000 9008506
0.226913 -0.094940 0.707000 9204599
0.227234 -0.091029 0.708000 9007987
0.226271 -0.086614 0.705000 9007733
0.221480 -0.139160 0.686000 12560309
0.220834 -0.134846 0.684000 9336466
0.226323 -0.106151 0.701000 9336440
0.226323 -0.102146 0.701000 9401464
0.226969 -0.098420 0.703000 8811384
0.227291 -0.094537 0.704000 9073268
0.227614 -0.090643 0.705000 9073523
0.227291 -0.086491 0.704000 9007476
0.227614 -0.082586 0.705000 9073265
0.222787 -0.139160 0.686000 12232880
0.222137 -0.134846 0.684000 9270677
0.222787 -0.131320 0.686000 10646612
0.226684 -0.105697 0.698000 9270905
0.227658 -0.102146 0.701000 9269877
0.228308 -0.098420 0.703000 8942710
0.228308 -0.094403 0.703000 9138800
0.228632 -0.090514 0.704000 9073523
0.228308 -0.086369 0.703000 9073267
0.228632 -0.082469 0.704000 9073266
0.224093 -0.139160 0.686000 11905200
0.223440 -0.134846 0.684000 9208211
0.224093 -0.131320 0.686000 9398626
0.224420 -0.127586 0.687000 12552826
0.228013 -0.105697 0.698000 9204598
0.228667 -0.102000 0.700000 9138805
0.228667 -0.098000 0.700000 9073525
0.228993 -0.094134 0.701000 9204081
0.229647 -0.090386 0.703000 9073780
0.228993 -0.086123 0.701000 9138806
0.229647 -0.082351 0.703000 9073525
0.225400 -0.139160 0.686000 11640495
0.224743 -0.134846 0.684000 9011346
0.224743 -0.130937 0.684000 9005423
0.225729 -0.127586 0.687000 10777455
0.229343 -0.109686 0.698000 9073512
0.229014 -0.105546 0.697000 9138803
0.229343 -0.101709 0.698000 9139060
0.229343 -0.097720 0.698000 9139316
0.230000 -0.094000 0.700000 9204338
0.230329 -0.090129 0.701000 9139318
0.230329 -0.086123 0.701000 9204857
0.230329 -0.082117 0.701000 9139576
0.226707 -0.139160 0.686000 11374488
0.225715 -0.134649 0.683000 8812931
0.226046 -0.130937 0.684000 8613228
0.227037 -0.127586 0.687000 8941940
0.227698 -0.124020 0.689000 9269874
0.230342 -0.121477 0.697000 9597559
0.229350 -0.116989 0.694000 9205113
0.229350 -0.113023 0.694000 8679798
0.229020 -0.108900 0.693000 8876655
0.229681 -0.105243 0.695000 9007734
0.230342 -0.101563 0.697000 9139062
0.230342 -0.097580 0.697000 9139317
0.230342 -0.093597 0.697000 9204595
0.230342 -0.089614 0.697000 9204854
0.231333 -0.086000 0.700000 9205114
0.231333 -0.082000 0.700000 9205368
0.231664 -0.078111 0.701000 9205370
0.227349 -0.142663 0.684000 10850712
0.228013 -0.139160 0.686000 10190465
0.226019 -0.134057 0.680000 8678261
0.227349 -0.130937 0.684000 8810089
0.228013 -0.127400 0.686000 9139833
0.228346 -0.123660 0.687000 9204343
0.231670 -0.121477 0.697000 9335415
0.229675 -0.116483 0.691000 9073273
0.228013 -0.111720 0.686000 8876406
0.229675 -0.108586 0.691000 9007734
0.230340 -0.104940 0.693000 9073272
0.230672 -0.101126 0.694000 9138807
0.230672 -0.097160 0.694000 9205110
0.229343 -0.092657 0.690000 9204852
0.229675 -0.088843 0.691000 9270646
0.232002 -0.085754 0.698000 9270651
0.232002 -0.081766 0.698000 9271417
0.232667 -0.078000 0.700000 9336698
0.227983 -0.142246 0.682000 9405838
0.228651 -0.138754 0.684000 9009793
0.227314 -0.134057 0.680000 8482422
0.227983 -0.130554 0.682000 9073006
0.228317 -0.126843 0.683000 9336184
0.228651 -0.123120 0.684000 9138295
0.229654 -0.119734 0.687000 9007477
0.228651 -0.115303 0.684000 8941692
0.228651 -0.111394 0.684000 9073015
0.229654 -0.107957 0.687000 9138296
0.229654 -0.104031 0.687000 9139064
0.230323 -0.100397 0.689000 9139064
0.230323 -0.096460 0.689000 9270648
0.230657 -0.092657 0.690000 9205111
0.230991 -0.088843 0.691000 9270903
0.231660 -0.085140 0.693000 9336187
0.231660 -0.081180 0.693000 9336953
0.231994 -0.077331 0.694000 9468027
0.232329 -0.073471 0.695000 9402491
0.229954 -0.142663 0.684000 9665412
0.228610 -0.137943 0.680000 9140864
0.228610 -0.134057 0.680000 8745592
0.229282 -0.130554 0.682000 9138546
0.229618 -0.126843 0.683000 9205111
0.229282 -0.122760 0.682000 9006966
0.229954 -0.119211 0.684000 9007475
0.229618 -0.115134 0.683000 9007999
0.229618 -0.111231 0.683000 9073017
0.230627 -0.107800 0.686000 9204345
0.230627 -0.103880 0.686000 9270137
0.230963 -0.100106 0.687000 9204856
0.230963 -0.096180 0.687000 9336185
0.231635 -0.092523 0.689000 9270906
0.231971 -0.088714 0.690000 9336697
0.232308 -0.084894 0.691000 9402235
0.232308 -0.080946 0.691000 9468025
0.232980 -0.077220 0.693000 9468027
0.233652 -0.073471 0.695000 9468284
0.229905 -0.141829 0.680000 9861762
0.229905 -0.137943 0.680000 9271678
0.229229 -0.133663 0.678000 8942200
0.229905 -0.130171 0.680000 9204340
0.230581 -0.126657 0.682000 9007736
0.229905 -0.122400 0.680000 8876149
0.229905 -0.118514 0.680000 9007988
0.229905 -0.114629 0.680000 9073789
0.230581 -0.111069 0.682000 9073528
0.231257 -0.107486 0.684000 9270136
0.231257 -0.103577 0.684000 9336185
0.231933 -0.099960 0.686000 9270903
0.232271 -0.096180 0.687000 9336697
0.232948 -0.092523 0.689000 9336955
0.233286 -0.088714 0.690000 9402745
0.233624 -0.084894 0.691000 9533564
0.233624 -0.080946 0.691000 9534074
0.234300 -0.077220 0.693000 9533820
0.234638 -0.073366 0.694000 9468797
0.230860 -0.141620 0.679000 9664640
0.230520 -0.137537 0.678000 9205883
0.229840 -0.133269 0.676000 9007479
0.230860 -0.129980 0.679000 9138549
0.230860 -0.126100 0.679000 9138553
0.230860 -0.122220 0.679000 8942196
0.230860 -0.118340 0.679000 9139318
0.230860 -0.114460 0.679000 9139322
0.231200 -0.110743 0.680000 9139319
0.232220 -0.107329 0.683000 9270647
0.232560 -0.103577 0.684000 9336441
0.233240 -0.099960 0.686000 9336694
0.233240 -0.096040 0.686000 9402234
0.233580 -0.092254 0.687000 9402492
0.234260 -0.088586 0.689000 9468537
0.234600 -0.084771 0.690000 9533820
0.234600 -0.080829 0.690000 9599611
0.234940 -0.076997 0.691000 9534077
0.235620 -0.073260 0.693000 9469054
0.231128 -0.140994 0.676000 9467773
0.230786 -0.136929 0.675000 9205625
0.230786 -0.133071 0.675000 9073015
0.231128 -0.129406 0.676000 9138548
0.231811 -0.125914 0.678000 9204344
0.231811 -0.122040 0.678000 9074293
0.231811 -0.118166 0.678000 9204852
0.231811 -0.114291 0.678000 9139065
0.232153 -0.110580 0.679000 9205110
0.232495 -0.106857 0.680000 9270905
0.232495 -0.102971 0.680000 9271162
0.233863 -0.099669 0.684000 9402487
0.234547 -0.096040 0.686000 9402490
0.234547 -0.092120 0.686000 9533821
0.234547 -0.088200 0.686000 9534075
0.235572 -0.084649 0.689000 9533821
0.235914 -0.080829 0.690000 9665148
0.236256 -0.076997 0.691000 9599870
0.236256 -0.073049 0.691000 9469311
0.232415 -0.140994 0.676000 9401722
0.231040 -0.136320 0.672000 9205111
0.231728 -0.132874 0.674000 9269623
0.232071 -0.129214 0.675000 9138803
0.232071 -0.125357 0.675000 9270391
0.232071 -0.121500 0.675000 9139574
0.232415 -0.117817 0.676000 9204849
0.233103 -0.114291 0.678000 9270391
0.233447 -0.110580 0.679000 9270645
0.233447 -0.106700 0.679000 9336442
0.233447 -0.102820 0.679000 9402234
0.235166 -0.099669 0.684000 9468280
0.235166 -0.095760 0.684000 9402747
0.235166 -0.091851 0.684000 9533821
0.235853 -0.088200 0.686000 9599357
0.236197 -0.084403 0.687000 9599614
0.236885 -0.080711 0.689000 9665405
0.237229 -0.076886 0.690000 9665407
0.237572 -0.073049 0.691000 9600640
0.231283 -0.139534 0.669000 9335930
0.231629 -0.135914 0.670000 9270391
0.231974 -0.132283 0.671000 9400694
0.233011 -0.129023 0.674000 9204852
0.233011 -0.125171 0.674000 9270392
0.233011 -0.121320 0.674000 9204856
0.233357 -0.117643 0.675000 9205108
0.233703 -0.113954 0.676000 9335928
0.234394 -0.110417 0.678000 9270903
0.234740 -0.106700 0.679000 9467771
0.234740 -0.102820 0.679000 9533565
0.235086 -0.099086 0.680000 9534075
0.235777 -0.095480 0.682000 9403005
0.236123 -0.091717 0.683000 9533822
0.236469 -0.087943 0.684000 9599615
0.237160 -0.084280 0.686000 9730943
0.237506 -0.080477 0.687000 9600127
0.238543 -0.076886 0.690000 9796738
0.238889 -0.073049 0.691000 9731458
0.231862 -0.146740 0.667000 9865394
0.231862 -0.142929 0.667000 9269377
0.231514 -0.138909 0.666000 9269882
0.232557 -0.135711 0.669000 9270390
0.233252 -0.132283 0.671000 9335413
0.233600 -0.128640 0.672000 9205108
0.234295 -0.125171 0.674000 9270392
0.233252 -0.120780 0.671000 9204858
0.234295 -0.117469 0.674000 9336183
0.234643 -0.113786 0.675000 9401976
0.234990 -0.110091 0.676000 9401721
0.234990 -0.106229 0.676000 9467771
0.235686 -0.102669 0.678000 9533568
0.236033 -0.098940 0.679000 9533821
0.236381 -0.095200 0.680000 9468287
0.237076 -0.091583 0.682000 9599614
0.237076 -0.087686 0.682000 9665409
0.237771 -0.084034 0.684000 9665663
0.238467 -0.080360 0.686000 9600130
0.239510 -0.076774 0.689000 9796740
0.239857 -0.072943 0.690000 9796740
0.240205 -0.069100 0.691000 9796996
0.238725 -0.158066 0.683000 13618157
0.234181 -0.151229 0.670000 13616624
0.232783 -0.146520 0.666000 10855113
0.232433 -0.142500 0.665000 9137273
0.232433 -0.138700 0.665000 9204343
0.232783 -0.135103 0.666000 9335925
0.233831 -0.131889 0.669000 9204852
0.233831 -0.128066 0.669000 9270900
0.233831 -0.124243 0.669000 9205110
0.234181 -0.120600 0.670000 9270139
0.234530 -0.116946 0.671000 9401976
0.234880 -0.113280 0.672000 9467513
0.234880 -0.109440 0.672000 9533306
0.235579 -0.105914 0.674000 9533564
0.235929 -0.102214 0.675000 9533567
0.235929 -0.098357 0.675000 9533567
0.237327 -0.095060 0.679000 9534078
0.237676 -0.091314 0.680000 9665408
0.237676 -0.087429 0.680000 9665665
0.239074 -0.084034 0.684000 9665917
0.239074 -0.080126 0.684000 9534850
0.240123 -0.076551 0.687000 9796484
0.240822 -0.072837 0.689000 9796996
0.241171 -0.069000 0.690000 9862533
0.242486 -0.159686 0.690000 13617900
0.235457 -0.151229 0.670000 13353961
0.232997 -0.145860 0.663000 12107744
0.232997 -0.142071 0.663000 9138800
0.232997 -0.138283 0.663000 9269619
0.233700 -0.134900 0.665000 9270387
0.234051 -0.131297 0.666000 9139315
0.235106 -0.128066 0.669000 9336180
0.235106 -0.124243 0.669000 9205364
0.235106 -0.120420 0.669000 9205372
0.235457 -0.116771 0.670000 9402490
0.235457 -0.112943 0.670000 9468026
0.235809 -0.109277 0.671000 9599098
0.236863 -0.105914 0.674000 9533820
0.236863 -0.102063 0.674000 9599102
0.237214 -0.098357 0.675000 9599616
0.238269 -0.094920 0.678000 9534334
0.238620 -0.091180 0.679000 9665409
0.238971 -0.087429 0.680000 9730946
0.239674 -0.083789 0.682000 9666171
0.240026 -0.080009 0.683000 9665923
0.240377 -0.076217 0.684000 9862532
0.241080 -0.072520 0.686000 9862787
0.242486 -0.069000 0.690000 9863046
0.243800 -0.163629 0.690000 14143725
0.244153 -0.159917 0.691000 13551337
0.236733 -0.151229 0.670000 13155814
0.233907 -0.145640 0.662000 13286881
0.233907 -0.141857 0.662000 9138320
0.233907 -0.138074 0.662000 9269877
0.234260 -0.134494 0.663000 9270389
0.234967 -0.131100 0.665000 9008246
0.235320 -0.127491 0.666000 9467255
0.235320 -0.123686 0.666000 9205367
0.235673 -0.120060 0.667000 9140348
0.236380 -0.116597 0.669000 9402235
0.236380 -0.112774 0.669000 9468029
0.236733 -0.109114 0.670000 9599354
0.236733 -0.105286 0.670000 9533820
0.238147 -0.102063 0.674000 9599102
0.238147 -0.098211 0.674000 9599871
0.238853 -0.094640 0.676000 9534846
0.239560 -0.091046 0.678000 9731202
0.239913 -0.087300 0.679000 9731203
0.240267 -0.083543 0.680000 9601150
0.240973 -0.079891 0.682000 9731971
0.241680 -0.076217 0.684000 9928580
0.242387 -0.072520 0.686000 9862787
0.242740 -0.068700 0.687000 9928836
0.245470 -0.167814 0.691000 15132119
0.245470 -0.163866 0.691000 13946348
0.246180 -0.160380 0.693000 13419495
0.246890 -0.156871 0.695000 12959203
0.235168 -0.145640 0.662000 12893409
0.234812 -0.141643 0.661000 9996208
0.234812 -0.137866 0.661000 9204600
0.234812 -0.134089 0.661000 9139574
0.235523 -0.130706 0.663000 9139577
0.236233 -0.127300 0.665000 9336442
0.236233 -0.123500 0.665000 9336699
0.236589 -0.119880 0.666000 9271164
0.236944 -0.116249 0.667000 9467772
0.236944 -0.112437 0.667000 9468032
0.237654 -0.108951 0.669000 9599354
0.238010 -0.105286 0.670000 9534076
0.238720 -0.101760 0.672000 9664895
0.239430 -0.098211 0.674000 9730942
0.239786 -0.094500 0.675000 9600382
0.240851 -0.091046 0.678000 9731202
0.241207 -0.087300 0.679000 9796740
0.241207 -0.083420 0.679000 9731968
0.242272 -0.079891 0.682000 9797507
0.242628 -0.076106 0.683000 9928836
0.243693 -0.072520 0.686000 9862786
0.243693 -0.068600 0.686000 9994370
0.247500 -0.168300 0.693000 15915740
0.246786 -0.163866 0.691000 13749995
0.247500 -0.160380 0.693000 13222373
0.248929 -0.157323 0.697000 12828129
0.236429 -0.145640 0.662000 12433371
0.235714 -0.141429 0.660000 10853318
0.235714 -0.137657 0.660000 9138809
0.235714 -0.133886 0.660000 9074296
0.236071 -0.130311 0.661000 9270647
0.236786 -0.126917 0.663000 9270906
0.236786 -0.123129 0.663000 9402236
0.237500 -0.119700 0.665000 9336445
0.237857 -0.116074 0.666000 9533563
0.237857 -0.112269 0.666000 9468031
0.238214 -0.108626 0.667000 9534074
0.239286 -0.105286 0.670000 9534333
0.240000 -0.101760 0.672000 9665152
0.240000 -0.097920 0.672000 9796735
0.241071 -0.094500 0.675000 9600383
0.241429 -0.090777 0.676000 9796994
0.242500 -0.087300 0.679000 9797251
0.242500 -0.083420 0.679000 9863040
0.242857 -0.079657 0.680000 9797763
0.243571 -0.075994 0.682000 9994630
0.245000 -0.072520 0.686000 9797764
0.245000 -0.068600 0.686000 10125701
0.249179 -0.168543 0.694000 16052193
0.248820 -0.164340 0.693000 13617642
0.249179 -0.160611 0.694000 13024227
0.250256 -0.157323 0.697000 12630494
0.251692 -0.154220 0.701000 12234965
0.236253 -0.141000 0.658000 11052763
0.236253 -0.137240 0.658000 9270138
0.236253 -0.133480 0.658000 9205369
0.236971 -0.130114 0.660000 9335925
0.237690 -0.126726 0.662000 9205626
0.238049 -0.123129 0.663000 9402237
0.238049 -0.119340 0.663000 9402237
0.238767 -0.115900 0.665000 9468282
0.239126 -0.112269 0.666000 9468285
0.239126 -0.108463 0.666000 9534587
0.240203 -0.105129 0.669000 9599870
0.240562 -0.101457 0.670000 9664897
0.240921 -0.097774 0.671000 9796735
0.241998 -0.094360 0.674000 9666176
0.242716 -0.090777 0.676000 9796993
0.243434 -0.087171 0.678000 9863043
0.243793 -0.083420 0.679000 9863296
0.244152 -0.079657 0.680000 9863043
0.244870 -0.075994 0.682000 9994632
0.245589 -0.072309 0.684000 9929094
0.246307 -0.068600 0.686000 10060167
0.250862 -0.168786 0.695000 16181220
0.250501 -0.164577 0.694000 13484264
0.251584 -0.161306 0.697000 12761312
0.251584 -0.157323 0.697000 12367322
0.253750 -0.154660 0.703000 12036815
0.237507 -0.141000 0.658000 11316693
0.237146 -0.137031 0.657000 9335693
0.237507 -0.133480 0.658000 9336186
0.237507 -0.129720 0.658000 9335928
0.238590 -0.126534 0.661000 9205627
0.239311 -0.123129 0.663000 9336446
0.238950 -0.119160 0.662000 9533309
0.239311 -0.115551 0.663000 9402750
0.240033 -0.112100 0.665000 9468542
0.240033 -0.108300 0.665000 9534588
0.241477 -0.105129 0.669000 9665152
0.241838 -0.101457 0.670000 9665152
0.241838 -0.097629 0.670000 9731200
0.243282 -0.094360 0.674000 9666433
0.243643 -0.090643 0.675000 9797251
0.244726 -0.087171 0.678000 9928581
0.245087 -0.083420 0.679000 9929090
0.245448 -0.079657 0.680000 9928581
0.246170 -0.075994 0.682000 10060169
0.246891 -0.072309 0.684000 10060168
0.247613 -0.068600 0.686000 9994634
0.252186 -0.168786 0.695000 16445415
0.252186 -0.164814 0.695000 13221606
0.252911 -0.161306 0.697000 12563934
0.254000 -0.158000 0.700000 12169430
0.255089 -0.154660 0.703000 11707849
0.256540 -0.151500 0.707000 11380943
0.238034 -0.136823 0.656000 9269407
0.238034 -0.133074 0.656000 9270907
0.238760 -0.129720 0.658000 9335931
0.239486 -0.126343 0.660000 9205884
0.239849 -0.122757 0.661000 9336191
0.240211 -0.119160 0.662000 9402237
0.240574 -0.115551 0.663000 9402754
0.241300 -0.112100 0.665000 9534079
0.241300 -0.108300 0.665000 9600125
0.242751 -0.105129 0.669000 9796481
0.243114 -0.101457 0.670000 9796223
0.243114 -0.097629 0.670000 9796992
0.243840 -0.094080 0.672000 9797761
0.244566 -0.090509 0.674000 9862788
0.245291 -0.086914 0.676000 10059656
0.246017 -0.083297 0.678000 9929092
0.246380 -0.079540 0.679000 9993862
0.246743 -0.075771 0.680000 10060169
0.248194 -0.072309 0.684000 10125706
0.248194 -0.068400 0.684000 10060684
0.253510 -0.168786 0.695000 16707307
0.253510 -0.164814 0.695000 12956129
0.254239 -0.161306 0.697000 12366809
0.255698 -0.158226 0.701000 11972048
0.256428 -0.154660 0.703000 11313606
0.257157 -0.151071 0.705000 11510720
0.238190 -0.136197 0.653000 9207457
0.238919 -0.132871 0.655000 9271165
0.239284 -0.129326 0.656000 9336444
0.240013 -0.125960 0.658000 9271679
0.240013 -0.122200 0.658000 9271167
0.241108 -0.118980 0.661000 9271423
0.241472 -0.115377 0.662000 9403009
0.241837 -0.111763 0.663000 9599872
0.241837 -0.107974 0.663000 9665662
0.243296 -0.104814 0.667000 9927297
0.244026 -0.101306 0.669000 9862017
0.244390 -0.097629 0.670000 9796997
0.244755 -0.093940 0.671000 9863040
0.245120 -0.090240 0.672000 9928580
0.246214 -0.086786 0.675000 10190982
0.246579 -0.083051 0.676000 9994630
0.247673 -0.079540 0.679000 9994631
0.248038 -0.075771 0.680000 10060171
0.249132 -0.072203 0.683000 10191500
0.249497 -0.068400 0.684000 10126221
0.254833 -0.168786 0.695000 15923182
0.254833 -0.164814 0.695000 12695516
0.255567 -0.161306 0.697000 12234452
0.257033 -0.158226 0.701000 11708874
0.258133 -0.154880 0.704000 11115971
0.259233 -0.151500 0.707000 11443632
0.239433 -0.136197 0.653000 9471908
0.239433 -0.132466 0.653000 9205631
0.240167 -0.129129 0.655000 9336702
0.240900 -0.125769 0.657000 9337218
0.241267 -0.122200 0.658000 9337216
0.242000 -0.118800 0.660000 9402496
0.242367 -0.115203 0.661000 9534335
0.242733 -0.111594 0.662000 9600129
0.243100 -0.107974 0.663000 9731199
0.244200 -0.104657 0.666000 9862017
0.245300 -0.101306 0.669000 9862276
0.245667 -0.097629 0.670000 9928330
0.246033 -0.093940 0.671000 9863040
0.246033 -0.090106 0.671000 9928836
0.247133 -0.086657 0.674000 9994372
0.247867 -0.083051 0.676000 9994632
0.248967 -0.079540 0.679000 10060424
0.249333 -0.075771 0.680000 10060428
0.250433 -0.072203 0.683000 10322830
0.250800 -0.068400 0.684000 10192014
0.250800 -0.064491 0.684000 10257805
0.256157 -0.168786 0.695000 15064303
0.256157 -0.164814 0.695000 12499160
0.258000 -0.162000 0.700000 12037328
0.259106 -0.158677 0.703000 11511495
0.259843 -0.155100 0.705000 10853821
0.259843 -0.151071 0.705000 11374252
0.240309 -0.135989 0.652000 9737898
0.240677 -0.132466 0.653000 9205628
0.241414 -0.129129 0.655000 9336957
0.241414 -0.125386 0.655000 9402752
0.242151 -0.122014 0.657000 9402751
0.242520 -0.118440 0.658000 9468032
0.243626 -0.115203 0.661000 9599616
0.243626 -0.111426 0.661000 9665666
0.243994 -0.107811 0.662000 9731456
0.245100 -0.104500 0.665000 9796227
0.245837 -0.101003 0.667000 9862532
0.246574 -0.097483 0.669000 10059399
0.246574 -0.093660 0.669000 9863042
0.247311 -0.090106 0.671000 9994631
0.248417 -0.086657 0.674000 9732485
0.248786 -0.082929 0.675000 10060169
0.249154 -0.079189 0.676000 10125964
0.250260 -0.075660 0.679000 10126221
0.251366 -0.072097 0.682000 10454158
0.251734 -0.068300 0.683000 10192270
0.252103 -0.064491 0.684000 10323598
0.257481 -0.168786 0.695000 14472943
0.258222 -0.165289 0.697000 12367315
0.259704 -0.162231 0.701000 11839693
0.260445 -0.158677 0.703000 11313604
0.261186 -0.155100 0.705000 10591414
0.261927 -0.151500 0.707000 10653608
0.240810 -0.135571 0.650000 10921904
0.241180 -0.132060 0.651000 9139832
0.241550 -0.128537 0.652000 9533308
0.242662 -0.125386 0.655000 9468286
0.243032 -0.121829 0.656000 9468287
0.243403 -0.118260 0.657000 9599360
0.243773 -0.114680 0.658000 9665153
0.244514 -0.111257 0.660000 9665666
0.244885 -0.107649 0.661000 9731458
0.245626 -0.104186 0.663000 9796741
0.246737 -0.100851 0.666000 9928069
0.247108 -0.097191 0.667000 9994116
0.247849 -0.093660 0.669000 9928581
0.248219 -0.089971 0.670000 9994633
0.249701 -0.086657 0.674000 9929351
0.249701 -0.082806 0.674000 10125962
0.250071 -0.079071 0.675000 10191503
0.251553 -0.075660 0.679000 10192014
0.251924 -0.071886 0.680000 10388366
0.253035 -0.068300 0.683000 10258062
0.253406 -0.064491 0.684000 10389136
0.258805 -0.168786 0.695000 13814505
0.259550 -0.165289 0.697000 12235987
0.261039 -0.162231 0.701000 11642567
0.261784 -0.158677 0.703000 11116225
0.262529 -0.155100 0.705000 10328499
0.263273 -0.151500 0.707000 9997224
0.242048 -0.135571 0.650000 12099504
0.242048 -0.131857 0.650000 9139834
0.242792 -0.128537 0.652000 9664382
0.243165 -0.125003 0.653000 9534080
0.243910 -0.121643 0.655000 9534081
0.244282 -0.118080 0.656000 9730690
0.244654 -0.114506 0.657000 9665409
0.245027 -0.110920 0.658000 9731206
0.245771 -0.107486 0.660000 9731460
0.246144 -0.103871 0.661000 9796998
0.247633 -0.100700 0.665000 9928070
0.248378 -0.097191 0.667000 9928581
0.249123 -0.093660 0.669000 9994374
0.249495 -0.089971 0.670000 9994632
0.250240 -0.086400 0.672000 10060423
0.250985 -0.082806 0.674000 10191754
0.251357 -0.079071 0.675000 10192013
0.251730 -0.075326 0.676000 10257550
0.252847 -0.071780 0.679000 10257807
0.253964 -0.068200 0.682000 10389136
0.254336 -0.064397 0.683000 10454929
0.260877 -0.169271 0.697000 13682659
0.262000 -0.166000 0.700000 12103123
0.262374 -0.162231 0.701000 11510978
0.263123 -0.158677 0.703000 10918845
0.263871 -0.155100 0.705000 10196144
0.264620 -0.151500 0.707000 9734312
0.242537 -0.135154 0.648000 12366000
0.242537 -0.131451 0.648000 9139836
0.243660 -0.128340 0.651000 9598848
0.244409 -0.125003 0.653000 9599617
0.245157 -0.121643 0.655000 9599875
0.245157 -0.117900 0.655000 9730947
0.245531 -0.114331 0.656000 9731202
0.245906 -0.110751 0.657000 9797002
