# .PCD v.7 - Point Cloud Data file format
VERSION .7
FIELDS x y z rgb
SIZE 4 4 4 4
TYPE F F F I
COUNT 1 1 1 1
WIDTH 1343
HEIGHT 1
POINTS 1343
DATA ascii
0.123410 0.087981 0.620000 7762313
0.124405 0.092262 0.625000 7630720
0.125997 0.097060 0.633000 7695487
0.126395 0.100995 0.635000 7499134
0.106490 0.115662 0.535000 13815017
0.106889 0.119163 0.537000 13155555
0.107884 0.123370 0.542000 13223142
0.109078 0.127867 0.548000 11513059
0.109277 0.131237 0.549000 10985169
0.108879 0.133885 0.547000 11636418
0.108680 0.136760 0.546000 12098744
0.107884 0.154341 0.542000 13290482
0.107884 0.157438 0.542000 13883121
0.107884 0.160535 0.542000 14210798
0.108282 0.164236 0.544000 14078447
0.109078 0.168575 0.548000 14013681
0.109277 0.172020 0.549000 13814763
0.116150 0.052295 0.578000 15662590
0.116351 0.055694 0.579000 13816301
0.116954 0.059309 0.582000 13487598
0.117758 0.063065 0.586000 12566247
0.118964 0.067093 0.592000 11447768
0.119366 0.070714 0.594000 10262718
0.121777 0.075606 0.606000 9144755
0.122179 0.079330 0.608000 8487079
0.123586 0.083757 0.615000 8026263
0.124390 0.087839 0.619000 7762313
0.125394 0.092114 0.624000 7631233
0.127002 0.096907 0.632000 7630208
0.127404 0.100836 0.634000 7630464
0.107510 0.115662 0.535000 13948402
0.107911 0.119163 0.537000 13221861
0.108916 0.123370 0.542000 13420519
0.110122 0.127867 0.548000 12697833
0.110122 0.130998 0.548000 12173538
0.109921 0.133885 0.547000 11579863
0.109519 0.136510 0.545000 11514578
0.109519 0.139624 0.545000 11514322
0.109519 0.142738 0.545000 11778520
0.108916 0.151244 0.542000 14079472
0.108916 0.154341 0.542000 14475761
0.108916 0.157438 0.542000 14407920
0.108916 0.160535 0.542000 14408431
0.109318 0.164236 0.544000 14342127
0.109921 0.168268 0.547000 14210545
0.110524 0.172333 0.550000 13946858
0.117251 0.052295 0.578000 15528446
0.117454 0.055694 0.579000 13815533
0.118063 0.059309 0.582000 13421550
0.118671 0.062957 0.585000 12565735
0.120294 0.067207 0.593000 11381463
0.120700 0.070833 0.595000 10196413
0.122526 0.075356 0.604000 9210291
0.123134 0.079199 0.607000 8487334
0.124757 0.083757 0.615000 8026262
0.125366 0.087697 0.618000 7828105
0.126786 0.092262 0.625000 7696769
0.128003 0.096753 0.631000 7630464
0.128611 0.100836 0.634000 7630466
0.108529 0.115662 0.535000 14013946
0.108934 0.119163 0.537000 13419496
0.109949 0.123370 0.542000 13618408
0.111166 0.127867 0.548000 13421296
0.111166 0.130998 0.548000 13027314
0.110760 0.133640 0.546000 12632299
0.110557 0.136510 0.545000 12567276
0.110557 0.139624 0.545000 12763878
0.110557 0.142738 0.545000 13424115
0.109746 0.147873 0.541000 14015219
0.109949 0.151244 0.542000 14277616
0.109949 0.154341 0.542000 14606319
0.109949 0.157438 0.542000 14605808
0.109949 0.160535 0.542000 14605551
0.110354 0.164236 0.544000 14671086
0.111166 0.168575 0.548000 14408176
0.111369 0.172020 0.549000 14012904
0.118352 0.052295 0.578000 15463165
0.118762 0.055790 0.580000 13750765
0.119376 0.059410 0.583000 13356014
0.119990 0.063065 0.586000 12500710
0.121424 0.067207 0.593000 11381971
0.121833 0.070833 0.595000 10131647
0.123471 0.075231 0.603000 9210291
0.124086 0.079069 0.606000 8421540
0.125929 0.083757 0.615000 8091797
0.126338 0.087555 0.617000 7828105
0.127976 0.092262 0.625000 7696769
0.128795 0.096447 0.629000 7630463
0.129614 0.100677 0.633000 7630464
0.109752 0.118941 0.536000 13617130
0.110776 0.123142 0.541000 13881580
0.112210 0.127867 0.548000 14144496
0.112210 0.130998 0.548000 13816305
0.111800 0.133640 0.546000 13618158
0.111595 0.136510 0.545000 13682668
0.111595 0.139624 0.545000 13948654
0.111390 0.142476 0.544000 15071223
0.110776 0.147873 0.541000 14473455
0.110981 0.151244 0.542000 14474223
0.110981 0.154341 0.542000 14737392
0.110776 0.157148 0.541000 14737135
0.110981 0.160535 0.542000 14803183
0.111186 0.163934 0.543000 14934511
0.112210 0.168575 0.548000 14671857
0.112414 0.172020 0.549000 14012645
0.119660 0.055694 0.579000 13815533
0.120487 0.059410 0.583000 13289966
0.121107 0.063065 0.586000 12499942
0.122347 0.067093 0.592000 11315663
0.122967 0.070833 0.595000 10065602
0.124413 0.075107 0.602000 9210034
0.125240 0.079069 0.606000 8487074
0.126893 0.083621 0.614000 8091796
0.127513 0.087555 0.617000 7828105
0.128753 0.091967 0.623000 7697025
0.129787 0.096293 0.628000 7630719
0.130613 0.100518 0.632000 7564925
0.131233 0.104624 0.635000 7498877
0.110773 0.118941 0.536000 13748461
0.111807 0.123142 0.541000 14012655
0.112840 0.127400 0.546000 14276592
0.113047 0.130759 0.547000 13947631
0.112840 0.133640 0.546000 13750000
0.112633 0.136510 0.545000 13946603
0.112633 0.139624 0.545000 15003381
0.112013 0.141952 0.542000 15067898
0.112013 0.145050 0.542000 14473709
0.111807 0.147873 0.541000 14605034
0.111807 0.150965 0.541000 14999534
0.112013 0.154341 0.542000 15395312
0.111807 0.157148 0.541000 14868463
0.112013 0.160535 0.542000 14934767
0.112220 0.163934 0.543000 15066353
0.113253 0.168575 0.548000 14672114
0.113460 0.172020 0.549000 13945569
0.120763 0.055694 0.579000 13815790
0.121597 0.059410 0.583000 13224685
0.122223 0.063065 0.586000 12434917
0.123683 0.067207 0.593000 11250385
0.124309 0.070952 0.596000 10000575
0.125560 0.075107 0.602000 9209778
0.126394 0.079069 0.606000 8487074
0.128063 0.083621 0.614000 8092052
0.128689 0.087555 0.617000 7762569
0.129314 0.091524 0.620000 7697025
0.130983 0.096293 0.628000 7630976
0.131609 0.100359 0.631000 7564927
0.132234 0.104459 0.634000 7367806
0.111794 0.118941 0.536000 13815278
0.113046 0.123370 0.542000 14143471
0.114089 0.127633 0.547000 14409201
0.114089 0.130759 0.547000 14078958
0.113880 0.133640 0.546000 13815536
0.113671 0.136510 0.545000 14210029
0.113463 0.139368 0.544000 15984626
0.113046 0.141952 0.542000 15129075
0.113046 0.145050 0.542000 14539244
0.112837 0.147873 0.541000 14738676
0.112837 0.150965 0.541000 15462134
0.112629 0.153771 0.540000 16056055
0.112629 0.156857 0.540000 14934768
0.112837 0.160239 0.541000 15131376
0.113046 0.163632 0.542000 15198195
0.114089 0.168268 0.547000 14738931
0.114506 0.172020 0.549000 13879768
0.121866 0.055694 0.579000 13815278
0.122918 0.059512 0.584000 13223916
0.123550 0.063172 0.587000 12433893
0.124812 0.067207 0.593000 11184338
0.125233 0.070833 0.595000 10065341
0.126496 0.074982 0.601000 9144497
0.127549 0.079069 0.606000 8487330
0.128811 0.083349 0.612000 8092051
0.129653 0.087413 0.616000 7762569
0.130074 0.091229 0.618000 7696769
0.131969 0.096140 0.627000 7631233
0.132390 0.100041 0.629000 7565184
0.133442 0.104459 0.634000 7433088
0.112815 0.118941 0.536000 13946352
0.114078 0.123370 0.542000 14341102
0.115341 0.127867 0.548000 15000818
0.115341 0.130998 0.548000 14210028
0.114920 0.133640 0.546000 14078191
0.114710 0.136510 0.545000 14275822
0.114499 0.139368 0.544000 15129583
0.114078 0.141952 0.542000 14867180
0.114078 0.145050 0.542000 14670571
0.114078 0.148147 0.542000 15397118
0.113868 0.150965 0.541000 16120062
0.113657 0.153771 0.540000 16383742
0.113868 0.157148 0.541000 14933746
0.114078 0.160535 0.542000 15328753
0.114289 0.163934 0.543000 15526390
0.115130 0.168268 0.547000 14539764
0.115551 0.172020 0.549000 13811150
0.123181 0.055790 0.580000 13749998
0.124030 0.059512 0.584000 13158125
0.124880 0.063280 0.588000 12368868
0.125517 0.066980 0.591000 11184850
0.126367 0.070833 0.595000 10065853
0.127429 0.074857 0.600000 9144497
0.128490 0.078938 0.605000 8487073
0.129340 0.082940 0.609000 8091796
0.130614 0.087271 0.615000 7762825
0.130827 0.090933 0.616000 7762050
0.132950 0.095987 0.626000 7631234
0.133375 0.099882 0.628000 7630721
0.134437 0.104294 0.633000 7498880
0.135074 0.108423 0.636000 7564668
0.113836 0.118941 0.536000 14078705
0.115110 0.123370 0.542000 14472431
0.116385 0.127867 0.548000 15526900
0.116385 0.130998 0.548000 14340844
0.116172 0.133885 0.547000 14276079
0.115748 0.136510 0.545000 14342638
0.115535 0.139368 0.544000 14277102
0.115110 0.141952 0.542000 14539501
0.115110 0.145050 0.542000 14736878
0.114898 0.147873 0.541000 16055806
0.114898 0.150965 0.541000 16711164
0.115110 0.154341 0.542000 16711422
0.115110 0.157438 0.542000 14935795
0.115110 0.160535 0.542000 15526387
0.115535 0.164236 0.544000 15789301
0.116385 0.168575 0.548000 14342106
0.124071 0.055694 0.579000 13618670
0.125143 0.059512 0.584000 13158125
0.126000 0.063280 0.588000 12368611
0.126643 0.066980 0.591000 11184593
0.127500 0.070833 0.595000 10065340
0.128571 0.074857 0.600000 9144753
0.129429 0.078808 0.604000 8487073
0.130286 0.082804 0.608000 8157332
0.131786 0.087271 0.615000 7828874
0.132214 0.091081 0.617000 7762051
0.133929 0.095833 0.625000 7696770
0.134571 0.099882 0.628000 7630722
0.135429 0.104130 0.632000 7629952
0.136071 0.108252 0.635000 7564922
0.114643 0.118719 0.535000 14209521
0.114857 0.122004 0.536000 14539247
0.117429 0.127867 0.548000 15529462
0.117429 0.130998 0.548000 14473708
0.117214 0.133885 0.547000 14341870
0.117000 0.136760 0.546000 14473709
0.116571 0.139368 0.544000 14473966
0.116357 0.142214 0.543000 14671086
0.116143 0.145050 0.542000 14869233
0.116143 0.148147 0.542000 16186109
0.115929 0.150965 0.541000 16711417
0.116143 0.154341 0.542000 16711422
0.116143 0.157438 0.542000 15066100
0.116143 0.160535 0.542000 15592437
0.117000 0.164840 0.546000 15066357
0.117429 0.168575 0.548000 14009279
0.125174 0.055694 0.579000 13488110
0.126039 0.059410 0.583000 13091820
0.126904 0.063172 0.587000 12369120
0.127552 0.066867 0.590000 11185619
0.128417 0.070714 0.594000 10000316
0.129498 0.074732 0.599000 9144497
0.130579 0.078808 0.604000 8487072
0.131011 0.082531 0.606000 8157334
0.132957 0.087271 0.615000 7894154
0.133390 0.091081 0.617000 7827589
0.134903 0.095680 0.624000 7762051
0.135551 0.099723 0.627000 7696259
0.136416 0.103965 0.631000 7695490
0.137065 0.108082 0.634000 7630460
0.115878 0.118941 0.536000 14341874
0.115878 0.122004 0.536000 14605295
0.118472 0.127867 0.548000 15461621
0.118472 0.130998 0.548000 14670831
0.118472 0.134130 0.548000 14408175
0.117824 0.136510 0.545000 14539246
0.117391 0.139111 0.543000 14671087
0.117175 0.141952 0.542000 14802415
0.117175 0.145050 0.542000 14935537
0.117175 0.148147 0.542000 16383740
0.117175 0.151244 0.542000 16710652
0.117175 0.154341 0.542000 16711420
0.117175 0.157438 0.542000 15198452
0.117175 0.160535 0.542000 15658993
0.118040 0.164840 0.546000 14340061
0.118040 0.167960 0.546000 13743553
0.126277 0.055694 0.579000 13487342
0.127150 0.059410 0.583000 13092330
0.128022 0.063172 0.587000 12368605
0.128676 0.066867 0.590000 11250389
0.129330 0.070595 0.593000 10065339
0.130639 0.074732 0.599000 9144497
0.131511 0.078677 0.603000 8552608
0.132166 0.082531 0.606000 8157335
0.133910 0.087130 0.614000 7959946
0.134565 0.091081 0.617000 7828102
0.135001 0.094913 0.619000 7762052
0.136091 0.099246 0.624000 7696259
0.137182 0.103635 0.629000 7761028
0.138054 0.107911 0.633000 7564925
0.116899 0.118941 0.536000 14340595
0.116899 0.122004 0.536000 14539246
0.119516 0.127867 0.548000 15264500
0.119516 0.130998 0.548000 14737393
0.119516 0.134130 0.548000 14605296
0.119080 0.136760 0.546000 14671087
0.118644 0.139368 0.544000 14736880
0.118426 0.142214 0.543000 14934256
0.118208 0.145050 0.542000 15066096
0.118208 0.148147 0.542000 16184571
0.118208 0.151244 0.542000 16711422
0.118426 0.154626 0.543000 16184313
0.118208 0.157438 0.542000 15132404
0.119080 0.164840 0.546000 14005702
0.119080 0.167960 0.546000 13678787
0.127380 0.055694 0.579000 13487854
0.128040 0.059309 0.582000 13092841
0.129140 0.063172 0.587000 12369118
0.129800 0.066867 0.590000 11251411
0.130460 0.070595 0.593000 10131388
0.131340 0.074483 0.597000 9209523
0.132220 0.078416 0.601000 8552609
0.133100 0.082395 0.605000 8157334
0.134860 0.086988 0.613000 7959947
0.135300 0.090786 0.615000 7893894
0.135960 0.094760 0.618000 7762052
0.137060 0.099087 0.623000 7761794
0.137940 0.103306 0.627000 7827073
0.139040 0.107741 0.632000 7499132
0.139260 0.111529 0.633000 7368062
0.117700 0.118719 0.535000 14341617
0.119020 0.123142 0.541000 14538478
0.120560 0.127867 0.548000 15066098
0.120560 0.130998 0.548000 14868720
0.120560 0.134130 0.548000 14736368
0.120120 0.136760 0.546000 14802672
0.119680 0.139368 0.544000 14802930
0.119460 0.142214 0.543000 15066098
0.119460 0.145317 0.543000 15131890
0.119240 0.148147 0.542000 16051702
0.119240 0.151244 0.542000 16709111
0.119460 0.154626 0.543000 15659502
0.120120 0.158600 0.546000 14997214
0.128483 0.055694 0.579000 13486574
0.129370 0.059410 0.583000 13026536
0.130036 0.063065 0.586000 12368352
0.130924 0.066867 0.590000 11250128
0.131368 0.070476 0.592000 10130877
0.132477 0.074483 0.597000 9210292
0.133143 0.078286 0.600000 8552866
0.134252 0.082395 0.605000 8157588
0.135584 0.086704 0.611000 7959948
0.136471 0.090786 0.615000 7893894
0.136915 0.094607 0.617000 7762053
0.138247 0.099087 0.623000 7762049
0.138690 0.102976 0.625000 7695999
0.140244 0.107741 0.632000 7499131
0.140466 0.111529 0.633000 7433342
0.118719 0.118719 0.535000 14274287
0.120050 0.123142 0.541000 14341102
0.121604 0.127867 0.548000 14801903
0.121604 0.130998 0.548000 14538734
0.121604 0.134130 0.548000 14538736
0.121382 0.137010 0.547000 14605553
0.120938 0.139624 0.545000 14738164
0.120716 0.142476 0.544000 14868980
0.120716 0.145585 0.544000 14935284
0.120272 0.148147 0.542000 15328241
0.120494 0.151523 0.543000 15262193
0.120938 0.155195 0.545000 14668515
0.121160 0.158600 0.546000 14334407
0.129586 0.055694 0.579000 13422575
0.130481 0.059410 0.583000 12960229
0.130929 0.062957 0.585000 12368861
0.131824 0.066753 0.589000 11185107
0.132271 0.070357 0.591000 10131389
0.133390 0.074358 0.596000 9210290
0.134062 0.078155 0.599000 8487329
0.134957 0.082123 0.603000 8222869
0.136300 0.086420 0.609000 7960205
0.137419 0.090638 0.614000 7893640
0.138090 0.094607 0.617000 7762564
0.138762 0.098610 0.620000 7827584
0.139657 0.102811 0.624000 7565183
0.140329 0.106889 0.627000 7433341
0.140776 0.110824 0.629000 7433599
0.119962 0.118941 0.536000 14210033
0.121081 0.123142 0.541000 14209519
0.122200 0.127400 0.546000 14538990
0.122648 0.130998 0.548000 14209775
0.122648 0.134130 0.548000 14341099
0.122424 0.137010 0.547000 14473704
0.121976 0.139624 0.545000 14669026
0.121752 0.142476 0.544000 14736348
0.121976 0.145852 0.545000 14734811
0.121752 0.148693 0.544000 14670041
0.121529 0.151523 0.543000 13813461
0.121976 0.155195 0.545000 13680591
0.130689 0.055694 0.579000 13487601
0.131366 0.059309 0.582000 12894690
0.132043 0.062957 0.585000 12303067
0.132946 0.066753 0.589000 11184597
0.133397 0.070357 0.591000 10131645
0.134300 0.074233 0.595000 9210287
0.135203 0.078155 0.599000 8553376
0.135880 0.081987 0.602000 8223381
0.137009 0.086136 0.607000 8025741
0.138137 0.090343 0.612000 7893897
0.139040 0.094453 0.616000 7697283
0.139717 0.098450 0.619000 7762303
0.140846 0.102811 0.624000 7630976
0.141071 0.106548 0.625000 7499391
0.141749 0.110648 0.628000 7433599
0.142426 0.114782 0.631000 7433085
0.120983 0.118941 0.536000 14274547
0.121886 0.122914 0.540000 14275055
0.123240 0.127400 0.546000 14472173
0.123691 0.130998 0.548000 14143215
0.123917 0.134374 0.549000 14207717
0.123014 0.139624 0.545000 14138065
0.123014 0.142738 0.545000 14336707
0.123014 0.145852 0.545000 14333377
0.122789 0.148693 0.544000 14139841
0.122563 0.151523 0.543000 13808314
0.131791 0.055694 0.579000 13554418
0.132247 0.059207 0.581000 12894434
0.132930 0.062850 0.584000 12171739
0.134068 0.066753 0.589000 11120341
0.134523 0.070357 0.591000 10132156
0.135433 0.074233 0.595000 9275568
0.136116 0.078025 0.598000 8618657
0.136799 0.081850 0.601000 8288917
0.137937 0.085994 0.606000 8025741
0.139075 0.090195 0.611000 7893896
0.139986 0.094300 0.615000 7631746
0.140896 0.098450 0.619000 7697023
0.141579 0.102482 0.622000 7630976
0.142034 0.106377 0.624000 7565184
0.142490 0.110295 0.626000 7433598
0.142945 0.114236 0.628000 7433084
0.122004 0.118941 0.536000 14276082
0.122459 0.122459 0.538000 14275054
0.124052 0.139624 0.545000 13547720
0.124052 0.142738 0.545000 13940675
0.124052 0.145852 0.545000 13940673
0.133353 0.059207 0.581000 12763362
0.133583 0.062634 0.582000 12105691
0.134730 0.066527 0.587000 11119829
0.135419 0.070238 0.590000 10131643
0.136337 0.074109 0.594000 9341617
0.137026 0.077894 0.597000 8684449
0.137714 0.081714 0.600000 8354708
0.138862 0.085852 0.605000 8025996
0.139321 0.089605 0.607000 7894151
0.140239 0.093687 0.611000 7631746
0.141846 0.098291 0.618000 7631487
0.142305 0.102152 0.620000 7631233
0.143223 0.106377 0.624000 7499648
0.143452 0.110119 0.625000 7433596
0.143682 0.113872 0.626000 7433083
0.144370 0.118012 0.629000 7433085
0.122795 0.118719 0.535000 14274545
0.123484 0.122459 0.538000 14274797
0.134229 0.059105 0.580000 12698080
0.134460 0.062527 0.581000 12040410
0.135386 0.066300 0.585000 11120338
0.136543 0.070238 0.590000 10132412
0.137006 0.073859 0.592000 9406897
0.137931 0.077764 0.596000 8749730
0.138626 0.081578 0.599000 8420246
0.140014 0.085852 0.605000 8025996
0.140477 0.089605 0.607000 7894152
0.140477 0.093073 0.607000 7631747
0.142560 0.097973 0.616000 7631489
0.143254 0.101988 0.619000 7631233
0.144180 0.106207 0.623000 7499648
0.144411 0.109943 0.624000 7368063
0.144643 0.113690 0.625000 7433085
0.145337 0.117825 0.628000 7367294
0.124046 0.118941 0.536000 14210290
0.124509 0.122459 0.538000 14274799
0.135333 0.059105 0.580000 12763357
0.135567 0.062527 0.581000 12040153
0.136267 0.066187 0.584000 11119566
0.136967 0.069881 0.587000 10197437
0.137667 0.073610 0.590000 9472945
0.138600 0.077503 0.594000 8749730
0.139300 0.081306 0.597000 8354967
0.140700 0.085569 0.603000 8091789
0.140933 0.089162 0.604000 7959944
0.141400 0.092920 0.606000 7697541
0.142567 0.097178 0.611000 7697026
0.143967 0.101658 0.617000 7762050
0.144667 0.105695 0.620000 7565184
0.145367 0.109767 0.623000 7433601
0.145600 0.113509 0.624000 7367551
0.145833 0.117262 0.625000 7367294
0.146533 0.121413 0.628000 7236476
0.125067 0.118941 0.536000 14143474
0.125533 0.122459 0.538000 14209265
0.136203 0.059003 0.579000 12764129
0.136673 0.062527 0.581000 12039640
0.137379 0.066187 0.584000 11185613
0.137850 0.069762 0.586000 10263485
0.138555 0.073485 0.589000 9472946
0.139496 0.077372 0.593000 8749987
0.140202 0.081170 0.596000 8354711
0.141378 0.085285 0.601000 8092046
0.141849 0.089014 0.603000 8025225
0.142319 0.092767 0.605000 7763078
0.143025 0.096701 0.608000 7762819
0.144201 0.100999 0.613000 7893122
0.144671 0.104843 0.615000 7564929
0.145848 0.109238 0.620000 7433601
0.146789 0.113509 0.624000 7236733
0.145848 0.116324 0.620000 7302016
0.147494 0.121220 0.627000 7170683
0.147259 0.124604 0.626000 7170683
0.126088 0.118941 0.536000 14079215
0.127734 0.123597 0.543000 14143725
0.137306 0.059003 0.579000 12829669
0.137306 0.062311 0.579000 11973335
0.138254 0.066073 0.583000 11118795
0.138966 0.069762 0.586000 10328253
0.139677 0.073485 0.589000 9538994
0.140389 0.077242 0.592000 8815524
0.141100 0.081033 0.595000 8420503
0.142286 0.085143 0.600000 8157583
0.142523 0.088719 0.601000 7960201
0.142997 0.092460 0.603000 7828360
0.143709 0.096383 0.606000 7828099
0.144894 0.100670 0.611000 7827586
0.145606 0.104672 0.614000 7565186
0.146317 0.108710 0.617000 7433601
0.146554 0.112417 0.618000 7302266
0.146317 0.115761 0.617000 7236226
0.146317 0.119287 0.617000 7236474
0.147977 0.124206 0.624000 7170939
0.127346 0.119163 0.537000 14143723
0.128531 0.123370 0.542000 14143720
0.138170 0.058901 0.578000 12962024
0.138648 0.062419 0.580000 11907798
0.139126 0.065960 0.582000 11118540
0.139843 0.069643 0.585000 10328765
0.140560 0.073360 0.588000 9604785
0.141516 0.077242 0.592000 8881316
0.141994 0.080897 0.594000 8486040
0.143429 0.085143 0.600000 8223120
0.143429 0.088571 0.600000 7960202
0.143907 0.092307 0.602000 7893896
0.144863 0.096383 0.606000 7893636
0.145580 0.100340 0.609000 7762051
0.146297 0.104331 0.612000 7565186
0.147014 0.108357 0.615000 7368065
0.147014 0.111871 0.615000 7367549
0.147253 0.115573 0.616000 7105664
0.147014 0.118900 0.615000 7236477
0.148688 0.123808 0.622000 7170940
0.148688 0.130916 0.622000 6513792
0.128369 0.119163 0.537000 14144490
0.129803 0.123597 0.543000 14209255
0.139270 0.058901 0.578000 13289963
0.139511 0.062311 0.579000 11841749
0.139993 0.065847 0.581000 11118797
0.140475 0.069405 0.583000 10393533
0.141439 0.073235 0.587000 9604528
0.142162 0.076981 0.590000 8947109
0.142644 0.080625 0.592000 8551833
0.143126 0.084291 0.594000 8223377
0.143849 0.088129 0.597000 8025994
0.144812 0.092153 0.601000 7959689
0.145776 0.096224 0.605000 7828100
0.146499 0.100175 0.608000 7827588
0.146740 0.103820 0.609000 7565442
0.147222 0.107652 0.611000 7433857
0.148186 0.111871 0.615000 7433343
0.148186 0.115386 0.615000 7236735
0.147945 0.118707 0.614000 7302015
0.149872 0.123808 0.622000 7302013
0.149872 0.130916 0.622000 6513035
0.129632 0.119385 0.538000 14208745
0.130837 0.123597 0.543000 14143717
0.140129 0.058799 0.577000 13618926
0.140614 0.062311 0.579000 11711191
0.141100 0.065847 0.581000 11118285
0.141586 0.069405 0.583000 10394812
0.142314 0.073110 0.586000 9669809
0.143043 0.076850 0.589000 9012644
0.143529 0.080489 0.591000 8617370
0.144014 0.084150 0.593000 8223634
0.144743 0.087981 0.596000 8091785
0.145229 0.091693 0.598000 7959945
0.146686 0.096065 0.604000 7762309
0.147171 0.099846 0.606000 7827845
0.147171 0.103309 0.606000 7630980
0.147171 0.106771 0.606000 7499393
0.147171 0.110234 0.606000 7564928
0.148871 0.115010 0.613000 7302271
0.149114 0.118707 0.614000 7367552
0.130414 0.116094 0.537000 14481142
0.130657 0.119385 0.538000 14209001
0.141472 0.058901 0.578000 13949169
0.141472 0.062204 0.578000 11776473
0.141962 0.065733 0.580000 11118029
0.142451 0.069286 0.582000 10394811
0.142941 0.072861 0.584000 9604785
0.143675 0.076590 0.587000 9078178
0.144165 0.080216 0.589000 8617627
0.144899 0.084008 0.592000 8223634
0.145389 0.087686 0.594000 8092040
0.146123 0.091540 0.597000 8025736
0.147102 0.095588 0.601000 7828358
0.148081 0.099681 0.605000 7893381
0.148081 0.103138 0.605000 7696773
0.148081 0.106595 0.605000 7564930
0.148326 0.110234 0.606000 7564928
0.150039 0.115010 0.613000 7433344
0.149794 0.118320 0.612000 7433345
0.131437 0.116094 0.537000 14606837
0.142573 0.058901 0.578000 14279412
0.142573 0.062204 0.578000 11843548
0.142820 0.065620 0.579000 11183050
0.143560 0.069286 0.582000 10329531
0.143807 0.072736 0.583000 9604529
0.144300 0.076329 0.585000 9144226
0.145040 0.080080 0.588000 8683163
0.145780 0.083866 0.591000 8223892
0.146520 0.087686 0.594000 8157578
0.147013 0.091387 0.596000 8025737
0.148000 0.095429 0.600000 7894408
0.148493 0.099187 0.602000 7893893
0.148493 0.102627 0.602000 7762310
0.148987 0.106419 0.604000 7565442
0.148987 0.109870 0.604000 7630722
0.150960 0.118320 0.612000 7499139
0.132460 0.116094 0.537000 14738166
0.143426 0.062096 0.577000 12237791
0.143674 0.065507 0.578000 11118022
0.144171 0.069048 0.580000 10394299
0.144420 0.072487 0.581000 9605296
0.144669 0.075937 0.582000 9144738
0.145911 0.079944 0.587000 8683675
0.146657 0.083724 0.590000 8289685
0.147154 0.087390 0.592000 8157580
0.147651 0.091080 0.594000 8091530
0.148397 0.094951 0.597000 7894409
0.149143 0.098857 0.600000 7894149
0.149143 0.102286 0.600000 7762566
0.149143 0.105714 0.600000 7696515
0.150137 0.109870 0.604000 7630980
0.144274 0.061989 0.576000 12632802
0.144525 0.065393 0.577000 11053515
0.145026 0.068929 0.579000 10394298
0.145276 0.072362 0.580000 9671599
0.145527 0.075807 0.581000 9144482
0.146028 0.079399 0.583000 8749211
0.147530 0.083582 0.589000 8355477
0.148031 0.087243 0.591000 8223373
0.148031 0.090620 0.591000 8091531
0.149033 0.094633 0.595000 7959946
0.149785 0.098528 0.598000 7894150
0.149785 0.101945 0.598000 7828102
0.150286 0.105714 0.600000 7762309
0.150787 0.109507 0.602000 7696517
0.145119 0.061881 0.575000 13026532
0.145624 0.065393 0.577000 11250895
0.145876 0.068810 0.578000 10459833
0.146129 0.072237 0.579000 9671341
0.146381 0.075676 0.580000 9144739
0.146886 0.079263 0.582000 8749723
0.147138 0.082730 0.583000 8421013
0.148905 0.087095 0.590000 8289166
0.149157 0.090620 0.591000 8157325
0.149410 0.094156 0.592000 8025738
0.150924 0.098528 0.598000 7959688
0.150671 0.101774 0.597000 7893893
0.150924 0.105362 0.598000 7762310
0.146214 0.061881 0.575000 13421534
0.146469 0.065280 0.576000 11383503
0.146723 0.068690 0.577000 10460091
0.146977 0.072112 0.578000 9670830
0.147231 0.075546 0.579000 9144739
0.147740 0.079127 0.581000 8815770
0.147994 0.082589 0.582000 8486548
0.149266 0.086652 0.587000 8289167
0.149774 0.090313 0.589000 8157581
0.149774 0.093679 0.589000 8091531
0.149520 0.096880 0.588000 8025480
0.151554 0.101604 0.596000 7959943
0.151554 0.105010 0.596000 7762826
0.147310 0.061881 0.575000 13357273
0.147566 0.065280 0.576000 11646415
0.147566 0.068571 0.576000 10590910
0.148078 0.072112 0.578000 9802414
0.148334 0.075546 0.579000 9210531
0.148590 0.078990 0.580000 8815512
0.148847 0.082447 0.581000 8552084
0.149871 0.086357 0.585000 8354959
0.150128 0.089853 0.586000 8223117
0.150128 0.093202 0.586000 8092043
0.150128 0.096550 0.586000 8156809
0.152177 0.101263 0.594000 8025480
0.152177 0.104657 0.594000 7894413
0.148405 0.061881 0.575000 13222600
0.148405 0.065167 0.575000 11910106
0.148405 0.068452 0.575000 10657730
0.148921 0.071988 0.577000 9868464
0.149179 0.075415 0.578000 9275811
0.149437 0.078854 0.579000 8815257
0.149695 0.082305 0.580000 8617876
0.150470 0.086062 0.583000 8420240
0.150470 0.089393 0.583000 8289164
0.150470 0.092725 0.583000 8092299
0.150986 0.096386 0.585000 8222858
0.153309 0.101263 0.594000 8091017
0.153309 0.104657 0.594000 7959946
0.149500 0.065167 0.575000 12698853
0.149500 0.068452 0.575000 10790085
0.149760 0.071863 0.576000 9999282
0.150020 0.075285 0.577000 9341604
0.150280 0.078718 0.578000 8881050
0.150540 0.082163 0.579000 8683412
0.151060 0.085767 0.581000 8486289
0.151320 0.089240 0.582000 8354956
0.151320 0.092566 0.582000 8157835
0.151320 0.095891 0.582000 8222860
0.150333 0.065053 0.574000 13488098
0.150333 0.068333 0.574000 10923474
0.150595 0.071738 0.575000 10130614
0.150857 0.075154 0.576000 9341608
0.151119 0.078582 0.577000 9012123
0.151381 0.082021 0.578000 8683669
0.151905 0.085619 0.580000 8552081
0.152167 0.089087 0.581000 8354956
0.152167 0.092407 0.581000 8223372
0.152429 0.095891 0.582000 8157323
0.151427 0.065053 0.574000 13288670
0.151163 0.068214 0.573000 11843038
0.151163 0.071489 0.573000 10131898
0.151163 0.074763 0.573000 9472429
0.151954 0.078446 0.576000 9012380
0.152218 0.081879 0.577000 8749206
0.152746 0.085471 0.579000 8617361
0.153010 0.088933 0.580000 8420493
0.153010 0.092248 0.580000 8288909
0.152482 0.095232 0.578000 8223371
0.151427 0.097853 0.574000 8091525
0.152254 0.068214 0.573000 12698078
0.151989 0.071364 0.572000 10199238
0.151989 0.074632 0.572000 9604525
0.152254 0.078037 0.573000 9077409
0.152786 0.081595 0.575000 8749465
0.153051 0.085029 0.576000 8617364
0.152786 0.088167 0.575000 8486031
0.152786 0.091452 0.575000 8354191
0.152786 0.094738 0.575000 8288651
0.151989 0.097512 0.572000 8091783
0.153613 0.068333 0.574000 13161438
0.153078 0.071364 0.572000 11119313
0.152810 0.074502 0.571000 9540525
0.153078 0.077901 0.572000 9209509
0.153346 0.081311 0.573000 8881052
0.153613 0.084733 0.574000 8683158
0.153613 0.088013 0.574000 8551825
0.153346 0.091134 0.573000 8354449
0.153346 0.094409 0.573000 8288908
0.152810 0.097342 0.571000 8157576
0.153346 0.100957 0.573000 8091785
0.154168 0.071364 0.572000 12040920
0.153898 0.074502 0.571000 9476544
0.153898 0.077765 0.571000 9407652
0.153898 0.081028 0.571000 9011870
0.154437 0.084586 0.573000 8683417
0.154168 0.087707 0.572000 8551827
0.153898 0.090816 0.571000 8420498
0.153898 0.094079 0.571000 8288909
0.153629 0.097171 0.570000 8223115
0.154437 0.100957 0.573000 8157579
0.154986 0.071239 0.571000 12567007
0.154986 0.074502 0.571000 10592466
0.154986 0.077765 0.571000 9474211
0.154986 0.081028 0.571000 9208992
0.155529 0.084586 0.573000 8880539
0.154714 0.087400 0.570000 8683157
0.154714 0.090657 0.570000 8486290
0.154714 0.093914 0.570000 8419983
0.154443 0.097001 0.569000 8354445
0.156073 0.071239 0.571000 13092294
0.155800 0.074371 0.570000 11646167
0.155800 0.077629 0.570000 9542078
0.155527 0.080744 0.569000 9341094
0.155527 0.083995 0.569000 9077660
0.155527 0.087247 0.569000 8814741
0.155527 0.090498 0.569000 8617623
0.155527 0.093750 0.569000 8485778
0.154707 0.096490 0.566000 8420239
0.156886 0.074371 0.570000 12504285
0.156610 0.077492 0.569000 10725337
0.156610 0.080744 0.569000 9603756
0.156060 0.083700 0.567000 9078173
0.156335 0.087093 0.568000 8814997
0.156335 0.090339 0.568000 8617884
0.154959 0.092761 0.563000 8551317
0.154133 0.095467 0.560000 8420240
0.153858 0.098490 0.559000 8486029
0.157694 0.074241 0.569000 13352388
0.157694 0.077492 0.569000 11911131
0.157140 0.080460 0.567000 9805509
0.156586 0.083405 0.565000 9078956
0.156586 0.086633 0.565000 8749729
0.156586 0.089862 0.565000 8618398
0.155477 0.092431 0.561000 8552087
0.154923 0.095296 0.559000 8420252
0.154646 0.098314 0.558000 8487590
0.158778 0.074241 0.569000 13151148
0.158778 0.077492 0.569000 12502492
0.158220 0.080460 0.567000 11448542
0.157662 0.083405 0.565000 10329275
0.157662 0.086633 0.565000 9668781
0.157662 0.089862 0.565000 9341343
0.155988 0.092102 0.559000 9209753
0.155709 0.095126 0.558000 9472168
0.155430 0.098138 0.557000 10063551
0.154871 0.100957 0.555000 11713746
0.159300 0.080460 0.567000 13024977
0.158738 0.083405 0.565000 11582415
0.158738 0.086633 0.565000 10528965
0.158457 0.089703 0.564000 10066619
0.157052 0.092102 0.559000 9871033
0.156771 0.095126 0.558000 10592964
0.156210 0.097962 0.556000 11647446
0.155648 0.100775 0.554000 13752787
0.159814 0.083405 0.565000 12568290
0.159531 0.086480 0.564000 12111069
0.158966 0.089385 0.562000 11712215
0.157834 0.091937 0.558000 11648729
0.157551 0.094955 0.557000 12240352
0.156986 0.097786 0.555000 12902125
0.156703 0.100775 0.554000 13485524
0.160321 0.086327 0.563000 13681350
0.160036 0.089385 0.562000 13354441
0.158612 0.091772 0.557000 13419471
0.158328 0.094785 0.556000 13815245
0.158043 0.097786 0.555000 14140363
0.157758 0.100775 0.554000 13284798
0.161393 0.086327 0.563000 13348014
0.161107 0.089385 0.562000 13220026
0.159673 0.091772 0.557000 13417156
0.159100 0.094614 0.555000 13416121
0.159100 0.097786 0.555000 13346474
0.160734 0.091772 0.557000 13414586
0.160157 0.094614 0.555000 13085365
0.159869 0.097610 0.554000 12560298
0.075041 0.085536 0.551000 10059391
0.075450 0.089168 0.554000 9994367
0.075586 0.092500 0.555000 10059909
0.076090 0.085536 0.551000 9731197
0.076505 0.089168 0.554000 10059900
0.076643 0.092500 0.555000 9994628
0.077280 0.085691 0.552000 9469093
0.077420 0.089007 0.553000 10058886
0.077560 0.092333 0.554000 9994625
0.077700 0.102014 0.555000 10126477
0.078120 0.105754 0.558000 10192272
0.078331 0.085691 0.552000 11049676
0.078190 0.088685 0.551000 10123408
0.078331 0.092000 0.552000 9731454
0.078331 0.095154 0.552000 9994376
0.078757 0.102014 0.555000 10126481
0.079041 0.105565 0.557000 10257809
0.079325 0.109138 0.559000 10258582
0.080176 0.116767 0.565000 10587803
0.079814 0.079814 0.555000 14210516
0.079527 0.082687 0.553000 13681610
0.079383 0.085691 0.552000 12700117
0.079239 0.088685 0.551000 10135742
0.079239 0.091833 0.551000 9534883
0.079095 0.094810 0.550000 10059661
0.079670 0.101830 0.554000 10061202
0.079814 0.105186 0.555000 10258067
0.080102 0.108748 0.557000 10258840
0.080390 0.112332 0.559000 10456219
0.081252 0.116767 0.565000 10653597
0.081252 0.119995 0.565000 10720164
0.081746 0.071060 0.561000 13496314
0.080871 0.076643 0.555000 12304590
0.080726 0.079670 0.554000 12036550
0.080580 0.082687 0.553000 12039633
0.080434 0.085691 0.552000 12239069
0.080143 0.088524 0.550000 12050669
0.080143 0.091667 0.550000 11182279
0.079997 0.094637 0.549000 10059667
0.079706 0.097418 0.547000 9994889
0.080580 0.101647 0.553000 10192531
0.080726 0.104996 0.554000 10323860
0.081017 0.108552 0.556000 10390171
0.081309 0.112131 0.558000 10521757
0.081746 0.115940 0.561000 10719135
0.082329 0.119995 0.565000 10785956
0.082329 0.123224 0.565000 10983592
0.083931 0.132206 0.576000 10983595
0.084223 0.135968 0.578000 11114668
0.082814 0.071060 0.561000 14800367
0.081929 0.076643 0.555000 10260406
0.081781 0.079670 0.554000 9859760
0.081486 0.082537 0.552000 10323375
0.081338 0.085536 0.551000 11702700
0.081043 0.088363 0.549000 13940674
0.080895 0.091333 0.548000 12764104
0.080895 0.094465 0.548000 10001585
0.080895 0.097596 0.548000 9862803
0.081190 0.101095 0.550000 10258068
0.081486 0.104617 0.552000 10323863
0.081929 0.108357 0.555000 10455964
0.082224 0.111930 0.557000 10653343
0.082519 0.115527 0.559000 10785185
0.083257 0.119783 0.564000 10917286
0.083405 0.123224 0.565000 11049131
0.084290 0.127795 0.571000 11114671
0.084881 0.131976 0.575000 11049646
0.085176 0.135732 0.577000 11245998
0.084481 0.068338 0.565000 13883894
0.084481 0.071567 0.565000 12826341
0.082986 0.076643 0.555000 9138334
0.082687 0.079527 0.553000 8875929
0.082537 0.082537 0.552000 8806541
0.082388 0.085536 0.551000 9202554
0.082089 0.088363 0.549000 10454167
0.081939 0.091333 0.548000 12368328
0.081790 0.094292 0.547000 11978959
0.081640 0.097240 0.546000 10390684
0.081640 0.100360 0.546000 10258070
0.081939 0.103859 0.548000 10389914
0.082687 0.107967 0.553000 10521245
0.083135 0.111730 0.556000 10719136
0.083434 0.115320 0.558000 10916515
0.083733 0.118933 0.560000 10983336
0.084481 0.123224 0.565000 11115183
0.084780 0.126900 0.567000 11180721
0.085976 0.131976 0.575000 11115185
0.086126 0.135497 0.576000 11180720
0.085709 0.065225 0.566000 14934000
0.085557 0.068338 0.565000 13617128
0.085557 0.071567 0.565000 10790102
0.084043 0.076643 0.555000 8027043
0.083740 0.079527 0.553000 7960734
0.083437 0.082388 0.551000 7237265
0.083437 0.085536 0.551000 6775936
0.083134 0.088363 0.549000 6976405
0.082831 0.091167 0.547000 11901104
0.082831 0.094292 0.547000 13876415
0.082680 0.097240 0.546000 10922441
0.082529 0.100176 0.545000 10258083
0.082529 0.103290 0.545000 10455967
0.083437 0.107576 0.551000 10587807
0.084043 0.111529 0.555000 10785188
0.084194 0.114907 0.556000 10982566
0.084497 0.118509 0.558000 11049387
0.085406 0.123006 0.564000 11180977
0.085860 0.126900 0.567000 11246515
0.086163 0.130599 0.569000 11180979
0.087223 0.135497 0.576000 11180722
0.086787 0.065225 0.566000 14408183
0.086633 0.068338 0.565000 12498649
0.086633 0.071567 0.565000 10721992
0.084640 0.079383 0.552000 8027043
0.084487 0.082388 0.551000 7435926
0.084180 0.088363 0.549000 7830419
0.083873 0.091167 0.547000 10323351
0.083873 0.094292 0.547000 11840431
0.083720 0.097240 0.546000 12040949
0.083567 0.100176 0.545000 10454704
0.083413 0.103101 0.544000 10455715
0.084333 0.107381 0.550000 10654112
0.084947 0.111328 0.554000 10851239
0.085100 0.114700 0.555000 11048361
0.085407 0.118296 0.557000 11115182
0.086020 0.122351 0.561000 11312308
0.086787 0.126676 0.566000 11377844
0.086940 0.130140 0.567000 11312309
0.088320 0.135497 0.576000 11312052
0.091387 0.160636 0.596000 10983070
0.087865 0.065225 0.566000 13880555
0.087710 0.068338 0.565000 11448028
0.085691 0.079383 0.552000 8158626
0.085691 0.082537 0.552000 7631764
0.084760 0.097240 0.546000 13154767
0.084605 0.100176 0.545000 10594761
0.084294 0.102911 0.543000 10454946
0.085381 0.107381 0.550000 10719906
0.085381 0.110524 0.550000 10917287
0.085847 0.114287 0.553000 11049131
0.086312 0.118084 0.556000 11181489
0.086623 0.121697 0.558000 11378101
0.087710 0.126452 0.565000 11443639
0.088020 0.130140 0.567000 11443639
0.088330 0.133850 0.569000 11508662
0.092367 0.156967 0.595000 11049389
0.092367 0.160367 0.595000 11048864
0.089257 0.062210 0.568000 14475257
0.089100 0.065340 0.567000 13090784
0.088786 0.068338 0.565000 11513310
0.099629 0.098421 0.634000 7498871
0.085486 0.099992 0.544000 12177635
0.085329 0.102911 0.543000 10850976
0.085171 0.105819 0.542000 10785444
0.086429 0.110524 0.550000 10983335
0.086586 0.113873 0.551000 11180717
0.087214 0.117871 0.555000 11247283
0.087214 0.121043 0.555000 11509687
0.088786 0.126452 0.565000 11509945
0.089100 0.130140 0.567000 11574969
0.089100 0.133380 0.567000 11377847
0.088786 0.136138 0.565000 11115184
0.092871 0.152534 0.591000 11049387
0.093500 0.156967 0.595000 11115437
0.093343 0.160097 0.594000 11048610
0.090339 0.062210 0.568000 14145778
0.090339 0.065455 0.568000 12238304
0.089862 0.068338 0.565000 11645405
0.100041 0.094050 0.629000 7565200
0.100836 0.098421 0.634000 7433085
0.086522 0.099992 0.544000 13745097
0.086363 0.102911 0.543000 11183044
0.086204 0.105819 0.542000 10851239
0.087158 0.110122 0.548000 11049131
0.087317 0.113460 0.549000 11246513
0.088112 0.117659 0.554000 11378614
0.088271 0.121043 0.555000 11575737
0.089544 0.126005 0.563000 11641788
0.090021 0.129910 0.566000 11640507
0.090021 0.133145 0.566000 11312567
0.089703 0.135897 0.564000 11114927
0.093997 0.152534 0.591000 11114926
0.094633 0.156967 0.595000 11115695
0.094315 0.159828 0.593000 11048101
0.091582 0.062319 0.569000 13749738
0.091421 0.065455 0.568000 12434145
0.093352 0.070152 0.580000 11381724
0.101561 0.094350 0.631000 7565199
0.102044 0.098421 0.634000 7498882
0.087558 0.099992 0.544000 11774128
0.087236 0.102722 0.542000 12171240
0.087236 0.105819 0.542000 10720427
0.088041 0.109921 0.547000 11180718
0.088202 0.113253 0.548000 11312564
0.089168 0.117659 0.554000 11509944
0.089490 0.121261 0.556000 11641532
0.089650 0.124662 0.557000 11707583
0.091099 0.129910 0.566000 11640765
0.091260 0.133380 0.567000 11312567
0.091260 0.136620 0.567000 11114927
0.094801 0.152018 0.589000 11180976
0.095606 0.156703 0.594000 11247024
0.095606 0.160097 0.594000 10916775
0.092991 0.059275 0.571000 14935030
0.092829 0.062429 0.570000 13354987
0.092991 0.065801 0.571000 12630499
0.094457 0.070152 0.580000 11054294
0.097551 0.075873 0.599000 9934269
0.102926 0.094499 0.632000 7564940
0.103414 0.098576 0.635000 7498622
0.088269 0.102722 0.542000 13223125
0.088106 0.105624 0.541000 10591934
0.088269 0.108916 0.542000 11312053
0.089246 0.113253 0.548000 11378615
0.089897 0.117234 0.552000 11641531
0.090386 0.121043 0.555000 11707583
0.090549 0.124438 0.556000 11838914
0.092014 0.129681 0.565000 11641279
0.092177 0.133145 0.566000 11312312
0.092177 0.136379 0.566000 11049391
0.095760 0.151760 0.588000 11246771
0.096574 0.156439 0.593000 11312564
0.096737 0.160097 0.594000 10850209
0.094244 0.059379 0.572000 14539508
0.094244 0.062648 0.572000 13157611
0.095232 0.066608 0.578000 12563942
0.095562 0.070152 0.580000 10921680
0.098692 0.075873 0.599000 9867963
0.103470 0.090312 0.628000 7894682
0.104294 0.094649 0.633000 7499402
0.104789 0.098731 0.636000 7368058
0.089136 0.105624 0.541000 11772882
0.089301 0.108916 0.542000 11312059
0.089466 0.112220 0.543000 11510201
0.090290 0.116385 0.548000 11707325
0.091113 0.120607 0.553000 11838658
0.091772 0.124662 0.557000 11904964
0.092431 0.128763 0.561000 11707329
0.093255 0.133145 0.566000 11312569
0.093255 0.136379 0.566000 11049391
0.096880 0.151760 0.588000 11378357
0.097704 0.156439 0.593000 11378871
0.097869 0.160097 0.594000 10784667
0.095500 0.059483 0.573000 14145776
0.095667 0.062867 0.574000 12960235
0.096667 0.066838 0.580000 12433380
0.096667 0.070152 0.580000 10725325
0.099667 0.075747 0.598000 9736892
0.104500 0.090169 0.627000 7894425
0.105333 0.094499 0.632000 7433864
0.106333 0.099042 0.638000 7302781
0.090333 0.105819 0.542000 12958933
0.090167 0.108715 0.541000 11311544
0.090333 0.112013 0.542000 11641531
0.090500 0.115323 0.543000 11773120
0.091833 0.120170 0.551000 11904708
0.092667 0.124438 0.556000 11970759
0.093167 0.128304 0.559000 11772867
0.094167 0.132910 0.565000 11312313
0.094167 0.136138 0.565000 11049391
0.097833 0.151502 0.587000 11444151
0.098667 0.156175 0.592000 11379386
0.099000 0.160097 0.594000 10718619
0.097500 0.177729 0.585000 12295844
0.096591 0.056209 0.573000 14673403
0.096591 0.059483 0.573000 13881325
0.096929 0.062976 0.575000 12960490
0.097771 0.066838 0.580000 12367074
0.099794 0.071604 0.592000 10724041
0.100806 0.075747 0.598000 9473725
0.101311 0.079561 0.601000 8750514
0.105694 0.090169 0.627000 7763096
0.106537 0.094499 0.632000 7433862
0.107549 0.099042 0.638000 7368063
0.091366 0.105819 0.542000 13226968
0.091029 0.108514 0.540000 11838644
0.091366 0.112013 0.542000 11707325
0.091703 0.115535 0.544000 11838914
0.092714 0.119952 0.550000 12036295
0.093557 0.124214 0.555000 12037065
0.094063 0.128074 0.558000 11838405
0.095243 0.132910 0.565000 11312569
0.095917 0.137102 0.569000 11049391
0.098951 0.151502 0.587000 11575992
0.099626 0.155911 0.591000 11511229
0.100131 0.160097 0.594000 10587802
0.098614 0.177729 0.585000 11703717
0.097683 0.056209 0.573000 15069944
0.097683 0.059483 0.573000 13619181
0.098194 0.063086 0.576000 12961002
0.099047 0.066953 0.581000 12236258
0.100922 0.071604 0.592000 10723788
0.101945 0.075747 0.598000 9211834
0.102286 0.079429 0.600000 8618672
0.106036 0.085895 0.622000 8093091
0.106718 0.090025 0.626000 7631254
0.107741 0.094499 0.632000 7433604
0.108934 0.099197 0.639000 7433598
0.092398 0.105819 0.542000 13415617
0.092057 0.108514 0.540000 12365264
0.092228 0.111807 0.541000 11772862
0.092569 0.115323 0.543000 11970244
0.093421 0.119516 0.548000 12167880
0.094614 0.124214 0.555000 12168394
0.094955 0.127845 0.557000 11839429
0.095978 0.132439 0.563000 11377592
0.097001 0.137102 0.569000 11049135
0.099899 0.151244 0.586000 11642044
0.100751 0.155911 0.591000 11642820
0.101433 0.160367 0.595000 10458550
0.099899 0.178032 0.586000 11111323
0.099388 0.180452 0.583000 12097690
0.098947 0.056307 0.574000 14935541
0.099119 0.059690 0.575000 13552109
0.099636 0.063305 0.578000 12895209
0.100326 0.067069 0.582000 12169698
0.102050 0.071604 0.592000 10526927
0.103256 0.075873 0.599000 9276088
0.103429 0.079429 0.600000 8618670
0.107221 0.085895 0.622000 8092833
0.107910 0.090025 0.626000 7631508
0.109117 0.094649 0.633000 7368066
0.110151 0.099197 0.639000 7498876
0.092913 0.108313 0.539000 12697580
0.093258 0.111807 0.541000 11903936
0.093430 0.115110 0.542000 12102341
0.094465 0.119516 0.548000 12234185
0.095327 0.123767 0.553000 12234443
0.096016 0.127845 0.557000 11905734
0.096706 0.131969 0.561000 11312567
0.097050 0.135656 0.563000 11048622
0.101015 0.151244 0.586000 11707328
0.101877 0.155911 0.591000 11905740
0.102394 0.160097 0.594000 10985682
0.101015 0.178032 0.586000 10388625
0.100498 0.180452 0.583000 11506580
0.100040 0.056307 0.574000 14803699
0.100214 0.059690 0.575000 13421805
0.100737 0.063305 0.578000 12895465
0.101957 0.067414 0.585000 12039134
0.103351 0.071725 0.593000 10396625
0.104397 0.075873 0.599000 9276343
0.104571 0.079429 0.600000 8553133
0.107709 0.085343 0.618000 8027040
0.109277 0.090169 0.627000 7631251
0.110497 0.094798 0.634000 7302530
0.111369 0.099197 0.639000 7498875
0.093591 0.107911 0.537000 12964072
0.093940 0.111393 0.539000 12036807
0.094289 0.114898 0.541000 12233928
0.094637 0.118426 0.543000 12300234
0.095857 0.123095 0.550000 12300237
0.097077 0.127845 0.557000 11971527
0.097600 0.131733 0.560000 11313082
0.098123 0.135656 0.563000 10982572
0.101957 0.150986 0.585000 11772870
0.103003 0.155911 0.591000 12105173
0.103700 0.160367 0.595000 11513560
0.102131 0.178032 0.586000 9733015
0.101609 0.180452 0.583000 10914450
0.101310 0.056405 0.575000 14540017
0.101486 0.059794 0.576000 13486574
0.102190 0.063524 0.580000 12829417
0.103424 0.067645 0.587000 11972827
0.104481 0.071725 0.593000 10264274
0.105538 0.075873 0.599000 9276086
0.108533 0.081547 0.616000 8487596
0.108886 0.085343 0.618000 7961247
0.110295 0.090025 0.626000 7631249
0.111705 0.094798 0.634000 7302785
0.112586 0.099197 0.639000 7564409
0.094614 0.107911 0.537000 12829412
0.094967 0.111393 0.539000 12102607
0.095319 0.114898 0.541000 12234186
0.095495 0.118208 0.542000 12366028
0.096552 0.122648 0.548000 12366286
0.097786 0.127386 0.555000 12167625
0.098490 0.131498 0.559000 11180988
0.099195 0.135656 0.563000 10916010
0.103248 0.151244 0.586000 11971276
0.103952 0.155648 0.590000 12368862
0.104833 0.160367 0.595000 12171486
0.105010 0.164042 0.596000 12041440
0.103248 0.178032 0.586000 9668508
0.102719 0.180452 0.583000 10518416
0.102227 0.056307 0.574000 14277359
0.102583 0.059794 0.576000 13486830
0.103473 0.063633 0.581000 12829931
0.104364 0.067530 0.586000 11907799
0.105610 0.071725 0.593000 10133197
0.107213 0.076253 0.602000 9210808
0.109707 0.081547 0.616000 8487084
0.110063 0.085343 0.618000 7829918
0.111488 0.090025 0.626000 7696014
0.112912 0.094798 0.634000 7302529
0.113803 0.099197 0.639000 7564156
0.095637 0.107911 0.537000 12762817
0.095815 0.111187 0.538000 12105944
0.096171 0.114686 0.540000 12299725
0.096528 0.118208 0.542000 12431566
0.097596 0.122648 0.548000 12432081
0.098309 0.126697 0.552000 12365516
0.099555 0.131498 0.559000 11049655
0.100268 0.135656 0.563000 10851242
0.100980 0.139860 0.567000 11180719
0.104186 0.150986 0.585000 12103889
0.104720 0.155120 0.588000 12565728
0.105789 0.160097 0.594000 12894182
0.105967 0.163767 0.595000 12895208
0.105789 0.166886 0.594000 11975141
0.104898 0.175578 0.589000 10130098
0.104186 0.177729 0.585000 9604002
0.103651 0.180143 0.582000 10060947
0.103500 0.056405 0.575000 14210541
0.104040 0.060002 0.578000 13486574
0.104760 0.063743 0.582000 12763885
0.105480 0.067530 0.586000 11578836
0.107460 0.072209 0.597000 10132424
0.108360 0.076253 0.602000 9210554
0.110700 0.081414 0.615000 8421548
0.111060 0.085205 0.617000 7895453
0.112680 0.090025 0.626000 7630730
0.114120 0.094798 0.634000 7302786
0.115020 0.099197 0.639000 7564414
0.096660 0.107911 0.537000 11904669
0.096660 0.110980 0.537000 12959968
0.096840 0.114261 0.538000 12365519
0.097560 0.118208 0.542000 12497360
0.098640 0.122648 0.548000 12563667
0.099000 0.126238 0.550000 12431568
0.100440 0.131263 0.558000 10984370
0.101340 0.135656 0.563000 10785450
0.101700 0.139367 0.565000 11246001
0.105300 0.150986 0.585000 12367062
0.106020 0.155384 0.589000 12959970
0.106920 0.160097 0.594000 13288685
0.107100 0.163767 0.595000 13682416
0.106920 0.166886 0.594000 12697842
0.106740 0.169993 0.593000 11644127
0.106020 0.175578 0.589000 10261945
0.105300 0.177729 0.585000 9735335
0.104760 0.180143 0.582000 10061463
0.104595 0.053119 0.575000 15525617
0.104595 0.056405 0.575000 14144749
0.105323 0.060106 0.579000 13487342
0.106050 0.063852 0.583000 12698601
0.106778 0.067645 0.587000 11251672
0.108597 0.072209 0.597000 10198724
0.109689 0.076380 0.603000 9144505
0.111871 0.081414 0.615000 8421036
0.112235 0.085205 0.617000 7894684
0.113690 0.089881 0.625000 7630728
0.115146 0.094649 0.633000 7302785
0.116055 0.099042 0.638000 7629951
0.097865 0.108112 0.538000 11111574
0.097865 0.111187 0.538000 13749212
0.097683 0.114049 0.537000 12431310
0.098592 0.118208 0.542000 12497874
0.099502 0.122424 0.547000 12629461
0.099866 0.126009 0.549000 12432594
0.101139 0.130792 0.556000 10983598
0.102230 0.135415 0.562000 10653866
0.102776 0.139367 0.565000 11245747
0.107142 0.155384 0.589000 13289959
0.108051 0.160097 0.594000 13750260
0.108233 0.163767 0.595000 14476278
0.108051 0.166886 0.594000 13421809
0.107870 0.169993 0.593000 12434151
0.106960 0.175280 0.588000 10394043
0.106414 0.177729 0.585000 9932716
0.105869 0.180143 0.582000 10064551
0.105690 0.053119 0.575000 15394805
0.105874 0.056503 0.576000 14144493
0.106610 0.060210 0.580000 13487086
0.107161 0.063852 0.583000 12632293
0.108080 0.067760 0.588000 11513052
0.109367 0.071967 0.595000 10066368
0.111389 0.076760 0.606000 9078969
0.113043 0.081414 0.615000 8355755
0.113410 0.085205 0.617000 7960218
0.115065 0.090025 0.626000 7630726
0.116168 0.094499 0.632000 7368320
0.117270 0.099042 0.638000 7564415
0.098890 0.111187 0.538000 13949912
0.098706 0.114049 0.537000 12628429
0.099073 0.117553 0.539000 12563669
0.100360 0.122200 0.546000 12760791
0.100911 0.126009 0.549000 12563669
0.102014 0.130557 0.555000 10852265
0.102750 0.134692 0.559000 10653355
0.103669 0.139120 0.564000 11377588
0.107896 0.154856 0.587000 13488108
