# .PCD v.7 - Point Cloud Data file format
VERSION .7
FIELDS x y z rgb
SIZE 4 4 4 4
TYPE F F F I
COUNT 1 1 1 1
WIDTH 1311
HEIGHT 1
POINTS 1311
DATA ascii
0.253946 -0.053151 0.689000 8814483
0.254314 -0.049286 0.690000 8616847
0.254314 -0.045343 0.690000 8288397
0.254683 -0.041460 0.691000 7301248
0.254683 -0.037511 0.691000 13032928
0.231094 -0.030454 0.627000 12431305
0.231463 -0.026914 0.628000 12562893
0.231831 -0.023363 0.629000 12629458
0.233306 -0.019894 0.633000 12891861
0.234043 -0.016329 0.635000 13023190
0.235517 -0.012780 0.639000 13090009
0.237360 -0.009200 0.644000 13221083
0.237729 -0.005529 0.645000 13353436
0.238466 -0.001849 0.647000 13484511
0.240677 0.001866 0.653000 13549794
0.241414 0.005614 0.655000 13682402
0.242151 0.009386 0.657000 13747683
0.243626 0.013220 0.661000 13813476
0.245100 0.017100 0.665000 13879521
0.246574 0.021026 0.669000 13747684
0.247311 0.024923 0.671000 13944799
0.253406 -0.072309 0.684000 12565186
0.253035 -0.068300 0.683000 9997474
0.253035 -0.064397 0.683000 9603486
0.253406 -0.060583 0.684000 9340056
0.254147 -0.056840 0.686000 9142677
0.254517 -0.052997 0.687000 8814482
0.255258 -0.049214 0.689000 8551310
0.255629 -0.045343 0.690000 8353678
0.255629 -0.041400 0.690000 7300735
0.255629 -0.037457 0.690000 13027040
0.232289 -0.030454 0.627000 12563147
0.232659 -0.026914 0.628000 12694736
0.233030 -0.023363 0.629000 12826579
0.234511 -0.019894 0.633000 13023191
0.235623 -0.016354 0.636000 13154776
0.236734 -0.012780 0.639000 13221340
0.238587 -0.009200 0.644000 13286877
0.239328 -0.005537 0.646000 13419230
0.240069 -0.001851 0.648000 13550049
0.242662 0.001871 0.655000 13616100
0.243032 0.005623 0.656000 13748195
0.243773 0.009400 0.658000 13813475
0.245255 0.013240 0.662000 13813734
0.246737 0.017126 0.666000 13879264
0.247849 0.021026 0.669000 13813474
0.248960 0.024960 0.672000 13944543
0.254709 -0.072309 0.684000 13087936
0.253219 -0.068000 0.680000 10127782
0.253219 -0.064114 0.680000 9668766
0.253964 -0.060406 0.682000 9339801
0.254709 -0.056674 0.684000 9142421
0.255453 -0.052920 0.686000 8814225
0.255826 -0.049071 0.687000 8485775
0.255826 -0.045146 0.687000 8353422
0.256570 -0.041340 0.689000 7235711
0.256943 -0.037457 0.690000 13032422
0.233855 -0.030503 0.628000 12694736
0.233855 -0.026914 0.628000 12826323
0.234972 -0.023437 0.631000 12958166
0.236090 -0.019926 0.634000 13154007
0.237579 -0.016406 0.638000 13286618
0.237951 -0.012780 0.639000 13287132
0.240186 -0.009214 0.645000 13353182
0.240558 -0.005537 0.646000 13485024
0.241303 -0.001851 0.648000 13550817
0.243910 0.001871 0.655000 13747684
0.244282 0.005623 0.656000 13813733
0.245771 0.009429 0.660000 13879010
0.246889 0.013260 0.663000 13813731
0.248006 0.017126 0.666000 13944544
0.249123 0.021026 0.669000 13878490
0.250985 0.025034 0.674000 13944271
0.254514 -0.068000 0.680000 10325673
0.254514 -0.064114 0.680000 9734302
0.254514 -0.060229 0.680000 9339802
0.255637 -0.056591 0.683000 9338518
0.256011 -0.052766 0.684000 8814479
0.256011 -0.048857 0.684000 8551312
0.256760 -0.045080 0.686000 8353678
0.256760 -0.041160 0.686000 7168896
0.256760 -0.037240 0.686000 13094379
0.235051 -0.030503 0.628000 12825812
0.235051 -0.026914 0.628000 12957909
0.236174 -0.023437 0.631000 13155288
0.237297 -0.019926 0.634000 13286615
0.238794 -0.016406 0.638000 13352668
0.239543 -0.012800 0.640000 13418716
0.241414 -0.009214 0.645000 13484512
0.241789 -0.005537 0.646000 13550817
0.243286 -0.001857 0.650000 13616609
0.245157 0.001871 0.655000 13747683
0.246280 0.005640 0.658000 13813991
0.247029 0.009429 0.660000 13879265
0.248151 0.013260 0.663000 13879520
0.249649 0.017151 0.667000 14010079
0.250771 0.021057 0.670000 13942482
0.252643 0.025071 0.675000 14007230
0.255810 -0.068000 0.680000 10455990
0.255433 -0.064020 0.679000 9799837
0.255433 -0.060140 0.679000 9339802
0.256562 -0.056509 0.682000 9535382
0.256562 -0.052611 0.682000 8814481
0.256938 -0.048786 0.683000 8616848
0.257314 -0.044949 0.684000 8419214
0.258067 -0.041160 0.686000 7103877
0.258067 -0.037240 0.686000 13166063
0.236248 -0.030503 0.628000 12957654
0.236624 -0.026957 0.629000 13089752
0.237376 -0.023437 0.631000 13286874
0.238881 -0.019957 0.635000 13418458
0.240386 -0.016431 0.639000 13418717
0.240762 -0.012800 0.640000 13550302
0.242643 -0.009214 0.645000 13550560
0.243395 -0.005546 0.647000 13616866
0.244524 -0.001857 0.650000 13682146
0.246405 0.001871 0.655000 13812965
0.247533 0.005640 0.658000 13813988
0.248662 0.009443 0.661000 13878753
0.250167 0.013300 0.665000 13878487
0.251671 0.017203 0.669000 14075340
0.252048 0.021057 0.670000 13941186
0.253929 0.025071 0.675000 14136765
0.257105 -0.068000 0.680000 10852290
0.256727 -0.064020 0.679000 9865628
0.256727 -0.060140 0.679000 9274265
0.257105 -0.056343 0.680000 9338774
0.257105 -0.052457 0.680000 8814482
0.257105 -0.048571 0.680000 8616849
0.257861 -0.044817 0.682000 8419214
0.258617 -0.041040 0.684000 6971787
0.238578 -0.034254 0.631000 13489907
0.237822 -0.030551 0.629000 13089495
0.237822 -0.026957 0.629000 13221338
0.239334 -0.023511 0.633000 13418460
0.240090 -0.019957 0.635000 13484509
0.241603 -0.016431 0.639000 13550047
0.241981 -0.012800 0.640000 13616352
0.243871 -0.009214 0.645000 13682145
0.244628 -0.005546 0.647000 13682659
0.246140 -0.001860 0.651000 13747684
0.248030 0.001874 0.656000 13813222
0.249543 0.005657 0.660000 13814242
0.251433 0.009500 0.665000 13879008
0.251433 0.013300 0.665000 13810382
0.252946 0.017203 0.669000 14006457
0.258400 -0.068000 0.680000 11246029
0.258020 -0.064020 0.679000 9931163
0.258020 -0.060140 0.679000 9274266
0.258020 -0.056260 0.679000 9142165
0.258400 -0.052457 0.680000 8748691
0.258400 -0.048571 0.680000 8616848
0.259160 -0.044817 0.682000 8484751
0.259540 -0.040980 0.683000 6775688
0.239020 -0.034146 0.629000 13824249
0.239020 -0.030551 0.629000 13221081
0.239020 -0.026957 0.629000 13287387
0.240920 -0.023549 0.634000 13484253
0.241300 -0.019957 0.635000 13550557
0.242820 -0.016431 0.639000 13616352
0.243580 -0.012820 0.641000 13682401
0.245100 -0.009214 0.645000 13747939
0.246240 -0.005554 0.648000 13748195
0.247380 -0.001860 0.651000 13747941
0.249280 0.001874 0.656000 13879011
0.251560 0.005674 0.662000 13813209
0.252700 0.009500 0.665000 13944009
0.251940 0.013260 0.663000 13743551
0.258931 -0.063926 0.678000 9997723
0.258931 -0.060051 0.678000 9405595
0.259313 -0.056260 0.679000 9142421
0.259313 -0.052380 0.679000 8748691
0.258931 -0.048429 0.678000 8616848
0.259313 -0.044620 0.679000 8484751
0.260459 -0.040920 0.682000 6707334
0.240218 -0.034146 0.629000 14147582
0.240218 -0.030551 0.629000 13286875
0.240982 -0.027043 0.631000 13353180
0.242128 -0.023549 0.634000 13550303
0.242891 -0.019989 0.636000 13616605
0.244419 -0.016457 0.640000 13682146
0.244801 -0.012820 0.641000 13747938
0.246710 -0.009229 0.646000 13813477
0.247474 -0.005554 0.648000 13813730
0.249002 -0.001863 0.652000 13813989
0.250530 0.001874 0.656000 13813727
0.253967 0.005700 0.665000 13679824
0.253967 0.009500 0.665000 13808305
0.260223 -0.063926 0.678000 9997730
0.260223 -0.060051 0.678000 9471132
0.259455 -0.056011 0.676000 9076629
0.259455 -0.052149 0.676000 8814229
0.259455 -0.048286 0.676000 8617104
0.259455 -0.044423 0.676000 8419215
0.260607 -0.040740 0.679000 6578576
0.241416 -0.034146 0.629000 14479357
0.241416 -0.030551 0.629000 13352669
0.242184 -0.027043 0.631000 13484766
0.243335 -0.023549 0.634000 13616095
0.244870 -0.020051 0.638000 13682400
0.245638 -0.016457 0.640000 13682146
0.246406 -0.012840 0.642000 13879012
0.248325 -0.009243 0.647000 13813476
0.249476 -0.005571 0.650000 13879010
0.250244 -0.001863 0.652000 13813211
0.253314 0.001886 0.660000 13681866
0.255233 0.005700 0.665000 13480634
0.260743 -0.063737 0.676000 9800873
0.260743 -0.059874 0.676000 9471644
0.260357 -0.055929 0.675000 9076629
0.260357 -0.052071 0.675000 8814231
0.260357 -0.048214 0.675000 8682640
0.260357 -0.044357 0.675000 8484751
0.260743 -0.040560 0.676000 6634905
0.242614 -0.034146 0.629000 14474491
0.242614 -0.030551 0.629000 13418464
0.243386 -0.027043 0.631000 13550560
0.244929 -0.023586 0.635000 13682144
0.246086 -0.020051 0.638000 13747938
0.247243 -0.016483 0.641000 13747683
0.248400 -0.012880 0.644000 13879014
0.249943 -0.009257 0.648000 13944547
0.251100 -0.005580 0.651000 13813473
0.251486 -0.001863 0.652000 13679825
0.254571 0.001886 0.660000 13545652
0.256500 0.005700 0.665000 13542821
0.262030 -0.063737 0.676000 9540529
0.261643 -0.059786 0.675000 9471901
0.261255 -0.055846 0.674000 9076886
0.261255 -0.051994 0.674000 8879509
0.261255 -0.048143 0.674000 8682384
0.261643 -0.044357 0.675000 8550287
0.261643 -0.040500 0.675000 6711195
0.243812 -0.034146 0.629000 14475765
0.244588 -0.030649 0.631000 13484256
0.244588 -0.027043 0.631000 13616609
0.246526 -0.023623 0.636000 13747938
0.247301 -0.020051 0.638000 13813730
0.248464 -0.016483 0.641000 13748195
0.249627 -0.012880 0.644000 13944294
0.252340 -0.009300 0.651000 14074843
0.252728 -0.005589 0.652000 13813196
0.252728 -0.001863 0.652000 13546171
0.253115 0.001866 0.653000 13346735
0.262539 -0.059697 0.674000 9537437
0.261370 -0.055597 0.671000 9076887
0.261760 -0.051840 0.672000 8879506
0.261760 -0.048000 0.672000 8813456
0.262539 -0.044291 0.674000 8353935
0.262539 -0.040440 0.674000 8409756
0.245010 -0.034146 0.629000 14538735
0.245790 -0.030649 0.631000 13615841
0.246179 -0.027086 0.632000 13682401
0.248516 -0.023697 0.638000 13813475
0.248906 -0.020083 0.639000 13879266
0.249685 -0.016483 0.641000 13748452
0.251632 -0.012920 0.646000 13813989
0.253580 -0.009300 0.651000 13809875
0.253970 -0.005589 0.652000 13742519
0.253970 -0.001863 0.652000 13609125
0.263823 -0.059697 0.674000 9536923
0.262257 -0.055514 0.670000 9077145
0.262257 -0.051686 0.670000 8879250
0.262649 -0.047929 0.671000 8944527
0.263040 -0.044160 0.672000 8223116
0.263040 -0.040320 0.672000 10062249
0.246991 -0.034254 0.631000 14601705
0.246991 -0.030649 0.631000 13682146
0.247383 -0.027086 0.632000 13747939
0.249731 -0.023697 0.638000 13813731
0.249731 -0.020051 0.638000 13944547
0.252080 -0.016560 0.644000 13747419
0.253254 -0.012940 0.647000 13682894
0.254820 -0.009300 0.651000 13546171
0.255211 -0.005589 0.652000 13674417
0.264320 -0.059520 0.672000 9669017
0.263533 -0.055514 0.670000 9274522
0.263533 -0.051686 0.670000 8813713
0.263533 -0.047857 0.670000 8813198
0.263927 -0.044094 0.671000 7959945
0.263927 -0.040260 0.671000 11638967
0.248193 -0.034254 0.631000 14405347
0.248193 -0.030649 0.631000 13747938
0.248587 -0.027086 0.632000 13813733
0.250947 -0.023697 0.638000 13813987
0.251340 -0.020083 0.639000 13813987
0.253307 -0.016560 0.644000 13613778
0.255667 -0.013000 0.650000 13612470
0.256060 -0.009300 0.651000 13543076
0.256453 -0.005589 0.652000 13609131
0.265600 -0.059520 0.672000 9802417
0.264414 -0.055431 0.669000 9405594
0.263624 -0.051454 0.667000 8813461
0.263624 -0.047643 0.667000 8682383
0.264810 -0.044029 0.670000 7697542
0.264414 -0.040140 0.669000 13153737
0.249395 -0.034254 0.631000 14273249
0.249395 -0.030649 0.631000 13813474
0.250976 -0.027214 0.635000 13945316
0.252952 -0.023771 0.640000 13813469
0.252557 -0.020083 0.639000 13682635
0.254533 -0.016560 0.644000 13480894
0.256905 -0.013000 0.650000 13610163
0.257300 -0.009300 0.651000 13543336
0.266880 -0.059520 0.672000 10395848
0.264894 -0.055266 0.667000 9340315
0.264497 -0.051377 0.666000 8945305
0.264497 -0.047571 0.666000 8747920
0.264894 -0.043831 0.667000 8087682
0.265689 -0.040140 0.669000 14212060
0.250597 -0.034254 0.631000 14076383
0.250994 -0.030697 0.632000 13813730
0.253774 -0.027386 0.639000 13813986
0.253774 -0.023734 0.639000 13681111
0.253774 -0.020083 0.639000 13611955
0.258143 -0.013000 0.650000 13544367
0.258540 -0.009300 0.651000 13478315
0.265766 -0.055183 0.666000 9210021
0.265766 -0.051377 0.666000 9142424
0.265367 -0.047500 0.665000 8813454
0.265367 -0.043700 0.665000 8480399
0.266963 -0.040140 0.669000 15259622
0.252597 -0.034363 0.633000 13944034
0.252996 -0.030794 0.634000 13813727
0.254991 -0.027386 0.639000 13682379
0.255390 -0.023771 0.640000 13482176
0.254991 -0.020083 0.639000 13542835
0.265831 -0.054934 0.663000 9800367
0.265831 -0.051146 0.663000 9077143
0.265831 -0.047357 0.663000 8616588
0.265831 -0.043569 0.663000 9864091
0.254204 -0.034417 0.634000 13879013
0.255006 -0.030891 0.636000 13681885
0.256209 -0.027386 0.639000 13546163
0.256610 -0.023771 0.640000 13544105
0.256610 -0.020114 0.640000 13477554
0.266691 -0.054851 0.662000 10330816
0.266691 -0.051069 0.662000 9011364
0.266289 -0.047214 0.661000 8419486
0.267094 -0.043569 0.663000 11244736
0.255411 -0.034417 0.634000 13813199
0.256217 -0.030891 0.636000 13547461
0.257426 -0.027386 0.639000 13476786
0.266333 -0.054520 0.658000 11977424
0.266333 -0.050760 0.658000 10327472
0.264310 -0.046643 0.653000 9928879
0.256619 -0.034417 0.634000 13677497
0.257429 -0.030891 0.636000 13411756
0.258643 -0.027386 0.639000 13345968
0.267587 -0.054520 0.658000 13548478
0.267180 -0.050683 0.657000 11712971
0.265553 -0.046643 0.653000 11450317
0.257827 -0.034417 0.634000 13542829
0.268840 -0.054520 0.658000 13479084
0.268431 -0.050683 0.657000 12896486
0.265571 -0.046429 0.650000 12969452
0.269683 -0.050683 0.657000 14074568
0.266810 -0.046429 0.650000 14468042
0.268048 -0.046429 0.650000 14001832
0.153643 -0.025266 0.717000 11832703
0.154286 -0.021257 0.720000 11963017
0.154144 -0.029199 0.713000 9928580
0.154792 -0.025230 0.716000 10123911
0.155009 -0.021169 0.717000 10782348
0.155441 -0.017119 0.719000 11635854
0.155502 -0.029199 0.713000 9994378
0.155720 -0.025160 0.714000 10060174
0.156374 -0.021169 0.717000 10651279
0.156810 -0.017119 0.719000 11110542
0.156374 -0.012974 0.717000 11503746
0.155540 -0.037033 0.707000 9796475
0.156200 -0.033133 0.710000 9797251
0.156420 -0.029117 0.711000 10059397
0.157080 -0.025160 0.714000 9995658
0.157740 -0.021169 0.717000 10520465
0.158180 -0.017119 0.719000 10651792
0.158180 -0.013010 0.719000 11175817
0.156887 -0.041073 0.707000 9401735
0.156887 -0.037033 0.707000 9467511
0.157552 -0.033133 0.710000 9665403
0.158218 -0.029199 0.713000 9927551
0.158440 -0.025160 0.714000 9797766
0.159106 -0.021169 0.717000 10258067
0.159550 -0.017119 0.719000 10521233
0.159550 -0.013010 0.719000 10979985
0.158233 -0.041073 0.707000 8942214
0.158457 -0.037086 0.708000 9074567
0.158905 -0.033133 0.710000 9534610
0.159576 -0.029199 0.713000 9800342
0.159800 -0.025160 0.714000 9600153
0.160471 -0.021169 0.717000 9929877
0.160919 -0.017119 0.719000 10456213
0.160919 -0.013010 0.719000 10718612
0.160919 -0.008902 0.719000 10651790
0.159129 -0.040957 0.705000 10059396
0.159580 -0.037033 0.707000 11308951
0.160257 -0.033133 0.710000 11639464
0.160934 -0.029199 0.713000 11774382
0.161160 -0.025160 0.714000 11376811
0.161837 -0.021169 0.717000 10718103
0.162289 -0.017119 0.719000 10324120
0.162289 -0.013010 0.719000 10718872
0.162514 -0.008914 0.720000 10783894
0.160016 -0.044858 0.703000 8876673
0.160471 -0.040957 0.705000 11179418
0.160927 -0.037033 0.707000 13477538
0.161610 -0.033133 0.710000 13805222
0.162292 -0.029199 0.713000 13740457
0.162520 -0.025160 0.714000 13151656
0.163203 -0.021169 0.717000 11442846
0.163886 -0.017143 0.720000 10258072
0.163886 -0.013029 0.720000 10718875
0.163886 -0.008914 0.720000 10850458
0.160896 -0.044730 0.701000 11307656
0.161355 -0.040841 0.703000 12428975
0.161814 -0.036929 0.705000 13412524
0.162503 -0.033040 0.708000 13542820
0.163880 -0.025160 0.714000 13281700
0.164569 -0.021169 0.717000 12363173
0.165257 -0.017143 0.720000 10981527
0.165257 -0.013029 0.720000 10784670
0.162000 -0.048667 0.700000 10120329
0.162231 -0.044730 0.701000 13739164
0.162694 -0.040841 0.703000 13740972
0.163157 -0.036929 0.705000 13346475
0.165934 -0.021169 0.717000 13280162
0.166629 -0.017143 0.720000 11768728
0.167091 -0.013065 0.722000 10850716
0.162633 -0.056424 0.697000 12756133
0.162867 -0.048528 0.698000 10846596
0.163333 -0.044667 0.700000 13611185
0.168467 -0.013065 0.722000 10982042
0.163961 -0.056424 0.697000 12559020
0.163961 -0.052441 0.697000 10981276
0.163961 -0.048458 0.697000 11569304
0.164667 -0.044667 0.700000 13413803
0.170077 -0.013083 0.723000 11047319
0.164577 -0.052215 0.694000 10717336
0.164814 -0.048319 0.695000 12294571
0.166000 -0.044667 0.700000 13478566
0.165182 -0.051990 0.691000 10455188
0.165899 -0.048250 0.694000 12954792
0.167333 -0.044667 0.700000 13478057
0.166498 -0.051990 0.691000 10255761
0.166980 -0.048180 0.693000 13084068
0.167814 -0.051990 0.691000 10060692
0.168300 -0.048180 0.693000 13282984
0.168886 -0.051914 0.690000 9861272
0.169620 -0.048180 0.693000 13478316
0.170200 -0.051914 0.690000 9601689
0.169953 -0.047902 0.689000 13741486
0.171514 -0.051914 0.690000 9795995
0.171266 -0.047902 0.689000 13675440
0.172829 -0.051914 0.690000 9995674
0.173079 -0.048041 0.691000 13611180
0.173890 -0.055776 0.689000 12233656
0.173890 -0.051839 0.689000 10190234
0.174143 -0.047971 0.690000 13479079
0.175203 -0.055776 0.689000 12233401
0.174694 -0.051689 0.687000 10324380
0.174694 -0.047763 0.687000 13415331
0.175747 -0.055533 0.686000 12299194
0.175747 -0.051613 0.686000 10652831
0.175747 -0.047693 0.686000 13018271
0.176537 -0.055371 0.684000 12430525
0.176537 -0.051463 0.684000 10982820
0.176537 -0.047554 0.684000 12624265
0.177840 -0.055371 0.684000 12299456
0.177840 -0.051463 0.684000 11114921
0.177840 -0.047554 0.684000 12094835
0.179143 -0.055371 0.684000 12233403
0.179143 -0.051463 0.684000 11247020
0.178881 -0.047485 0.683000 11565170
0.180976 -0.012504 0.691000 9205113
0.182024 0.007281 0.695000 9401974
0.180446 -0.055371 0.684000 12167861
0.180446 -0.051463 0.684000 11575983
0.180182 -0.047485 0.683000 10515824
0.181765 -0.012468 0.689000 9335928
0.183348 0.007281 0.695000 9467514
0.181749 -0.055371 0.684000 12101812
0.181749 -0.051463 0.684000 11837359
0.181483 -0.047485 0.683000 9531764
0.181483 -0.043582 0.683000 13865343
0.182280 -0.020253 0.686000 9270392
0.183077 -0.012468 0.689000 9467000
0.184406 0.007270 0.694000 9533052
0.184140 0.011220 0.693000 9533563
0.183051 -0.055371 0.684000 12036274
0.183051 -0.051463 0.684000 11837359
0.182784 -0.047485 0.683000 9203831
0.182784 -0.043582 0.683000 11233638
0.181713 -0.020047 0.679000 9336181
0.181446 -0.016143 0.678000 9270393
0.183587 -0.012413 0.686000 9467769
0.183854 -0.000654 0.687000 9533564
0.184657 0.003286 0.690000 9599614
0.184925 0.007239 0.691000 9599102
0.184925 0.011188 0.691000 9599613
0.184354 -0.055371 0.684000 12035246
0.184085 -0.051388 0.683000 11767962
0.184085 -0.047485 0.683000 8810362
0.183815 -0.043518 0.682000 8549233
0.182737 -0.023891 0.678000 9008504
0.183007 -0.020047 0.679000 9336695
0.182737 -0.016143 0.678000 9467514
0.184354 -0.012377 0.684000 9467769
0.183815 -0.008444 0.682000 9599354
0.183815 -0.004547 0.682000 9468284
0.184085 -0.000650 0.683000 9664638
0.184354 0.003257 0.684000 9665406
0.184085 0.007155 0.683000 9665406
0.185971 0.011171 0.690000 9600125
0.185386 -0.055290 0.683000 11508394
0.185386 -0.051388 0.683000 10517125
0.185114 -0.047415 0.682000 9138812
0.185114 -0.043518 0.682000 9141884
0.183486 -0.027684 0.676000 9205365
0.184029 -0.023891 0.678000 9271163
0.184029 -0.020017 0.678000 9402746
0.184029 -0.016143 0.678000 9533307
0.184571 -0.012305 0.680000 9533050
0.184571 -0.008419 0.680000 9534074
0.184571 -0.004533 0.680000 9534078
0.185114 -0.000650 0.682000 9599615
0.185114 0.003248 0.682000 9731199
0.185114 0.007145 0.682000 9665662
0.185386 0.011058 0.683000 9666174
0.186200 0.015027 0.686000 9730945
0.186687 -0.055290 0.683000 11047586
0.186687 -0.051388 0.683000 9206403
0.186413 -0.047415 0.682000 9401723
0.186413 -0.043518 0.682000 9730940
0.184773 -0.027684 0.676000 9271414
0.185320 -0.023891 0.678000 9598842
0.185320 -0.020017 0.678000 9402489
0.185320 -0.016143 0.678000 9599100
0.185320 -0.012269 0.678000 9533564
0.185320 -0.008394 0.678000 9469052
0.185320 -0.004520 0.678000 9599614
0.185320 -0.000646 0.678000 9600125
0.186413 0.003248 0.682000 9731199
0.186413 0.007145 0.682000 9731454
0.186687 0.011058 0.683000 9731712
0.186687 0.014961 0.683000 9796738
0.187988 -0.055290 0.683000 10652826
0.187988 -0.051388 0.683000 9404034
0.187712 -0.047415 0.682000 9336698
0.187712 -0.043518 0.682000 9598077
0.184410 -0.031267 0.670000 9271414
0.184410 -0.027438 0.670000 9402487
0.186061 -0.023821 0.676000 9533561
0.185786 -0.019929 0.675000 9468025
0.185786 -0.016071 0.675000 9664892
0.185786 -0.012214 0.675000 9599101
0.186061 -0.008370 0.676000 9534590
0.186061 -0.004507 0.676000 9665407
0.186061 -0.000644 0.676000 9665914
0.186887 0.003233 0.679000 9796992
0.187162 0.007124 0.680000 9731454
0.187712 0.011042 0.682000 9797249
0.187712 0.014939 0.682000 9862786
0.189289 -0.051388 0.683000 9600128
0.189011 -0.047415 0.682000 9205878
0.184854 -0.034938 0.667000 9402232
0.185409 -0.031220 0.669000 9468536
0.185686 -0.027438 0.670000 9468281
0.186240 -0.023680 0.672000 9533819
0.186240 -0.019840 0.672000 9534075
0.186240 -0.016000 0.672000 9730429
0.186794 -0.012196 0.674000 9665149
0.187071 -0.008357 0.675000 9600126
0.187071 -0.004500 0.675000 9731200
0.187071 -0.000643 0.675000 9731453
0.187903 0.003229 0.678000 9796993
0.188180 0.007113 0.679000 9796992
0.188457 0.011010 0.680000 9862787
0.189011 0.014939 0.682000 9928579
0.185846 -0.034886 0.666000 9402490
0.186125 -0.031127 0.667000 9533818
0.186683 -0.027397 0.669000 9533819
0.187241 -0.023645 0.671000 9599357
0.187241 -0.019810 0.671000 9665405
0.187241 -0.015976 0.671000 9730686
0.187520 -0.012160 0.672000 9731198
0.187520 -0.008320 0.672000 9665918
0.188078 -0.004493 0.674000 9796481
0.188078 -0.000642 0.674000 9862528
0.188636 0.003219 0.676000 9862786
0.189194 0.007103 0.678000 9863042
0.189473 0.010993 0.679000 9928325
0.189752 0.014895 0.680000 9928580
0.190310 0.018836 0.682000 9994371
0.184305 -0.045608 0.656000 9467767
0.184867 -0.041987 0.658000 9729915
0.186271 -0.034729 0.663000 9336955
0.186271 -0.030940 0.663000 9664892
0.186271 -0.027151 0.663000 9534076
0.187957 -0.023574 0.669000 9665150
0.188238 -0.019781 0.670000 9730941
0.188238 -0.015952 0.670000 9730943
0.188519 -0.012142 0.671000 9796735
0.188800 -0.008320 0.672000 9797247
0.188800 -0.004480 0.672000 9862273
0.188800 -0.000640 0.672000 9928067
0.189924 0.003219 0.676000 9928324
0.189924 0.007082 0.676000 9994115
0.190767 0.010993 0.679000 9994373
0.191048 0.014895 0.680000 9994372
0.191610 0.018836 0.682000 10059908
0.185271 -0.045538 0.655000 9468027
0.185837 -0.041923 0.657000 9664378
0.185837 -0.038169 0.657000 9533818
0.187251 -0.034676 0.662000 9467773
0.187251 -0.030893 0.662000 9599358
0.187251 -0.027110 0.662000 9534078
0.187534 -0.023363 0.663000 9665150
0.188383 -0.019663 0.666000 9730941
0.188666 -0.015881 0.667000 9796735
0.189231 -0.012106 0.669000 9796737
0.189231 -0.008283 0.669000 9797247
0.189231 -0.004460 0.669000 9928065
0.189797 -0.000639 0.671000 9994117
0.190646 0.003210 0.674000 9994118
0.190929 0.007071 0.675000 9994371
0.191211 0.010945 0.676000 10060166
0.191777 0.014851 0.678000 10059908
0.192060 0.018753 0.679000 10125702
0.188228 -0.053510 0.661000 9205647
0.185950 -0.049130 0.653000 9468025
0.186519 -0.045538 0.655000 9468281
0.187089 -0.041923 0.657000 9533563
0.187089 -0.038169 0.657000 9534074
0.188228 -0.034624 0.661000 9533821
0.188228 -0.030847 0.661000 9599358
0.188228 -0.027070 0.661000 9468542
0.188512 -0.023328 0.662000 9665406
0.188797 -0.019574 0.663000 9731454
0.189651 -0.015857 0.666000 9796735
0.189936 -0.012070 0.667000 9796993
0.189936 -0.008258 0.667000 9862783
0.189936 -0.004447 0.667000 9993859
0.190790 -0.000638 0.670000 10059910
0.191360 0.003200 0.672000 9994118
0.191360 0.007040 0.672000 10060164
0.191360 0.010880 0.672000 10060422
0.192214 0.014786 0.675000 10125702
0.193353 0.018753 0.679000 10125959
0.187193 -0.052862 0.653000 10195627
0.187193 -0.049130 0.653000 9467510
0.187193 -0.045399 0.653000 9402999
0.188053 -0.041859 0.656000 9533820
0.187767 -0.038052 0.655000 9534073
0.188627 -0.034467 0.658000 9599357
0.189200 -0.030800 0.660000 9599614
0.189487 -0.027070 0.661000 9599870
0.189487 -0.023292 0.661000 9665662
0.189773 -0.019545 0.662000 9797248
0.190633 -0.015833 0.665000 9797247
0.190633 -0.012033 0.665000 9796993
0.190633 -0.008233 0.665000 9928319
0.191207 -0.004447 0.667000 10059652
0.191207 -0.000635 0.667000 10059910
0.192353 0.003195 0.671000 10059911
0.192353 0.007030 0.671000 10125701
0.192640 0.010880 0.672000 10126214
0.193213 0.014764 0.674000 10257032
0.194360 0.018726 0.678000 10191751
0.196229 -0.070590 0.680000 15066360
0.188437 -0.052862 0.653000 11252436
0.188437 -0.049130 0.653000 9466753
0.188437 -0.045399 0.653000 9337465
0.189014 -0.041795 0.655000 9534078
0.189014 -0.038052 0.655000 9534075
0.189591 -0.034414 0.657000 9665150
0.189880 -0.030707 0.658000 9534078
0.190457 -0.027029 0.660000 9665406
0.190457 -0.023257 0.660000 9665919
0.190746 -0.019515 0.661000 9796993
0.191034 -0.015762 0.662000 9797504
0.191323 -0.011997 0.663000 9797506
0.191323 -0.008209 0.663000 9994114
0.192189 -0.004440 0.666000 10059909
0.192189 -0.000634 0.666000 10059912
0.192477 0.003176 0.667000 10060166
0.193054 0.007009 0.669000 10191238
0.193631 0.010864 0.671000 10126214
0.193920 0.014720 0.672000 10388360
0.195074 0.018670 0.676000 10257289
0.197524 -0.070590 0.680000 14867954
0.197524 -0.066705 0.680000 13945840
0.189390 -0.052781 0.652000 12172797
0.189390 -0.049055 0.652000 9334925
0.189390 -0.045330 0.652000 9403002
0.189681 -0.041668 0.653000 9534081
0.189681 -0.037936 0.653000 9599613
0.190262 -0.034310 0.655000 9730688
0.190552 -0.030613 0.656000 9665406
0.190843 -0.026906 0.657000 9862014
0.191133 -0.023187 0.658000 9731200
0.191133 -0.019427 0.658000 9862531
0.192005 -0.015738 0.661000 9863041
0.192295 -0.011979 0.662000 9928580
0.192295 -0.008196 0.662000 9994116
0.192586 -0.004420 0.663000 10060166
0.193748 -0.000635 0.667000 10060169
0.193748 0.003176 0.667000 10125957
0.194329 0.007009 0.669000 10191495
0.194910 0.010864 0.671000 10322823
0.195200 0.014720 0.672000 10257544
0.196071 0.018643 0.675000 10257546
0.196362 0.022533 0.676000 10257803
0.198819 -0.070590 0.680000 14736113
0.199404 -0.066901 0.682000 13815024
0.199696 -0.063096 0.683000 13486829
0.199989 -0.059280 0.684000 13486313
0.190632 -0.052781 0.652000 13092335
0.190048 -0.048905 0.650000 9143976
0.190048 -0.045190 0.650000 9534075
0.190048 -0.041476 0.650000 9534080
0.190340 -0.037820 0.651000 9599359
0.190632 -0.034152 0.652000 9730944
0.190632 -0.030427 0.652000 9731455
0.190925 -0.026742 0.653000 9993344
0.191510 -0.023081 0.655000 9796738
0.191802 -0.019368 0.656000 9862787
0.192387 -0.015667 0.658000 9928578
0.192971 -0.011943 0.660000 9994373
0.193264 -0.008184 0.661000 9994373
0.193556 -0.004413 0.662000 9994886
0.194433 -0.000633 0.665000 10125704
0.194433 0.003167 0.665000 10191751
0.194726 0.006977 0.666000 10191753
0.195018 0.010799 0.667000 10453896
0.195895 0.014676 0.670000 10192011
0.196480 0.018560 0.672000 10257547
0.197357 0.022500 0.675000 10323853
0.200114 -0.070590 0.680000 14472431
0.200703 -0.066901 0.682000 13749232
0.200997 -0.063096 0.683000 13486570
0.200997 -0.059193 0.683000 13354983
0.191286 -0.052619 0.650000 13026273
0.190403 -0.048679 0.647000 10328259
0.190403 -0.044982 0.647000 9533564
0.190403 -0.041285 0.647000 9599614
0.190697 -0.037646 0.648000 9599616
0.190697 -0.033943 0.648000 9731455
0.191286 -0.030333 0.650000 9796991
0.191580 -0.026660 0.651000 9927810
0.192169 -0.023010 0.653000 9862787
0.192757 -0.019338 0.655000 9928580
0.193346 -0.015643 0.657000 9928579
0.193640 -0.011907 0.658000 10059910
0.194229 -0.008171 0.660000 10060166
0.194523 -0.004407 0.661000 10060421
0.194817 -0.000630 0.662000 10126214
0.195700 0.003167 0.665000 10257546
0.195994 0.006977 0.666000 10257546
0.196289 0.010799 0.667000 10388362
0.196877 0.014654 0.669000 10257805
0.197466 0.018532 0.671000 10323340
0.198349 0.022467 0.674000 10323855
0.201410 -0.070590 0.680000 14274799
0.202002 -0.066901 0.682000 13683696
0.202298 -0.063096 0.683000 13486571
0.202594 -0.059280 0.684000 13157349
0.192524 -0.052619 0.650000 13023454
0.191339 -0.048604 0.646000 11447246
0.191339 -0.044912 0.646000 9533563
0.191339 -0.041221 0.646000 9665406
0.191635 -0.037588 0.647000 9599871
0.191635 -0.033890 0.647000 9731712
0.191931 -0.030240 0.648000 9862529
0.192524 -0.026619 0.650000 9862530
0.193116 -0.022975 0.652000 9928580
0.193412 -0.019279 0.653000 9928582
0.194301 -0.015619 0.656000 9994117
0.194301 -0.011870 0.656000 10059911
0.195486 -0.008171 0.660000 10060168
0.195486 -0.004400 0.660000 10126216
0.195782 -0.000630 0.661000 10126467
0.196967 0.003167 0.665000 10257547
0.196967 0.006967 0.665000 10257547
0.197263 0.010783 0.666000 10257802
0.198151 0.014654 0.669000 10323853
0.198744 0.018532 0.671000 10323597
0.199040 0.022400 0.672000 10389392
0.203301 -0.070798 0.682000 14078191
0.203599 -0.066999 0.683000 13617391
0.203897 -0.063189 0.684000 13354987
0.205388 -0.059713 0.689000 12893923
0.206580 -0.056100 0.693000 12366298
0.192271 -0.048529 0.645000 12503513
0.191973 -0.044773 0.644000 9534330
0.192271 -0.041157 0.645000 9599871
0.192570 -0.037530 0.646000 9665662
0.192570 -0.033838 0.646000 9797506
0.192868 -0.030193 0.647000 9862786
0.193762 -0.026619 0.650000 9928322
0.194060 -0.022940 0.651000 9994117
0.194358 -0.019250 0.652000 9994121
0.195252 -0.015595 0.655000 10060166
0.195550 -0.011870 0.656000 10125447
0.195849 -0.008134 0.657000 10060425
0.196147 -0.004387 0.658000 10126219
0.196743 -0.000629 0.660000 10192256
0.197637 0.003157 0.663000 10323085
0.198233 0.006967 0.665000 10323340
0.198233 0.010767 0.665000 10389386
0.198830 0.014610 0.667000 10389644
0.199724 0.018505 0.670000 10389390
0.200022 0.022367 0.671000 10455184
0.204900 -0.070902 0.683000 13946863
0.204900 -0.066999 0.683000 13551854
0.205800 -0.063373 0.686000 13223145
0.207000 -0.059800 0.690000 12631266
0.207900 -0.056100 0.693000 11775448
0.193500 -0.048529 0.645000 13546455
0.192600 -0.044634 0.642000 9533846
0.192600 -0.040966 0.642000 9534592
0.193200 -0.037413 0.644000 9665920
0.193500 -0.033786 0.645000 9863041
0.193800 -0.030147 0.646000 9862787
0.194400 -0.026537 0.648000 9993859
0.195000 -0.022905 0.650000 10059399
0.195300 -0.019220 0.651000 9994376
0.195900 -0.015548 0.653000 10125959
0.196500 -0.011852 0.655000 10191240
0.196800 -0.008122 0.656000 10060429
0.197100 -0.004380 0.657000 10126475
0.197400 -0.000627 0.658000 10258052
0.198000 0.003143 0.660000 10323341
0.198600 0.006935 0.662000 10323342
0.199800 0.010783 0.666000 10454924
0.199800 0.014589 0.666000 10389650
0.201000 0.018505 0.670000 10389648
0.201300 0.022367 0.671000 10521233
0.206503 -0.071006 0.684000 13815279
0.207107 -0.067293 0.686000 13486317
0.207409 -0.063466 0.687000 13092070
0.208314 -0.059800 0.690000 12433377
0.209220 -0.056100 0.693000 11577557
0.209824 -0.052290 0.695000 12036565
0.193521 -0.044565 0.641000 10390961
0.193521 -0.040902 0.641000 9534593
0.193823 -0.037297 0.642000 9731457
0.194427 -0.033733 0.644000 9928321
0.194729 -0.030100 0.645000 9928580
0.195332 -0.026496 0.647000 9993861
0.196238 -0.022905 0.650000 10125192
0.196540 -0.019220 0.651000 9929096
0.196540 -0.015500 0.651000 10125959
0.197144 -0.011816 0.653000 10191241
0.197748 -0.008110 0.655000 10125969
0.198050 -0.004373 0.656000 10192010
0.198653 -0.000627 0.658000 10258056
0.199257 0.003143 0.660000 10323597
0.199861 0.006935 0.662000 10324111
0.200767 0.010767 0.665000 10454927
0.201069 0.014589 0.666000 10455448
0.201974 0.018477 0.669000 10520977
0.202578 0.022367 0.671000 10587025
0.202880 0.026240 0.672000 10587026
0.208413 -0.071213 0.686000 13684718
0.208413 -0.067293 0.686000 13354474
0.209325 -0.063650 0.689000 12960739
0.209932 -0.059887 0.691000 12236508
0.210844 -0.056181 0.694000 11380689
0.211755 -0.052441 0.697000 10526661
0.194438 -0.044495 0.640000 11245767
0.194438 -0.040838 0.640000 9534337
0.194742 -0.037239 0.641000 9796994
0.195046 -0.033629 0.642000 9928578
0.195957 -0.030100 0.645000 9928581
0.196261 -0.026455 0.646000 9994373
0.196869 -0.022834 0.648000 10190984
0.197476 -0.019190 0.650000 9863559
0.197780 -0.015500 0.651000 10125960
0.198084 -0.011798 0.652000 10191498
0.198388 -0.008085 0.653000 10191759
0.198995 -0.004367 0.655000 10192012
0.199299 -0.000625 0.656000 10258059
0.200818 0.003148 0.661000 10323851
0.200818 0.006925 0.661000 10258832
0.201426 0.010734 0.663000 10390159
0.202033 0.014567 0.665000 10455446
0.202641 0.018422 0.667000 10587025
0.203552 0.022333 0.670000 10652820
0.203856 0.026201 0.671000 10653078
0.209720 -0.071213 0.686000 13552109
0.210637 -0.067588 0.689000 13222631
0.210943 -0.063743 0.690000 12763104
0.211860 -0.060060 0.693000 12038104
0.212471 -0.056262 0.695000 11182540
0.213083 -0.052441 0.697000 10325942
0.195657 -0.044495 0.640000 11445981
0.195657 -0.040838 0.640000 9403777
0.195963 -0.037239 0.641000 9665667
0.196269 -0.033629 0.642000 9994116
0.196880 -0.030053 0.644000 9928837
0.197491 -0.026455 0.646000 10060165
0.197797 -0.022799 0.647000 10125704
0.198103 -0.019131 0.648000 9994375
0.198714 -0.015476 0.650000 10126216
0.199020 -0.011780 0.651000 10257290
0.199326 -0.008072 0.652000 10257548
0.200243 -0.004367 0.655000 10257805
0.200549 -0.000625 0.656000 10257806
0.201771 0.003143 0.660000 10389386
0.202077 0.006925 0.661000 10390161
0.202383 0.010718 0.662000 10455952
0.203300 0.014567 0.665000 10521491
0.203606 0.018394 0.666000 10652817
0.204523 0.022300 0.669000 10718615
0.204829 0.026162 0.670000 10784666
0.210411 -0.074914 0.684000 14671604
0.211334 -0.071317 0.687000 13419499
0.212257 -0.067686 0.690000 13091301
0.213180 -0.064020 0.693000 12631262
0.213488 -0.060147 0.694000 11840980
0.214410 -0.056424 0.697000 10985161
0.214718 -0.052516 0.698000 10064310
0.196876 -0.044495 0.640000 11645911
0.196876 -0.040838 0.640000 9273230
0.196876 -0.037181 0.640000 9600390
0.197184 -0.033576 0.641000 9994373
0.197491 -0.029960 0.642000 9994630
0.198414 -0.026414 0.645000 10125702
0.198722 -0.022764 0.646000 10125961
0.199030 -0.019102 0.647000 10060423
0.199337 -0.015429 0.648000 10192008
0.200260 -0.011780 0.651000 10257547
0.200260 -0.008060 0.651000 10323597
0.201490 -0.004367 0.655000 10323854
0.201798 -0.000625 0.656000 10323344
0.202106 0.003129 0.657000 10389902
0.203336 0.006925 0.661000 10455955
0.203644 0.010718 0.662000 10521746
0.203951 0.014523 0.663000 10587286
0.204874 0.018394 0.666000 10718612
0.205182 0.022233 0.667000 10784666
0.206105 0.026162 0.670000 10850716
0.211714 -0.074914 0.684000 14341876
0.212643 -0.071317 0.687000 13222633
0.213881 -0.067784 0.691000 12959715
0.214500 -0.064020 0.693000 12433371
0.214810 -0.060147 0.694000 11643344
0.215738 -0.056424 0.697000 10788037
0.216048 -0.052516 0.698000 10063287
0.216976 -0.048736 0.701000 11446224
0.197476 -0.040710 0.638000 9536156
0.197786 -0.037123 0.639000 9731976
0.197786 -0.033471 0.639000 10059911
0.198095 -0.029867 0.640000 9994886
0.199333 -0.026373 0.644000 10125704
0.199952 -0.022764 0.646000 10191498
0.199952 -0.019072 0.646000 10125960
0.200571 -0.015429 0.648000 10192008
0.201190 -0.011762 0.650000 10257804
0.201500 -0.008060 0.651000 10258318
0.202119 -0.004353 0.653000 10324111
0.203048 -0.000625 0.656000 10389394
0.203357 0.003129 0.657000 10455699
0.204286 0.006914 0.660000 10521492
0.204595 0.010702 0.661000 10587797
0.205214 0.014523 0.663000 10587800
0.205833 0.018367 0.665000 10784407
0.206452 0.022233 0.667000 10850716
0.207381 0.026162 0.670000 10982303
0.213017 -0.074914 0.684000 13948403
0.214574 -0.071525 0.689000 13091556
0.215197 -0.067784 0.691000 12762337
0.215820 -0.064020 0.693000 12235992
0.216443 -0.060233 0.695000 11446730
0.217377 -0.056505 0.698000 10656703
0.218000 -0.052667 0.700000 9997748
0.218934 -0.048875 0.703000 11248307
0.198691 -0.040710 0.638000 9734822
0.198691 -0.037065 0.638000 9929096
0.198691 -0.033419 0.638000 10060167
0.199314 -0.029867 0.640000 10060424
0.199626 -0.026250 0.641000 10060680
0.200560 -0.022693 0.644000 10257290
0.201183 -0.019072 0.646000 10126218
0.201494 -0.015405 0.647000 10257804
0.202429 -0.011762 0.650000 10257805
0.202740 -0.008060 0.651000 10192784
0.203051 -0.004347 0.652000 10324368
0.203986 -0.000624 0.655000 10455187
0.204297 0.003124 0.656000 10521236
0.205543 0.006914 0.660000 10587542
0.205854 0.010702 0.661000 10653592
0.206166 0.014501 0.662000 10653595
0.207100 0.018367 0.665000 10850458
0.207411 0.022200 0.666000 10916510
0.208657 0.026162 0.670000 11048097
0.215260 -0.075243 0.687000 13682163
0.215887 -0.071525 0.689000 13025246
0.217140 -0.067980 0.693000 12630238
0.217453 -0.064112 0.694000 12038869
0.217767 -0.060233 0.695000 11248581
0.218707 -0.056505 0.698000 10459320
0.219647 -0.052742 0.701000 9866930
0.220587 -0.048945 0.704000 11049366
0.220587 -0.044922 0.704000 10193072
0.199907 -0.037065 0.638000 9994376
0.199280 -0.033314 0.636000 10060168
0.200220 -0.029820 0.639000 10125962
0.200533 -0.026210 0.640000 10126217
0.201160 -0.022623 0.642000 10257546
0.202100 -0.019043 0.645000 10192012
0.202413 -0.015381 0.646000 10323343
0.203040 -0.011726 0.648000 10323598
0.203667 -0.008048 0.650000 10323857
0.204293 -0.004347 0.652000 10455698
0.205233 -0.000624 0.655000 10520979
0.205547 0.003124 0.656000 10587030
0.206800 0.006914 0.660000 10653079
0.206800 0.010686 0.660000 10784923
0.207427 0.014501 0.662000 10784926
0.208367 0.018367 0.665000 10916509
0.208680 0.022200 0.666000 10982816
0.209620 0.026123 0.669000 11113636
0.216569 -0.075243 0.687000 13422318
0.217199 -0.071525 0.689000 12893663
0.218460 -0.067980 0.693000 12433115
0.218775 -0.064112 0.694000 11907281
0.219090 -0.060233 0.695000 11051714
0.220036 -0.056505 0.698000 10327989
0.221612 -0.052892 0.703000 9735086
0.221928 -0.048945 0.704000 10846872
0.222243 -0.044986 0.705000 10591154
0.200491 -0.036949 0.636000 10125188
0.200491 -0.033314 0.636000 10060426
0.201122 -0.029773 0.638000 10191500
0.201437 -0.026169 0.639000 10126473
0.202068 -0.022588 0.641000 10257802
0.203013 -0.019013 0.644000 10192525
0.203329 -0.015357 0.645000 10388880
0.203959 -0.011708 0.647000 10389392
0.204905 -0.008048 0.650000 10454931
0.205220 -0.004340 0.651000 10521492
0.205850 -0.000622 0.653000 10586773
0.206796 0.003124 0.656000 10587544
0.207427 0.006893 0.658000 10718873
0.208057 0.010686 0.660000 10850459
0.208372 0.014479 0.661000 10850463
0.209003 0.018311 0.663000 10982559
0.209949 0.022200 0.666000 11049122
0.210894 0.026123 0.669000 11179943
0.217877 -0.075243 0.687000 13355497
0.218511 -0.071525 0.689000 12696031
0.219780 -0.067980 0.693000 12235992
0.220097 -0.064112 0.694000 11644108
0.220414 -0.060233 0.695000 10853312
0.221366 -0.056505 0.698000 10195890
0.222951 -0.052892 0.703000 9604009
0.223269 -0.048945 0.704000 10322842
0.223269 -0.044922 0.704000 11447988
0.201386 -0.036890 0.635000 10059648
0.201703 -0.033314 0.636000 10125965
0.201703 -0.029680 0.636000 10191757
0.202654 -0.026169 0.639000 10126729
0.203289 -0.022588 0.641000 10258314
0.204240 -0.019013 0.644000 10258318
0.204557 -0.015357 0.645000 10389393
0.205191 -0.011708 0.647000 10389650
0.205509 -0.008023 0.648000 10520724
0.206460 -0.004340 0.651000 10587030
0.206777 -0.000621 0.652000 10653078
0.207729 0.003119 0.655000 10653594
0.208363 0.006883 0.657000 10784922
0.209314 0.010686 0.660000 10916252
0.209631 0.014479 0.661000 10982560
0.210266 0.018311 0.663000 11114146
0.211217 0.022200 0.666000 11180196
0.212169 0.026123 0.669000 11311530
0.219824 -0.075462 0.689000 13224421
0.220143 -0.071629 0.690000 12564444
0.221100 -0.067980 0.693000 12038611
0.221419 -0.064112 0.694000 11446475
0.221738 -0.060233 0.695000 10656957
0.222695 -0.056505 0.698000 10064304
0.224290 -0.052892 0.703000 9472423
0.224610 -0.048945 0.704000 9730973
0.224610 -0.044922 0.704000 12233902
0.202595 -0.036890 0.635000 9928579
0.202595 -0.033262 0.635000 10126220
0.202914 -0.029680 0.636000 10191757
0.203552 -0.026128 0.638000 10126988
0.204190 -0.022552 0.640000 10258829
0.204829 -0.018954 0.642000 10323856
0.205786 -0.015357 0.645000 10455185
0.206105 -0.011690 0.646000 10389906
0.206424 -0.008010 0.647000 10586518
0.207700 -0.004340 0.651000 10587545
0.208019 -0.000621 0.652000 10653594
0.208976 0.003119 0.655000 10719388
0.209614 0.006883 0.657000 10850974
0.210571 0.010686 0.660000 10982048
0.210890 0.014479 0.661000 11114403
0.211529 0.018311 0.663000 11180197
0.212167 0.022167 0.665000 11311527
0.213443 0.026123 0.669000 11443116
0.221136 -0.075462 0.689000 13222370
0.221778 -0.071732 0.691000 12302041
0.222420 -0.067980 0.693000 11906766
0.222741 -0.064112 0.694000 11249097
0.223062 -0.060233 0.695000 10525114
0.224025 -0.056505 0.698000 9932462
0.225630 -0.052892 0.703000 9406372
0.225630 -0.048875 0.703000 9207199
0.225950 -0.044922 0.704000 12763304
0.203484 -0.036832 0.634000 10125446
0.203805 -0.033262 0.635000 10191755
0.204126 -0.029680 0.636000 10257804
0.204768 -0.026128 0.638000 10193039
0.205410 -0.022552 0.640000 10324368
0.205730 -0.018925 0.641000 10389395
0.206693 -0.015333 0.644000 10455696
0.207014 -0.011671 0.645000 10586515
0.207656 -0.008010 0.647000 10717848
0.208619 -0.004333 0.650000 10653596
0.208940 -0.000620 0.651000 10784669
0.210224 0.003119 0.655000 10850718
0.210545 0.006872 0.656000 10917025
0.211187 0.010653 0.658000 11113125
0.211829 0.014457 0.660000 11180197
0.212470 0.018284 0.662000 11311529
0.213433 0.022167 0.665000 11377578
0.214075 0.026045 0.667000 11574447
0.222771 -0.075571 0.690000 13157346
0.223094 -0.071732 0.691000 12105172
0.223740 -0.067980 0.693000 11709645
0.224063 -0.064112 0.694000 11051973
0.225031 -0.060407 0.697000 10394038
0.226000 -0.056667 0.700000 9866155
0.226969 -0.052892 0.703000 9274530
0.226969 -0.048875 0.703000 8683933
0.227291 -0.044922 0.704000 13216172
0.204369 -0.036774 0.633000 10255752
0.205014 -0.033262 0.635000 10192013
0.205014 -0.029633 0.635000 10323598
0.205983 -0.026128 0.638000 10193296
0.206306 -0.022517 0.639000 10389651
0.206951 -0.018925 0.641000 10455189
0.207920 -0.015333 0.644000 10521748
0.208243 -0.011671 0.645000 10718358
0.208566 -0.007998 0.646000 10849434
0.209857 -0.004333 0.650000 10719645
0.210180 -0.000620 0.651000 10850719
0.210826 0.003110 0.653000 10982562
0.211794 0.006872 0.656000 11048612
0.212117 0.010637 0.657000 11245478
0.213086 0.014457 0.660000 11311528
0.213409 0.018256 0.661000 11377835
0.214054 0.022100 0.663000 11509165
0.215346 0.026045 0.667000 11640498
0.224086 -0.075571 0.690000 12893409
0.224410 -0.071732 0.691000 12038606
0.225060 -0.067980 0.693000 11577548
0.225385 -0.064112 0.694000 10920128
0.226359 -0.060407 0.697000 10262195
0.226684 -0.056505 0.698000 9735079
0.228308 -0.052892 0.703000 9274016
0.228308 -0.048875 0.703000 8749210
0.228632 -0.044922 0.704000 12692911
0.205574 -0.036774 0.633000 10389385
0.205899 -0.033210 0.634000 10126736
0.206224 -0.029633 0.635000 10323855
0.206549 -0.026046 0.636000 10259345
0.207198 -0.022482 0.638000 10455445
0.207848 -0.018895 0.640000 10520984
0.208497 -0.015286 0.642000 10587287
0.209471 -0.011671 0.645000 10784153
0.209796 -0.007998 0.646000 10849947
0.211095 -0.004333 0.650000 10851229
0.211420 -0.000620 0.651000 10982305
0.212070 0.003110 0.653000 11114150
0.212719 0.006862 0.655000 11180199
0.213369 0.010637 0.657000 11311528
0.214343 0.014457 0.660000 11377579
0.214668 0.018256 0.661000 11509420
0.215317 0.022100 0.663000 11640496
0.216291 0.026006 0.666000 11771829
0.225400 -0.075571 0.690000 12631518
0.225727 -0.071732 0.691000 12037837
0.226380 -0.067980 0.693000 11445960
0.226380 -0.064020 0.693000 10853564
0.227687 -0.060407 0.697000 10130864
0.228013 -0.056505 0.698000 9604004
0.228993 -0.052742 0.701000 9208478
0.229973 -0.048945 0.704000 8749720
0.229973 -0.044922 0.704000 12162727
0.206453 -0.036716 0.632000 10585253
0.207107 -0.033210 0.634000 10061711
0.207433 -0.029633 0.635000 10324113
0.207760 -0.026046 0.636000 10324883
0.208413 -0.022482 0.638000 10521239
0.209067 -0.018895 0.640000 10587034
0.209720 -0.015286 0.642000 10718362
0.210373 -0.011653 0.644000 10784412
0.211027 -0.007998 0.646000 10850463
0.212333 -0.004333 0.650000 10917025
0.212333 -0.000619 0.650000 11048359
0.213313 0.003110 0.653000 11179945
0.213967 0.006862 0.655000 11311786
0.214620 0.010637 0.657000 11377579
0.214947 0.014413 0.658000 11508910
0.215927 0.018256 0.661000 11575216
0.216580 0.022100 0.663000 11771571
0.217560 0.026006 0.666000 11837878
0.227043 -0.075681 0.691000 12696028
0.227043 -0.071732 0.691000 11840716
0.228029 -0.068078 0.694000 11313861
0.227700 -0.064020 0.693000 10656952
0.229014 -0.060407 0.697000 10065069
0.229343 -0.056505 0.698000 9538464
0.230329 -0.052742 0.701000 9208220
0.231314 -0.048945 0.704000 8880021
0.231314 -0.044922 0.704000 10452639
0.207657 -0.036716 0.632000 11048128
0.207657 -0.033105 0.632000 10193294
0.208314 -0.029587 0.634000 10389906
0.208643 -0.026005 0.635000 10390677
0.209629 -0.022482 0.638000 10587288
0.210286 -0.018895 0.640000 10718619
0.210614 -0.015262 0.641000 10784412
0.211600 -0.011653 0.644000 10915743
0.212257 -0.007998 0.646000 10916514
0.212914 -0.004320 0.648000 10982565
0.213571 -0.000619 0.650000 11179948
0.214229 0.003105 0.652000 11245997
0.215214 0.006862 0.655000 11377836
0.215543 0.010621 0.656000 11508911
0.216200 0.014413 0.658000 11640497
0.217186 0.018256 0.661000 11706803
0.217843 0.022100 0.663000 11837622
0.218500 0.025967 0.665000 11903928
0.228359 -0.075681 0.691000 12696537
0.228359 -0.071732 0.691000 11709388
0.229350 -0.068078 0.694000 11116481
0.229350 -0.064112 0.694000 10525878
0.230342 -0.060407 0.697000 9932971
0.230672 -0.056505 0.698000 9473185
0.231664 -0.052742 0.701000 9142682
0.232655 -0.048945 0.704000 8945812
0.232655 -0.044922 0.704000 8684434
0.208530 -0.036658 0.631000 11507141
0.208861 -0.033105 0.632000 10324112
0.209191 -0.029540 0.633000 10455701
0.209852 -0.026005 0.635000 10456471
0.210844 -0.022482 0.638000 10652825
0.211174 -0.018866 0.639000 10849948
0.211835 -0.015262 0.641000 10850974
0.212166 -0.011617 0.642000 11047584
0.213488 -0.007998 0.646000 11048100
0.213818 -0.004313 0.647000 11048616
0.214810 -0.000619 0.650000 11245740
0.215470 0.003105 0.652000 11312046
0.215801 0.006841 0.653000 11443887
0.216792 0.010621 0.656000 11574962
0.217453 0.014413 0.658000 11772084
0.218445 0.018256 0.661000 11837879
0.218775 0.022067 0.662000 11903417
0.219767 0.025967 0.665000 11969980
0.221089 0.029946 0.669000 12035520
0.229675 -0.075681 0.691000 12628951
0.229675 -0.071732 0.691000 11512012
0.230672 -0.068078 0.694000 10984126
0.230672 -0.064112 0.694000 10459315
0.231670 -0.060407 0.697000 9931689
0.232002 -0.056505 0.698000 9406369
0.232999 -0.052742 0.701000 9077400
0.233996 -0.048945 0.704000 8879762
0.233996 -0.044922 0.704000 8415621
0.209732 -0.036658 0.631000 11707337
0.209732 -0.033052 0.631000 10455441
0.210065 -0.029493 0.632000 10521495
0.210730 -0.025964 0.634000 10587800
0.211394 -0.022411 0.636000 10784410
0.212391 -0.018866 0.639000 10916254
0.212724 -0.015238 0.640000 10982303
0.213389 -0.011617 0.642000 11113633
0.214386 -0.007986 0.645000 11179686
0.215050 -0.004313 0.647000 11245740
0.216048 -0.000619 0.650000 11377324
0.216712 0.003105 0.652000 11443632
0.217045 0.006841 0.653000 11575474
0.218042 0.010621 0.656000 11706293
0.218707 0.014413 0.658000 11837878
0.219371 0.018229 0.660000 11903930
0.220036 0.022067 0.662000 12035260
0.221033 0.025967 0.665000 12101312
0.222363 0.029946 0.669000 12167108
0.230991 -0.075681 0.691000 12498904
0.230991 -0.071732 0.691000 11314628
0.231994 -0.068078 0.694000 10852794
0.231994 -0.064112 0.694000 10326960
0.232997 -0.060407 0.697000 9866152
0.233331 -0.056505 0.698000 9340063
0.234000 -0.052667 0.700000 8946070
0.235003 -0.048875 0.703000 8748434
0.235337 -0.044922 0.704000 8156806
0.210266 -0.036542 0.629000 11908310
0.210934 -0.033052 0.631000 10520725
0.211269 -0.029493 0.632000 10587546
0.211937 -0.025964 0.634000 10719385
0.212606 -0.022411 0.636000 10849949
0.213274 -0.018836 0.638000 10916768
0.213943 -0.015238 0.640000 11113377
