# .PCD v.7 - Point Cloud Data file format
VERSION .7
FIELDS x y z rgb
SIZE 4 4 4 4
TYPE F F F I
COUNT 1 1 1 1
WIDTH 1334
HEIGHT 1
POINTS 1334
DATA ascii
0.158838 0.045467 0.620000 13552870
0.160119 0.049405 0.625000 13683433
0.161912 0.053570 0.632000 13880557
0.162681 0.057452 0.635000 13946599
0.164987 0.061947 0.644000 13946343
0.165439 -0.033576 0.641000 12565723
0.165697 -0.029960 0.642000 10395317
0.166471 -0.026414 0.645000 9669805
0.166730 -0.022764 0.646000 9275298
0.166988 -0.019102 0.647000 8881050
0.167762 -0.015476 0.650000 8617621
0.168278 -0.011798 0.652000 8288912
0.169052 -0.008110 0.655000 8222862
0.169569 -0.004380 0.657000 7960460
0.170601 -0.000630 0.661000 7829129
0.171633 0.003167 0.665000 7828613
0.171891 0.006977 0.666000 7696775
0.172150 0.010799 0.667000 7762051
0.173440 0.014720 0.672000 7303039
0.174214 0.018643 0.675000 8484240
0.152792 0.019733 0.592000 14673401
0.153825 0.023272 0.596000 13946605
0.154341 0.026768 0.598000 14143982
0.155631 0.030437 0.603000 14147059
0.155890 0.033939 0.604000 13487344
0.156148 0.037452 0.605000 10395592
0.156664 0.041045 0.607000 12233130
0.161051 0.045760 0.624000 13683934
0.161568 0.049484 0.626000 13815018
0.163116 0.053570 0.632000 13946089
0.164923 0.057814 0.639000 14077670
0.166213 0.061947 0.644000 13879515
0.166471 0.065729 0.645000 13810125
0.160019 0.084438 0.620000 10323346
0.166660 -0.033576 0.641000 12895188
0.166920 -0.029960 0.642000 10526133
0.167700 -0.026414 0.645000 9669805
0.167960 -0.022764 0.646000 9209505
0.168220 -0.019102 0.647000 8815769
0.168480 -0.015429 0.648000 8617876
0.169520 -0.011798 0.652000 8354449
0.170300 -0.008110 0.655000 8157581
0.170560 -0.004373 0.656000 8026252
0.171600 -0.000629 0.660000 7894665
0.172380 0.003157 0.663000 7828613
0.172900 0.006967 0.665000 7631237
0.173160 0.010783 0.666000 7630978
0.174200 0.014676 0.670000 7236993
0.174460 0.018532 0.671000 8940700
0.154440 0.019800 0.594000 14737656
0.154960 0.023272 0.596000 14012653
0.155740 0.026812 0.599000 14341357
0.156520 0.030387 0.602000 14871028
0.157040 0.033939 0.604000 13750513
0.157040 0.037390 0.604000 11712485
0.156780 0.040774 0.603000 11574676
0.162500 0.045833 0.625000 13552855
0.162760 0.049484 0.626000 13946858
0.164580 0.053654 0.633000 13946342
0.166140 0.057814 0.639000 14011876
0.167440 0.061947 0.644000 13811663
0.160940 0.084302 0.619000 10917531
0.161980 0.088407 0.623000 13021114
0.167881 -0.033576 0.641000 13222602
0.168143 -0.029960 0.642000 10657725
0.168667 -0.026373 0.644000 9604268
0.169190 -0.022764 0.646000 9143713
0.169190 -0.019072 0.646000 8749976
0.169452 -0.015405 0.647000 8617878
0.170500 -0.011780 0.651000 8354960
0.171024 -0.008085 0.653000 8092045
0.171810 -0.004373 0.656000 8026251
0.172333 -0.000627 0.658000 7894665
0.173381 0.003152 0.662000 7763079
0.173643 0.006946 0.663000 7630981
0.174167 0.010767 0.665000 7499650
0.174429 0.014589 0.666000 7172227
0.175476 0.018505 0.670000 9406627
0.155571 0.019800 0.594000 14869493
0.156095 0.023272 0.596000 14078445
0.156881 0.026812 0.599000 14537453
0.158190 0.030488 0.604000 15526389
0.158452 0.033995 0.605000 14013166
0.158190 0.037390 0.604000 13027052
0.157929 0.040774 0.603000 10985404
0.163690 0.045833 0.625000 13414598
0.164476 0.049642 0.628000 14078428
0.165786 0.053654 0.633000 13946081
0.166571 0.057543 0.636000 13945559
0.168143 0.061754 0.642000 13746118
0.161857 0.084166 0.618000 11576753
0.162905 0.088265 0.622000 13086907
0.169102 -0.033576 0.641000 13289665
0.169102 -0.029913 0.641000 10789573
0.169102 -0.026250 0.641000 9670059
0.169893 -0.022693 0.644000 9143712
0.170421 -0.019072 0.646000 8815511
0.170685 -0.015405 0.647000 8618135
0.171476 -0.011762 0.650000 8420751
0.172004 -0.008072 0.652000 8157837
0.172268 -0.004353 0.653000 8025994
0.173059 -0.000625 0.656000 7894409
0.174378 0.003148 0.661000 7763081
0.174642 0.006935 0.662000 7631237
0.174906 0.010734 0.663000 7564931
0.175433 0.014567 0.665000 7040133
0.176752 0.018505 0.670000 10719147
0.156439 0.019767 0.593000 14802673
0.157230 0.023272 0.596000 14144238
0.158286 0.026857 0.600000 14670317
0.159341 0.030488 0.604000 15657974
0.159605 0.033995 0.605000 14145003
0.159077 0.037329 0.603000 13553651
0.158813 0.040707 0.602000 12040419
0.165409 0.045980 0.627000 12421046
0.165672 0.049642 0.628000 13220814
0.166728 0.053570 0.632000 13814493
0.167783 0.057543 0.636000 14008778
0.161979 0.080112 0.614000 11312567
0.162770 0.084030 0.617000 12299974
0.163298 0.087839 0.619000 13218236
0.170323 -0.029913 0.641000 10986195
0.170323 -0.026250 0.641000 9736107
0.170589 -0.022623 0.642000 9143456
0.171386 -0.019043 0.645000 8881045
0.171651 -0.015381 0.646000 8683417
0.172183 -0.011726 0.648000 8420752
0.172980 -0.008060 0.651000 8223117
0.173246 -0.004347 0.652000 8025994
0.174043 -0.000624 0.655000 7894152
0.175371 0.003143 0.660000 7697544
0.175637 0.006925 0.661000 7630981
0.175903 0.010718 0.662000 7565188
0.176169 0.014523 0.663000 6975104
0.177231 0.018422 0.667000 11969971
0.157569 0.019767 0.593000 14801136
0.158631 0.023311 0.597000 14210031
0.159694 0.026902 0.601000 14800878
0.160491 0.030488 0.604000 15723509
0.160757 0.033995 0.605000 14276844
0.160226 0.037329 0.603000 14079217
0.159960 0.040707 0.602000 13095146
0.158897 0.043853 0.598000 11382228
0.166869 0.049642 0.628000 12429517
0.167931 0.053570 0.632000 13677506
0.163149 0.080112 0.614000 11709379
0.163680 0.083893 0.616000 12957388
0.164211 0.087697 0.618000 13284541
0.171544 -0.029913 0.641000 11382497
0.171276 -0.026210 0.640000 9932972
0.171544 -0.022588 0.641000 9209248
0.171811 -0.018954 0.642000 8880531
0.172614 -0.015357 0.645000 8683674
0.172882 -0.011690 0.646000 8486545
0.173417 -0.008023 0.648000 8223372
0.174220 -0.004340 0.651000 8025739
0.174488 -0.000621 0.652000 7894407
0.176093 0.003133 0.658000 7697544
0.176896 0.006925 0.661000 7565445
0.176896 0.010702 0.661000 7434116
0.177164 0.014501 0.662000 6776443
0.159501 0.016461 0.596000 13154746
0.159769 0.019900 0.597000 14670062
0.160036 0.023350 0.598000 14275823
0.160839 0.026902 0.601000 14802670
0.161910 0.030538 0.605000 15460084
0.161910 0.033995 0.605000 14474221
0.161107 0.037267 0.602000 14276847
0.160839 0.040639 0.601000 13751025
0.160304 0.043927 0.599000 13160691
0.160036 0.047270 0.598000 12561612
0.159769 0.050603 0.597000 12487336
0.164050 0.079982 0.613000 12500943
0.164586 0.083757 0.615000 13089489
0.165121 0.087555 0.617000 13416639
0.172765 -0.029913 0.641000 11778530
0.172495 -0.026210 0.640000 10064814
0.172765 -0.022588 0.641000 9274784
0.172765 -0.018925 0.641000 8881046
0.173573 -0.015333 0.644000 8748952
0.173843 -0.011671 0.645000 8486546
0.174382 -0.008010 0.647000 8223630
0.175190 -0.004333 0.650000 8025738
0.175460 -0.000620 0.651000 7894407
0.176808 0.003124 0.656000 7697288
0.177886 0.006914 0.660000 7499909
0.177886 0.010686 0.660000 7303043
0.178155 0.014479 0.661000 6579835
0.160636 0.016461 0.596000 14272202
0.160636 0.019867 0.596000 14471662
0.161175 0.023350 0.598000 14276079
0.162253 0.026947 0.602000 14803183
0.163062 0.030538 0.605000 15132146
0.163062 0.033995 0.605000 14671087
0.162253 0.037267 0.602000 14408431
0.161984 0.040639 0.601000 14407152
0.161445 0.043927 0.599000 14933490
0.161175 0.047270 0.598000 12635616
0.160906 0.050603 0.597000 11250893
0.162792 0.071905 0.604000 11183811
0.163331 0.075606 0.606000 12368586
0.165218 0.079982 0.613000 13287639
0.165757 0.083757 0.615000 13287121
0.166027 0.087413 0.616000 13547967
0.173986 -0.029913 0.641000 12237282
0.173443 -0.026169 0.639000 9934513
0.173714 -0.022552 0.640000 9275552
0.173986 -0.018925 0.641000 8946840
0.174257 -0.015286 0.642000 8749205
0.174800 -0.011653 0.644000 8486547
0.175343 -0.007998 0.646000 8289423
0.175614 -0.004313 0.647000 8091018
0.176429 -0.000619 0.650000 7894663
0.176700 0.003100 0.651000 7762825
0.178329 0.006883 0.657000 7565445
0.178600 0.010653 0.658000 7434114
0.179143 0.014457 0.660000 7102075
0.181043 0.018422 0.667000 14870235
0.161771 0.019867 0.596000 14406382
0.162314 0.023350 0.598000 14341615
0.163671 0.026991 0.603000 14671088
0.164214 0.030538 0.605000 14934256
0.164214 0.033995 0.605000 14737393
0.163400 0.037267 0.602000 14539759
0.163129 0.040639 0.601000 14473454
0.162586 0.043927 0.599000 14803185
0.162314 0.047270 0.598000 13752819
0.162043 0.050603 0.597000 12765426
0.162043 0.054014 0.597000 12826327
0.163400 0.068227 0.602000 12300752
0.163671 0.071786 0.603000 12172503
0.164486 0.075606 0.606000 12895194
0.166386 0.079982 0.613000 13419231
0.166657 0.083621 0.614000 13418448
0.167200 0.087413 0.616000 13614015
0.175207 -0.029913 0.641000 12698315
0.174660 -0.026169 0.639000 9738936
0.174933 -0.022552 0.640000 9341605
0.175207 -0.018925 0.641000 9012378
0.175480 -0.015286 0.642000 8814485
0.175480 -0.011617 0.642000 8486546
0.176300 -0.007986 0.645000 8354959
0.176573 -0.004307 0.646000 8157067
0.177120 -0.000617 0.648000 7894920
0.177667 0.003095 0.650000 7763080
0.176847 0.006778 0.647000 7630981
0.178213 0.010556 0.652000 7565188
0.179033 0.014348 0.655000 7690869
0.181220 0.018311 0.663000 15458272
0.162907 0.019867 0.596000 14340587
0.163453 0.023350 0.598000 14406894
0.165093 0.027036 0.604000 14539759
0.165367 0.030538 0.605000 14670318
0.165367 0.033995 0.605000 14869231
0.164820 0.037329 0.603000 14671601
0.164273 0.040639 0.601000 14539503
0.163727 0.043927 0.599000 14671600
0.163453 0.047270 0.598000 14868465
0.163180 0.050603 0.597000 14211570
0.162907 0.053924 0.596000 13359589
0.162907 0.057330 0.596000 12435422
0.163180 0.060837 0.597000 12172252
0.163453 0.064356 0.598000 12500442
0.164273 0.068113 0.601000 12830689
0.164820 0.071786 0.603000 13157348
0.165913 0.075730 0.607000 13486565
0.167007 0.079721 0.611000 13485795
0.167553 0.083485 0.613000 13615307
0.168100 0.087271 0.615000 13680065
0.175602 -0.026128 0.638000 10525632
0.175877 -0.022517 0.639000 9472681
0.176152 -0.018895 0.640000 9078171
0.176428 -0.015262 0.641000 8814741
0.176703 -0.011617 0.642000 8552082
0.176703 -0.007949 0.642000 8354959
0.177529 -0.004300 0.645000 8222860
0.177804 -0.000615 0.646000 7960456
0.178079 0.003081 0.647000 7828871
0.178079 0.006778 0.647000 7696773
0.179180 0.010540 0.651000 7696263
0.179455 0.014282 0.652000 8350830
0.164042 0.019867 0.596000 14275304
0.164868 0.023390 0.599000 14406894
0.166519 0.027081 0.605000 14407150
0.166794 0.030589 0.606000 14406124
0.166519 0.033995 0.605000 14605292
0.165693 0.037267 0.602000 14803442
0.165418 0.040639 0.601000 14671343
0.164868 0.043927 0.599000 14737135
0.164592 0.047270 0.598000 14868206
0.164317 0.050603 0.597000 14802929
0.164042 0.053924 0.596000 14410739
0.164042 0.057330 0.596000 13751793
0.164317 0.060837 0.597000 13357299
0.164592 0.064356 0.598000 13422321
0.165418 0.068113 0.601000 13553650
0.165969 0.071786 0.603000 13683953
0.166794 0.075606 0.606000 13749231
0.167620 0.079460 0.609000 13617639
0.168446 0.083349 0.612000 13680582
0.169271 0.087271 0.615000 13811651
0.176817 -0.026128 0.638000 11317193
0.176817 -0.022482 0.638000 9669031
0.177094 -0.018866 0.639000 9143710
0.177371 -0.015238 0.640000 8880279
0.177649 -0.011599 0.641000 8552083
0.177926 -0.007949 0.642000 8420242
0.177926 -0.004280 0.642000 8223117
0.178480 -0.000613 0.644000 8091018
0.179034 0.003076 0.646000 7828872
0.179034 0.006768 0.646000 7762309
0.179589 0.010491 0.648000 7761538
0.180420 0.014260 0.651000 9072532
0.165177 0.019867 0.596000 14275050
0.165731 0.023350 0.598000 14406891
0.167394 0.027036 0.604000 14340843
0.167671 0.030538 0.605000 14077410
0.167394 0.033939 0.604000 14405587
0.166563 0.037205 0.601000 14935022
0.166286 0.040571 0.600000 14868720
0.165731 0.043853 0.598000 14803439
0.165454 0.047191 0.597000 14867951
0.165177 0.050518 0.596000 15396342
0.164900 0.053833 0.595000 15462905
0.164900 0.057233 0.595000 15067383
0.165177 0.060735 0.596000 14540016
0.165454 0.064249 0.597000 14275824
0.166009 0.067887 0.599000 14210545
0.166563 0.071548 0.601000 14210033
0.167671 0.075481 0.605000 14011884
0.168503 0.079330 0.608000 13747679
0.168780 0.082940 0.609000 13679812
0.178032 -0.026128 0.638000 12370642
0.178032 -0.022482 0.638000 9932964
0.178311 -0.018866 0.639000 9275041
0.178590 -0.015238 0.640000 8946072
0.178590 -0.011581 0.640000 8617620
0.178870 -0.007936 0.641000 8420500
0.178870 -0.004273 0.641000 8288910
0.179149 -0.000611 0.642000 8091276
0.179986 0.003071 0.645000 7894664
0.179986 0.006757 0.645000 7828357
0.180265 0.010459 0.646000 7303037
0.181660 0.014260 0.651000 10655930
0.166312 0.019867 0.596000 14275051
0.167150 0.023390 0.599000 14341609
0.168824 0.027081 0.605000 14143976
0.168824 0.030538 0.605000 13877464
0.168824 0.033995 0.605000 13942714
0.167708 0.037205 0.601000 14869738
0.167429 0.040571 0.600000 15000561
0.166870 0.043853 0.598000 14935024
0.166591 0.047191 0.597000 15066608
0.166312 0.050518 0.596000 15923451
0.166033 0.053833 0.595000 16054782
0.166033 0.057233 0.595000 15924733
0.166312 0.060735 0.596000 14605293
0.166591 0.064249 0.597000 14538992
0.167150 0.067887 0.599000 14473967
0.167708 0.071548 0.601000 14341873
0.168824 0.075481 0.605000 14012649
0.169382 0.079199 0.607000 13811926
0.169940 0.082940 0.609000 13745602
0.178405 -0.026005 0.635000 13351622
0.178405 -0.022376 0.635000 10261698
0.178405 -0.018748 0.635000 9406114
0.178405 -0.015119 0.635000 9011866
0.178686 -0.011509 0.636000 8683413
0.178686 -0.007874 0.636000 8486036
0.178686 -0.004240 0.636000 8288912
0.178686 -0.000606 0.636000 8157068
0.178686 0.003029 0.636000 7960457
0.180090 0.006715 0.641000 7893896
0.181495 0.010459 0.646000 6841990
0.167729 0.016489 0.597000 14407920
0.167729 0.019900 0.597000 14209515
0.168290 0.023390 0.599000 14209511
0.170257 0.027126 0.606000 14012374
0.170538 0.030639 0.607000 13613767
0.170538 0.034108 0.607000 13480123
0.168852 0.037205 0.601000 14733522
0.168571 0.040571 0.600000 15132401
0.168010 0.043853 0.598000 15000819
0.167729 0.047191 0.597000 15328496
0.167448 0.050518 0.596000 16447738
0.167167 0.053833 0.595000 16711422
0.167167 0.057233 0.595000 16710909
0.167448 0.060735 0.596000 14736109
0.167729 0.064249 0.597000 14737137
0.168290 0.067887 0.599000 14736624
0.168852 0.071548 0.601000 14407922
0.169976 0.075481 0.605000 14078185
0.170819 0.079330 0.608000 13812174
0.171100 0.082940 0.609000 13745088
0.179614 -0.026005 0.635000 13153977
0.179049 -0.022306 0.633000 10987487
0.179331 -0.018718 0.634000 9472164
0.179331 -0.015095 0.634000 9077660
0.179331 -0.011472 0.634000 8814743
0.179614 -0.007862 0.635000 8486291
0.179614 -0.004233 0.635000 8354705
0.179614 -0.000605 0.635000 8223115
0.179331 0.003019 0.634000 8026251
0.181311 0.006715 0.641000 7893643
0.181311 0.010378 0.641000 7297167
0.168866 0.016489 0.597000 14275052
0.169149 0.019933 0.598000 14144234
0.170563 0.023546 0.603000 14010853
0.171411 0.027126 0.606000 13811140
0.172260 0.030740 0.609000 13611190
0.172260 0.034220 0.609000 13546171
0.169997 0.037205 0.601000 14137531
0.169997 0.040639 0.601000 14867952
0.169431 0.043927 0.599000 15263991
0.168866 0.047191 0.597000 15329008
0.168583 0.050518 0.596000 16251129
0.168300 0.053833 0.595000 16645630
0.168300 0.057233 0.595000 16645885
0.168583 0.060735 0.596000 14868461
0.168866 0.064249 0.597000 14868978
0.169431 0.067887 0.599000 14868465
0.169997 0.071548 0.601000 14539251
0.171129 0.075481 0.605000 14011625
0.171694 0.079199 0.607000 13811141
0.171977 0.082804 0.608000 13745086
0.179970 -0.022270 0.632000 11713500
0.180254 -0.018689 0.633000 9475250
0.179970 -0.015048 0.632000 9208733
0.180254 -0.011454 0.633000 8880793
0.180254 -0.007837 0.633000 8551829
0.180539 -0.004227 0.634000 8354961
0.180539 -0.000604 0.634000 8288909
0.179685 0.003005 0.631000 8091790
0.170288 0.016516 0.598000 14143718
0.170572 0.019967 0.599000 14078690
0.171711 0.023546 0.603000 13746381
0.172566 0.027126 0.606000 13611964
0.173420 0.030740 0.609000 13611703
0.173420 0.034220 0.609000 13611962
0.171427 0.037267 0.602000 13481913
0.170857 0.040571 0.600000 14536659
0.170288 0.043853 0.598000 15460076
0.170003 0.047191 0.597000 15329781
0.169718 0.050518 0.596000 16052985
0.169433 0.053833 0.595000 16645886
0.169433 0.057233 0.595000 16577528
0.169718 0.060735 0.596000 14999792
0.170003 0.064249 0.597000 15000563
0.170572 0.067887 0.599000 14999795
0.171142 0.071548 0.601000 14604521
0.172281 0.075481 0.605000 14011604
0.173135 0.079330 0.608000 13810883
0.181173 -0.022270 0.632000 12434136
0.181173 -0.018659 0.632000 10395072
0.181173 -0.015048 0.632000 9210014
0.181173 -0.011436 0.632000 9012380
0.181173 -0.007825 0.632000 8683158
0.180887 -0.004207 0.631000 8420754
0.181173 -0.000602 0.632000 8354702
0.180887 0.003005 0.631000 8288401
0.171427 0.016516 0.598000 14012129
0.172000 0.020000 0.600000 13812953
0.172000 0.040571 0.600000 14073782
0.171427 0.043853 0.598000 14866145
0.171140 0.047191 0.597000 15330042
0.170853 0.050518 0.596000 15723514
0.170567 0.053833 0.595000 16382462
0.170853 0.057330 0.596000 15852787
0.170853 0.060735 0.596000 15131634
0.171140 0.064249 0.597000 15132405
0.171713 0.067887 0.599000 14802165
0.172573 0.071667 0.602000 14340318
0.173433 0.075481 0.605000 13942718
0.174007 0.079199 0.607000 13942208
0.182377 -0.022270 0.632000 13219771
0.182377 -0.018659 0.632000 11251918
0.182089 -0.015024 0.631000 9146035
0.182089 -0.011418 0.631000 9077916
0.182089 -0.007812 0.631000 8814743
0.181223 -0.004187 0.628000 8486289
0.182089 -0.000601 0.631000 8420494
0.181511 0.002995 0.629000 8484236
0.172854 0.016544 0.599000 13812688
0.173431 0.020033 0.601000 13614279
0.172566 0.043853 0.598000 14206157
0.171989 0.047112 0.596000 15328990
0.171989 0.050518 0.596000 15329004
0.171989 0.053924 0.596000 16052982
0.171989 0.057330 0.596000 15066866
0.172277 0.060837 0.597000 15328752
0.172277 0.064249 0.597000 15262444
0.172854 0.067887 0.599000 14603493
0.173720 0.071667 0.602000 14009034
0.174586 0.075481 0.605000 13809853
0.175163 0.079199 0.607000 14073023
0.183581 -0.022270 0.632000 13282974
0.183290 -0.018630 0.631000 12439260
0.182710 -0.014976 0.629000 10133704
0.182710 -0.011382 0.629000 9209245
0.182710 -0.007788 0.629000 8748695
0.182129 -0.004180 0.627000 8420496
0.182419 -0.000598 0.628000 8288653
0.182129 0.002986 0.627000 8221320
0.174576 0.013165 0.601000 14208212
0.174286 0.016571 0.600000 13611455
0.174867 0.020067 0.602000 13480884
0.173124 0.047112 0.596000 14469570
0.173124 0.050518 0.596000 14603487
0.173124 0.053924 0.596000 15195885
0.173414 0.057426 0.597000 14869232
0.173414 0.060837 0.597000 14801389
0.173705 0.064356 0.598000 14603236
0.173995 0.067887 0.599000 14140628
0.174867 0.071667 0.602000 13940663
0.175738 0.075481 0.605000 13810108
0.175738 0.078938 0.605000 14007486
0.184785 -0.022270 0.632000 13280419
0.184492 -0.018630 0.631000 13614274
0.183908 -0.014976 0.629000 11124179
0.183323 -0.011346 0.627000 9278391
0.182446 -0.007726 0.624000 8682409
0.182446 -0.004160 0.624000 8289183
0.183030 -0.000596 0.626000 8156323
0.182738 0.002976 0.625000 7898792
0.176598 0.009779 0.604000 15326436
0.176013 0.013187 0.602000 13678533
0.175429 0.016571 0.600000 13414327
0.176013 0.020067 0.602000 13414324
0.174259 0.050518 0.596000 13878733
0.174259 0.053924 0.596000 14337235
0.174551 0.057426 0.597000 14601941
0.174551 0.060837 0.597000 14273747
0.174844 0.064356 0.598000 13878479
0.175136 0.067887 0.599000 13745351
0.176013 0.071667 0.602000 13809848
0.176890 0.075481 0.605000 13810106
0.185694 -0.018630 0.631000 13413545
0.184517 -0.014929 0.627000 12305117
0.183929 -0.011310 0.625000 11052497
0.183340 -0.007713 0.623000 9867962
0.183340 -0.004153 0.623000 9469870
0.184223 -0.000596 0.626000 9537720
0.183929 0.002976 0.625000 10462408
0.177749 0.009779 0.604000 14271699
0.177454 0.013209 0.603000 13414582
0.175394 0.050518 0.596000 13875899
0.175394 0.053924 0.596000 13941433
0.175689 0.057426 0.597000 14137275
0.175983 0.060939 0.598000 14007224
0.175983 0.064356 0.598000 13875130
0.175689 0.067660 0.597000 13744570
0.185415 -0.014905 0.626000 13418429
0.185119 -0.011310 0.625000 12828112
0.184527 -0.007713 0.623000 11120591
0.184230 -0.004147 0.622000 10594762
0.182750 -0.000588 0.617000 10989263
0.181565 0.002919 0.613000 13026775
0.179788 0.006359 0.607000 14605782
0.178899 0.009779 0.604000 13220032
0.178603 0.013209 0.603000 13217204
0.176530 0.050518 0.596000 13875640
0.177122 0.060939 0.598000 13808826
0.177122 0.064356 0.598000 13875643
0.176826 0.067660 0.597000 13744571
0.186608 -0.014905 0.626000 13283228
0.186310 -0.011310 0.625000 13092559
0.185415 -0.007701 0.622000 12503012
0.184521 -0.004127 0.619000 12244711
0.183925 -0.000588 0.617000 12636390
0.182732 0.002919 0.613000 13554150
0.180646 0.006349 0.606000 14008250
0.180050 0.009779 0.604000 13348270
0.180050 0.013230 0.604000 13283250
0.178261 0.060939 0.598000 13809595
0.186000 -0.007676 0.620000 13877958
0.185700 -0.004127 0.619000 13879499
0.185100 -0.000588 0.617000 14274250
0.183600 0.002914 0.612000 14008775
0.181800 0.006349 0.606000 13412272
0.181200 0.009779 0.604000 13414318
0.187181 -0.007676 0.620000 13480103
0.186879 -0.004127 0.619000 13479088
0.186275 -0.000588 0.617000 13743278
0.184464 0.002910 0.611000 13543849
0.182954 0.006349 0.606000 13281957
0.188058 -0.000590 0.619000 13216171
0.185628 0.002910 0.611000 13085095
0.184716 0.006370 0.608000 13085867
0.101991 0.041923 0.657000 9404032
0.101991 0.045677 0.657000 9469313
0.102929 0.038052 0.655000 9469569
0.103086 0.041859 0.656000 9469569
0.102929 0.045538 0.655000 9665923
0.100359 0.007812 0.631000 9403007
0.100359 0.011418 0.631000 9599615
0.102586 0.030100 0.645000 9468800
0.104176 0.038052 0.655000 9535105
0.103381 0.041476 0.650000 9535361
0.103699 0.045330 0.652000 9797252
0.104335 0.049356 0.656000 9535110
0.101561 0.007812 0.631000 9468800
0.101561 0.011418 0.631000 9468798
0.101561 0.015024 0.631000 9468286
0.103010 0.026210 0.640000 9469050
0.103814 0.030100 0.645000 9469058
0.103814 0.033786 0.645000 9534594
0.103814 0.037471 0.645000 9535106
0.104136 0.041285 0.647000 9600897
0.104780 0.045260 0.651000 9666181
0.104780 0.048980 0.651000 9600899
0.105102 0.052862 0.653000 9601157
0.101786 0.000595 0.625000 9336701
0.101949 0.004173 0.626000 9468286
0.102274 0.007775 0.628000 9468542
0.102274 0.011364 0.628000 9403263
0.102274 0.014952 0.628000 9337469
0.102437 0.018570 0.629000 9468542
0.103903 0.026128 0.638000 9469053
0.104880 0.030053 0.644000 9469057
0.104880 0.033733 0.644000 9469314
0.104554 0.037297 0.642000 9535106
0.105043 0.041157 0.645000 9666434
0.105531 0.045051 0.648000 9469829
0.105857 0.048905 0.650000 9666437
0.106020 0.052700 0.651000 9601413
0.102976 -0.002976 0.625000 9664386
0.102811 0.000594 0.624000 9403008
0.102976 0.004167 0.625000 9402746
0.103306 0.007763 0.627000 9402749
0.103306 0.011346 0.627000 9403263
0.103141 0.014905 0.626000 9468540
0.103306 0.018511 0.627000 9403263
0.104130 0.022270 0.632000 9468801
0.104624 0.026005 0.635000 9469056
0.105612 0.029913 0.641000 9534591
0.105612 0.033576 0.641000 9535106
0.105612 0.037239 0.641000 9600899
0.106107 0.041093 0.644000 9666435
0.106436 0.044912 0.646000 9535366
0.106601 0.048679 0.647000 9666694
0.107095 0.052619 0.650000 9536389
0.104000 -0.002971 0.624000 9336445
0.104000 0.000594 0.624000 9402750
0.104167 0.004167 0.625000 9337212
0.104333 0.007750 0.626000 9271934
0.104333 0.011328 0.626000 9403262
0.104167 0.014881 0.625000 9534331
0.104333 0.018482 0.626000 9403520
0.105167 0.022235 0.631000 9468802
0.105667 0.025964 0.634000 9469056
0.105833 0.029633 0.635000 9534592
0.106500 0.033471 0.639000 9600642
0.106667 0.037181 0.640000 9600899
0.106833 0.040902 0.641000 9666691
0.107333 0.044773 0.644000 9601159
0.107667 0.048604 0.646000 9666950
0.108000 0.052457 0.648000 9470342
0.105189 -0.002971 0.624000 9139320
0.105189 0.000594 0.624000 9337467
0.105357 0.004167 0.625000 9337470
0.105357 0.007738 0.625000 9206656
0.105357 0.011310 0.625000 9337725
0.105189 0.014857 0.624000 9469051
0.105357 0.018452 0.625000 9403520
0.105863 0.022130 0.628000 9468803
0.106537 0.025882 0.632000 9469312
0.106537 0.029493 0.632000 9534593
0.107043 0.033262 0.635000 9600642
0.107211 0.036949 0.636000 9601155
0.107717 0.040774 0.639000 9666691
0.108223 0.044634 0.642000 9666695
0.108729 0.048529 0.645000 9798278
0.109066 0.052376 0.647000 9666951
0.109571 0.056333 0.650000 9798282
0.106548 0.000595 0.625000 9271421
0.106548 0.004167 0.625000 9337472
0.106207 0.007713 0.623000 9140866
0.106207 0.011273 0.623000 9337471
0.106207 0.014833 0.623000 9403517
0.106377 0.018423 0.624000 9403519
0.106718 0.022059 0.626000 9468804
0.107059 0.025718 0.628000 9469570
0.107570 0.029447 0.631000 9534850
0.108082 0.033210 0.634000 9600644
0.108252 0.036890 0.635000 9600902
0.108934 0.040774 0.639000 9666693
0.109105 0.044495 0.640000 9732488
0.109275 0.048228 0.641000 9929608
0.110298 0.052376 0.647000 9798282
0.110810 0.056333 0.650000 9863821
0.105497 0.004080 0.612000 9272193
0.106359 0.007639 0.617000 9336964
0.107221 0.011255 0.622000 9272193
0.107393 0.014833 0.623000 9403520
0.107393 0.018393 0.623000 9469310
0.107566 0.021989 0.624000 9468806
0.107910 0.025636 0.626000 9535107
0.108255 0.029307 0.628000 9535108
0.108772 0.033052 0.631000 9535365
0.109290 0.036832 0.634000 9666441
0.109634 0.040583 0.636000 9732231
0.109979 0.044356 0.638000 9798026
0.110324 0.048152 0.640000 9864073
0.111013 0.052133 0.644000 9863821
0.111703 0.056160 0.648000 9864336
0.106663 0.004080 0.612000 9272192
0.107011 0.007602 0.614000 9533826
0.107360 0.011147 0.616000 9272450
0.108057 0.014762 0.620000 9403521
0.108057 0.018305 0.620000 9469312
0.108057 0.021848 0.620000 9403525
0.108580 0.025513 0.623000 9600899
0.108929 0.029167 0.625000 9535364
0.109277 0.032843 0.627000 9535623
0.109974 0.036658 0.631000 9666695
0.110497 0.040455 0.634000 9798025
0.110846 0.044217 0.636000 9798283
0.111194 0.048002 0.638000 9864074
0.111717 0.051890 0.641000 9929870
0.112414 0.055900 0.645000 9930129
0.112763 0.059770 0.647000 10061458
0.107124 0.000579 0.608000 10059945
0.107652 0.004073 0.611000 9074814
0.107829 0.007577 0.612000 9468032
0.108181 0.011110 0.614000 9337986
0.108710 0.014690 0.617000 9403522
0.108886 0.018246 0.618000 9469313
0.108886 0.021777 0.618000 9469060
0.109062 0.025350 0.619000 9600899
0.109943 0.029120 0.624000 9600901
0.110295 0.032790 0.626000 9601416
0.110824 0.036542 0.629000 9732230
0.111176 0.040264 0.631000 9863818
0.111881 0.044148 0.635000 9863821
0.112057 0.047851 0.636000 9864587
0.112762 0.051810 0.640000 9995664
0.113467 0.055813 0.644000 9996178
0.113643 0.059586 0.645000 10126996
0.108282 0.000579 0.608000 11249604
0.108104 0.004047 0.607000 8877193
0.108282 0.007528 0.608000 9337472
0.108994 0.011074 0.612000 9468802
0.109529 0.014643 0.615000 9403520
0.109707 0.018187 0.616000 9469570
0.109707 0.021707 0.616000 9469316
0.110063 0.025309 0.618000 9601155
0.110953 0.029073 0.623000 9666694
0.111131 0.032686 0.624000 9666954
0.111844 0.036484 0.628000 9732745
0.112378 0.040264 0.631000 9864077
0.112912 0.044078 0.634000 9864335
0.113090 0.047776 0.635000 9930383
0.113803 0.051729 0.639000 9996178
0.114337 0.055640 0.642000 10127509
0.114871 0.059586 0.645000 10193046
0.113220 -0.024561 0.629000 14276079
0.109260 0.000578 0.607000 12048095
0.109080 0.004040 0.606000 9667732
0.109260 0.007515 0.607000 9337472
0.109620 0.011020 0.609000 9468801
0.110340 0.014595 0.613000 9403519
0.110520 0.018128 0.614000 9469570
0.110700 0.021671 0.615000 9535108
0.111060 0.025268 0.617000 9666691
0.111600 0.028933 0.620000 9601160
0.112140 0.032633 0.623000 9666956
0.112500 0.036310 0.625000 9798540
0.113220 0.040136 0.629000 9929872
0.113940 0.044009 0.633000 9995922
0.114120 0.047701 0.634000 9996434
0.114840 0.051648 0.638000 10127252
0.115380 0.055553 0.641000 10193303
0.115920 0.059493 0.644000 10258841
0.114964 -0.024678 0.632000 13816559
0.110052 0.000576 0.605000 12823494
0.110052 0.004033 0.605000 10460094
0.110234 0.007503 0.606000 9336712
0.110598 0.011002 0.608000 9469059
0.111144 0.014548 0.611000 9403778
0.111508 0.018098 0.613000 9535108
0.111690 0.021636 0.614000 9600646
0.112053 0.025227 0.616000 9732229
0.112599 0.028887 0.619000 9470345
0.113145 0.032581 0.622000 9732494
0.113509 0.036251 0.624000 9864334
0.114054 0.040009 0.627000 9930130
0.114964 0.043939 0.632000 10061716
0.115146 0.047626 0.633000 10062228
0.115691 0.051486 0.636000 10193558
0.116419 0.055467 0.640000 10259098
0.116783 0.059309 0.642000 10325147
0.117329 0.063271 0.645000 10390942
0.116351 -0.028334 0.633000 14538992
0.116168 -0.024678 0.632000 13749999
0.111205 0.000576 0.605000 10389421
0.111021 0.004027 0.604000 11382248
0.111389 0.007503 0.606000 9204624
0.111389 0.010966 0.606000 9469061
0.111940 0.014500 0.609000 9469317
0.112491 0.018069 0.612000 9535110
0.112675 0.021601 0.613000 9666184
0.113043 0.025186 0.615000 9798023
0.113594 0.028840 0.618000 9667210
0.113962 0.032476 0.620000 9798543
0.114513 0.036193 0.623000 9930128
0.115249 0.040009 0.627000 9996180
0.115616 0.043730 0.629000 10127510
0.116351 0.047626 0.633000 10128022
0.116903 0.051486 0.636000 10259608
0.117454 0.055380 0.639000 10325149
0.118006 0.059309 0.642000 10391453
0.118373 0.063173 0.644000 10456991
0.117743 -0.028379 0.634000 14276591
0.117557 -0.024717 0.633000 13683951
0.121643 -0.010605 0.655000 10329543
0.122200 -0.006893 0.658000 9473468
0.122757 -0.003148 0.661000 8947123
0.112171 0.000575 0.604000 7897254
0.111800 0.004013 0.602000 12237506
0.112171 0.007478 0.604000 9012132
0.111986 0.010911 0.603000 9468809
0.112543 0.014429 0.606000 9535109
0.113471 0.018039 0.611000 9535368
0.113843 0.021601 0.613000 9666441
0.114214 0.025186 0.615000 9863562
0.114586 0.028793 0.617000 9798540
0.115143 0.032476 0.620000 9864595
0.115514 0.036135 0.622000 9995923
0.115886 0.039817 0.624000 10061975
0.116629 0.043661 0.628000 10127768
0.117371 0.047550 0.632000 10193817
0.117929 0.051405 0.635000 10325403
0.118671 0.055380 0.639000 10391199
0.119229 0.059309 0.642000 10457247
0.119600 0.063173 0.644000 10523040
0.118950 -0.032002 0.634000 15002105
0.118950 -0.028379 0.634000 14210031
0.118950 -0.024756 0.634000 13618671
0.119889 -0.021300 0.639000 13158127
0.122890 -0.010605 0.655000 10197189
0.123829 -0.006914 0.660000 9341625
0.125517 -0.003186 0.669000 8816049
0.112947 0.000573 0.602000 8157600
0.112947 0.004013 0.602000 11050395
0.112947 0.007453 0.602000 10456505
0.112947 0.010893 0.602000 9337740
0.113510 0.014405 0.605000 9600646
0.114260 0.017980 0.609000 9601161
0.114635 0.021530 0.611000 9732235
0.115010 0.025104 0.613000 9864076
0.115573 0.028747 0.616000 9864079
0.116136 0.032424 0.619000 9930390
0.116324 0.036019 0.620000 10061462
0.117074 0.039817 0.624000 10127769
0.117637 0.043591 0.627000 10259099
0.118388 0.047475 0.631000 10259868
0.119138 0.051405 0.635000 10390942
0.119326 0.055120 0.636000 10456992
0.120076 0.059124 0.640000 10588577
0.120451 0.062977 0.642000 10589089
0.120158 -0.032002 0.634000 14869750
0.120158 -0.028379 0.634000 14078959
0.120158 -0.024756 0.634000 13618927
0.121485 -0.021367 0.641000 13026796
0.123570 -0.014282 0.652000 10921422
0.124328 -0.010621 0.656000 10000324
0.125465 -0.006935 0.662000 9211062
0.126791 -0.003186 0.669000 8684719
0.114093 0.000573 0.602000 8354718
0.113904 0.004007 0.601000 9861516
0.113904 0.007441 0.601000 11840185
0.114093 0.010893 0.602000 9206151
0.114472 0.014381 0.604000 9600904
0.115041 0.017921 0.607000 9666955
0.115041 0.021390 0.607000 9732749
0.115799 0.025022 0.611000 9864333
0.116747 0.028747 0.616000 9864847
0.116936 0.032319 0.617000 10061973
0.117315 0.035961 0.619000 10127767
0.117884 0.039690 0.622000 10259100
0.118452 0.043452 0.625000 10325149
0.119021 0.047250 0.628000 10391454
0.119969 0.051243 0.633000 10456993
0.120537 0.055120 0.636000 10588323
0.121106 0.059031 0.639000 10654628
0.121674 0.062977 0.642000 10720420
0.121366 -0.032002 0.634000 14737650
0.121366 -0.028379 0.634000 14012399
0.121557 -0.024795 0.635000 13552879
0.123280 -0.021467 0.644000 12959978
0.123854 -0.017870 0.647000 11843034
0.125003 -0.014304 0.653000 10789064
0.125769 -0.010637 0.657000 9868483
0.126726 -0.006935 0.662000 9079732
0.127683 -0.003176 0.667000 8553388
0.128066 0.000637 0.669000 8223389
0.115049 0.007441 0.601000 12570042
0.115049 0.010875 0.601000 9601409
0.115431 0.014357 0.603000 9601162
0.115814 0.017862 0.605000 9732748
0.116006 0.021354 0.606000 9798543
0.116389 0.024899 0.608000 9930126
0.117346 0.028607 0.613000 9996176
0.117920 0.032267 0.616000 10127764
0.118494 0.035961 0.619000 10193560
0.118686 0.039562 0.620000 10325150
0.119451 0.043383 0.624000 10391199
0.119834 0.047099 0.626000 10457248
0.120983 0.051162 0.632000 10588579
0.121557 0.055033 0.635000 10654373
0.122323 0.059031 0.639000 10720166
0.122514 0.062781 0.640000 10786215
0.122767 -0.032052 0.635000 14605807
0.122960 -0.028469 0.636000 13881839
0.122960 -0.024834 0.636000 13552368
0.124893 -0.021533 0.646000 12894695
0.125667 -0.017952 0.650000 11580118
0.126247 -0.014304 0.653000 10592711
0.127793 -0.010702 0.661000 9671359
0.128180 -0.006946 0.663000 8948146
0.129340 -0.003186 0.669000 8487080
0.129533 0.000638 0.670000 8026778
0.132240 0.004560 0.684000 7631238
0.116000 0.010857 0.600000 9995424
0.116387 0.014333 0.602000 9601418
0.116773 0.017832 0.604000 9798286
0.116967 0.021319 0.605000 9864336
0.117160 0.024817 0.606000 10061202
0.118513 0.028607 0.613000 10061972
0.118900 0.032214 0.615000 10193815
0.119480 0.035903 0.618000 10259866
0.119867 0.039562 0.620000 10391455
0.120640 0.043383 0.624000 10457249
0.120833 0.047024 0.625000 10588578
0.121993 0.051081 0.631000 10720165
0.122767 0.055033 0.635000 10786214
0.123347 0.058939 0.638000 10786216
0.123540 0.062683 0.639000 10917545
0.123781 -0.035625 0.634000 15987950
0.124171 -0.032103 0.636000 14408172
0.124171 -0.028469 0.636000 13815535
0.125148 -0.025030 0.641000 13421296
0.126124 -0.021533 0.646000 12631524
0.127100 -0.017980 0.651000 11448017
0.127881 -0.014348 0.655000 10395335
0.129052 -0.010702 0.661000 9605306
0.130029 -0.006977 0.666000 8882096
0.130810 -0.003190 0.670000 8355747
0.131590 0.000642 0.674000 8026775
0.133348 0.004553 0.683000 7697038
0.116948 0.010839 0.599000 10722751
0.117338 0.014310 0.601000 9666954
0.117729 0.017803 0.603000 9929616
0.117729 0.021249 0.603000 9995666
0.118314 0.024817 0.606000 10127253
0.119486 0.028560 0.612000 10193049
0.119876 0.032162 0.614000 10325146
0.120267 0.035787 0.616000 10391452
0.121048 0.039562 0.620000 10523040
0.121829 0.043383 0.624000 10588835
0.122024 0.047024 0.625000 10720420
0.122805 0.050919 0.629000 10786214
0.123781 0.054947 0.634000 10852006
0.124171 0.058754 0.636000 10852010
0.124757 0.062683 0.639000 10983338
0.125186 -0.035681 0.635000 16249331
0.125974 -0.032254 0.639000 14277100
0.125974 -0.028603 0.639000 13684719
0.126369 -0.025030 0.641000 13289966
0.127551 -0.021567 0.647000 12369123
0.128537 -0.018008 0.652000 11316432
0.129326 -0.014370 0.656000 10197701
0.130311 -0.010702 0.661000 9474231
0.131297 -0.006977 0.666000 8816045
0.132086 -0.003190 0.670000 8289696
0.132874 0.000642 0.674000 8026517
0.134649 0.004553 0.683000 7828620
0.134649 0.008456 0.683000 8813969
0.118089 0.010839 0.599000 11449301
0.118089 0.014262 0.599000 9732497
0.118680 0.017773 0.602000 10061202
0.118877 0.021249 0.603000 10061718
0.119271 0.024776 0.605000 10193560
0.120454 0.028513 0.611000 10259355
0.120849 0.032110 0.613000 10390942
0.121243 0.035729 0.615000 10457503
0.122031 0.039498 0.619000 10720164
0.122623 0.043244 0.622000 10720677
0.123017 0.046949 0.624000 10852007
0.123609 0.050757 0.627000 10852009
0.124989 0.054947 0.634000 10918059
0.125383 0.058754 0.636000 10917803
0.125974 0.062683 0.639000 11048877
0.126992 -0.035850 0.638000 15987705
0.127590 -0.032355 0.641000 14013676
0.127789 -0.028737 0.642000 13684974
0.128187 -0.025147 0.644000 13223660
0.128983 -0.021600 0.648000 12105186
0.129779 -0.018008 0.652000 11052750
0.130575 -0.014370 0.656000 10065091
0.131770 -0.010718 0.662000 9342388
0.132765 -0.006988 0.667000 8684715
0.133561 -0.003195 0.671000 8289693
0.134556 0.000644 0.676000 8026258
0.135950 0.004553 0.683000 7763081
0.136149 0.008469 0.684000 7889279
0.119030 0.010821 0.598000 11710955
0.119030 0.014238 0.598000 9863321
0.119827 0.017773 0.602000 10126995
0.120026 0.021249 0.603000 10127514
0.120424 0.024776 0.605000 10259355
0.121021 0.028373 0.608000 10390942
0.121817 0.032057 0.612000 10456993
0.122414 0.035729 0.615000 10589346
0.123011 0.039434 0.618000 10786215
0.123808 0.043244 0.622000 10786984
0.124206 0.046949 0.624000 10917801
0.124803 0.050757 0.627000 10983596
0.126196 0.054947 0.634000 10983599
0.126395 0.058662 0.635000 10983596
0.126992 0.062585 0.638000 11114671
0.127789 0.066646 0.642000 11114668
0.128409 -0.035906 0.639000 15724023
0.128810 -0.032355 0.641000 13815789
0.129011 -0.028737 0.642000 13619181
0.129614 -0.025186 0.645000 13092331
0.130619 -0.021667 0.650000 11843294
0.131222 -0.018035 0.653000 10855115
0.132026 -0.014391 0.657000 9934528
0.133231 -0.010734 0.663000 9145266
0.134437 -0.007009 0.669000 8553128
0.135040 -0.003200 0.672000 8289178
0.135844 0.000644 0.676000 8026000
0.137250 0.004553 0.683000 7763336
0.137451 0.008469 0.684000 6908799
0.120170 0.010821 0.598000 11976644
0.119969 0.014214 0.597000 9931178
0.120370 0.017685 0.599000 10193046
0.120973 0.021213 0.602000 10193563
0.121375 0.024735 0.604000 10390686
0.121978 0.028327 0.607000 10456992
0.122782 0.032005 0.611000 10588580
0.123586 0.035729 0.615000 10720933
0.123988 0.039370 0.617000 10917547
0.124590 0.043105 0.620000 10852779
0.125193 0.046873 0.623000 11049133
0.125595 0.050595 0.625000 11049390
0.127203 0.054860 0.633000 11049138
0.127605 0.058662 0.635000 11049389
0.128208 0.062585 0.638000 11114670
0.128810 0.066542 0.641000 11114923
0.130031 -0.036018 0.641000 15460086
0.130234 -0.032406 0.642000 13816046
0.130640 -0.028827 0.644000 13553388
0.130843 -0.025186 0.645000 12894954
0.132060 -0.021700 0.651000 11776987
0.132871 -0.018090 0.655000 10723784
0.133277 -0.014391 0.657000 9802430
0.134494 -0.010734 0.663000 9079471
0.135711 -0.007009 0.669000 8552612
0.136320 -0.003200 0.672000 8223639
0.137131 0.000644 0.676000 7960462
0.138551 0.004553 0.683000 7828359
0.138754 0.008469 0.684000 7433856
0.121309 0.010821 0.598000 11048861
0.121106 0.014214 0.597000 10193851
0.121309 0.017655 0.598000 10258585
0.122120 0.021213 0.602000 10325149
0.122323 0.024694 0.603000 10456992
0.123134 0.028327 0.607000 10523042
0.123946 0.032005 0.611000 10654630
0.124554 0.035670 0.614000 10852520
0.125163 0.039370 0.617000 10983855
0.125771 0.043105 0.620000 11049902
0.126177 0.046798 0.622000 11049904
0.126786 0.050595 0.625000 11246512
0.128409 0.054860 0.633000 11115189
0.128611 0.058570 0.634000 11049390
0.129017 0.062389 0.636000 11114925
0.129829 0.066438 0.640000 11114667
0.131252 -0.036018 0.641000 15132662
0.131457 -0.032406 0.642000 13750765
0.131867 -0.028827 0.644000 13487339
0.132481 -0.025264 0.647000 12698344
0.133300 -0.021700 0.651000 11645399
0.134119 -0.018090 0.655000 10527682
0.134733 -0.014413 0.658000 9671098
0.136167 -0.010767 0.665000 8947884
0.137190 -0.007019 0.670000 8486818
0.138010 -0.003210 0.674000 8157845
0.138829 0.000646 0.678000 7894667
0.139852 0.004553 0.683000 7893638
0.140057 0.008469 0.684000 7958914
0.140057 0.012377 0.684000 10191746
0.122243 0.014214 0.597000 10396095
0.122243 0.017626 0.597000 10324123
0.122857 0.021143 0.600000 10391455
0.123471 0.024694 0.603000 10589091
0.124086 0.028280 0.606000 10589349
0.124700 0.031900 0.609000 10786218
0.125519 0.035612 0.613000 10983853
0.126133 0.039307 0.616000 11049906
0.126543 0.042966 0.618000 11181488
0.127567 0.046873 0.623000 11115954
0.127976 0.050595 0.625000 11377841
0.129614 0.054860 0.633000 11115444
0.129819 0.058570 0.634000 11049647
0.130229 0.062389 0.636000 11180205
0.131048 0.066438 0.640000 11114666
0.132680 -0.036074 0.642000 14802933
0.132680 -0.032406 0.642000 13619180
0.133300 -0.028871 0.645000 13355498
0.133713 -0.025264 0.647000 12500966
0.134747 -0.021733 0.652000 11512787
0.135573 -0.018118 0.656000 10395324
0.135987 -0.014413 0.658000 9605047
0.137433 -0.010767 0.665000 8881833
0.138673 -0.007030 0.671000 8421024
0.139293 -0.003210 0.674000 8092307
0.140120 0.000646 0.678000 7959943
0.141153 0.004553 0.683000 7894149
0.141360 0.008469 0.684000 7893892
0.141773 0.012413 0.686000 9665639
0.123173 0.014190 0.596000 11578820
0.123380 0.017626 0.597000 10390173
0.123793 0.021108 0.599000 10588834
0.124620 0.024694 0.603000 10654886
0.125033 0.028233 0.605000 10786729
0.125653 0.031848 0.608000 10917806
0.126273 0.035496 0.611000 11115185
0.127100 0.039243 0.615000 11181236
0.127927 0.043035 0.619000 11247283
0.128547 0.046798 0.622000 11181492
0.129167 0.050595 0.625000 11246771
0.129787 0.054427 0.628000 11115442
0.130820 0.058477 0.633000 11049904
0.131233 0.062290 0.635000 11114925
0.132267 0.066438 0.640000 11114665
0.133903 -0.036074 0.642000 14475509
0.133903 -0.032406 0.642000 13487342
0.134529 -0.028871 0.645000 13158376
0.135154 -0.025303 0.648000 12370148
0.135989 -0.021733 0.652000 11316176
0.136823 -0.018118 0.656000 10329278
0.137657 -0.014457 0.660000 9539508
0.138700 -0.010767 0.665000 8815273
0.139951 -0.007030 0.671000 8355230
0.140577 -0.003210 0.674000 8091794
0.141411 0.000646 0.678000 7959688
0.142454 0.004553 0.683000 7894150
0.143080 0.008493 0.686000 7828611
0.143706 0.012468 0.689000 9136493
0.124309 0.014190 0.596000 12693441
0.124309 0.017596 0.596000 10456480
0.124934 0.021108 0.599000 10720421
0.125769 0.024694 0.603000 10721192
0.126186 0.028233 0.605000 10918316
0.126394 0.031743 0.606000 11049649
0.127437 0.035496 0.611000 11181492
0.128271 0.039243 0.615000 11247287
0.129106 0.043035 0.619000 11247542
0.129314 0.046648 0.620000 11247031
0.130149 0.050514 0.624000 11115956
0.130774 0.054340 0.627000 11115185
0.131817 0.058385 0.632000 11049647
0.132443 0.062290 0.635000 11049133
0.133277 0.066334 0.639000 11049128
0.135547 -0.036187 0.644000 14144244
0.135547 -0.032507 0.644000 13421552
0.135757 -0.028871 0.645000 13026535
0.136810 -0.025381 0.650000 12172002
0.137441 -0.021767 0.653000 11183822
0.138283 -0.018146 0.657000 10197439
0.138914 -0.014457 0.660000 9473969
0.140177 -0.010783 0.666000 8815272
0.141230 -0.007030 0.671000 8289436
0.141861 -0.003210 0.674000 8026001
0.142703 0.000646 0.678000 7959433
0.143755 0.004553 0.683000 7894150
0.144387 0.008493 0.686000 7893891
0.145018 0.012468 0.689000 8284531
0.125233 0.014167 0.595000 13151934
0.125444 0.017596 0.596000 10588579
0.126075 0.021108 0.599000 10852008
0.126707 0.024653 0.602000 10853034
0.127128 0.028187 0.604000 11049903
0.127549 0.031743 0.606000 11247028
0.127970 0.035322 0.608000 11312823
0.129443 0.039243 0.615000 11313338
0.129864 0.042896 0.617000 11378873
0.130916 0.046798 0.622000 11247289
0.131337 0.050514 0.624000 11116213
0.131758 0.054253 0.626000 11115440
0.133021 0.058385 0.632000 10918574
0.133652 0.062290 0.635000 10983596
0.134494 0.066334 0.639000 10917800
0.136773 -0.036187 0.644000 13818099
0.136773 -0.032507 0.644000 13421294
0.137410 -0.028961 0.647000 12895204
0.138048 -0.025381 0.650000 12040159
0.138685 -0.021767 0.653000 10986956
0.139534 -0.018146 0.657000 10065853
0.140384 -0.014479 0.661000 9342128
0.141446 -0.010783 0.666000 8749222
0.142508 -0.007030 0.671000 8223642
0.143145 -0.003210 0.674000 8025744
0.144207 0.000647 0.679000 7894152
0.145056 0.004553 0.683000 7894150
0.145906 0.008506 0.687000 7959427
0.146330 0.012468 0.689000 7499900
0.126367 0.014167 0.595000 13610672
0.126367 0.017567 0.595000 10653864
0.127004 0.021072 0.598000 10983852
0.127429 0.024571 0.600000 11050414
0.128066 0.028140 0.603000 11181491
0.128703 0.031743 0.606000 11378616
0.129128 0.035322 0.608000 11444410
0.130190 0.039115 0.613000 11445180
0.131039 0.042896 0.617000 11444667
0.131676 0.046648 0.620000 11312825
0.132526 0.050514 0.624000 11115956
0.132950 0.054253 0.626000 11115183
0.134225 0.058385 0.632000 10786988
0.134862 0.062290 0.635000 10917547
0.135924 0.066438 0.640000 10786729
0.138000 -0.036187 0.644000 13750002
0.138000 -0.032507 0.644000 13289707
0.138643 -0.028961 0.647000 12829666
0.139286 -0.025381 0.650000 11908315
0.139929 -0.021767 0.653000 10854603
0.140786 -0.018146 0.657000 9934011
0.141643 -0.014479 0.661000 9210799
0.142714 -0.010783 0.666000 8683683
0.143571 -0.007019 0.670000 8223641
0.144429 -0.003210 0.674000 8025742
0.145500 0.000647 0.679000 7894152
0.146571 0.004560 0.684000 7828614
0.147214 0.008506 0.687000 7959172
0.147643 0.012468 0.689000 7499653
0.127500 0.014167 0.595000 12889507
0.127500 0.017567 0.595000 11050156
0.127929 0.021037 0.597000 11115440
0.128357 0.024530 0.599000 11181746
0.129214 0.028140 0.603000 11312823
0.129643 0.031690 0.605000 11444667
0.130071 0.035264 0.607000 11575996
0.131143 0.039051 0.612000 11576765
0.132000 0.042827 0.616000 11510461
0.132643 0.046572 0.619000 11313081
0.133714 0.050514 0.624000 11181491
0.134143 0.054253 0.626000 11049645
0.135214 0.058292 0.631000 10917801
0.136071 0.062290 0.635000 10917546
0.137143 0.066438 0.640000 10918057
0.139227 -0.036187 0.644000 13619697
0.139443 -0.032557 0.645000 13158377
0.139875 -0.028961 0.647000 12763361
0.140740 -0.025420 0.651000 11843034
0.141172 -0.021767 0.653000 10724038
0.142253 -0.018173 0.658000 9802424
0.143118 -0.014501 0.662000 9079212
0.144199 -0.010799 0.667000 8617888
0.144848 -0.007019 0.670000 8223382
0.145712 -0.003210 0.674000 8025741
0.146793 0.000647 0.679000 7894408
0.147874 0.004560 0.684000 7828618
0.148523 0.008506 0.687000 7893891
0.148955 0.012468 0.689000 7500677
0.128417 0.014143 0.594000 12097182
0.128633 0.017567 0.595000 11442625
0.129066 0.021037 0.597000 11181490
0.129498 0.024530 0.599000 11313333
0.130147 0.028093 0.602000 11444666
0.130795 0.031690 0.605000 11576509
0.131444 0.035322 0.608000 11642302
0.132309 0.039051 0.612000 11708094
0.132957 0.042757 0.615000 11510462
0.134038 0.046648 0.620000 11313338
0.134687 0.050433 0.623000 11181491
0.135335 0.054253 0.626000 11049387
0.135984 0.058108 0.629000 10983338
0.137281 0.062290 0.635000 10983341
0.138146 0.066334 0.639000 11049645
0.140671 -0.036243 0.645000 13552879
0.140671 -0.032557 0.645000 13026791
0.141326 -0.029006 0.648000 12565728
0.141980 -0.025420 0.651000 11645144
0.142416 -0.021767 0.653000 10592449
0.143507 -0.018173 0.658000 9671093
0.144379 -0.014501 0.662000 9013418
0.145470 -0.010799 0.667000 8552093
0.146342 -0.007030 0.671000 8223124
0.146996 -0.003210 0.674000 7960460
0.148087 0.000647 0.679000 7894665
0.148959 0.004553 0.683000 7828622
0.149831 0.008506 0.687000 7894146
0.150486 0.012486 0.690000 7631237
0.129549 0.014143 0.594000 10450841
0.129549 0.017537 0.594000 12037589
0.129985 0.021002 0.596000 11313077
0.130421 0.024490 0.598000 11444920
0.131293 0.028093 0.602000 11576252
0.131730 0.031638 0.604000 11708094
0.132602 0.035322 0.608000 11773889
0.133256 0.038988 0.611000 11773887
0.133910 0.042688 0.614000 11576254
0.135219 0.046648 0.620000 11247803
0.135873 0.050433 0.623000 11181235
0.136528 0.054253 0.626000 10984105
0.137182 0.058108 0.629000 10983082
0.138272 0.062192 0.634000 11049136
0.139581 0.066438 0.640000 11181233
0.141900 -0.036243 0.645000 13422317
0.142120 -0.032608 0.646000 12895205
0.142560 -0.029006 0.648000 12368607
0.143220 -0.025420 0.651000 11513554
0.143660 -0.021767 0.653000 10395329
0.144760 -0.018173 0.658000 9605045
0.145640 -0.014501 0.662000 8947367
0.146740 -0.010799 0.667000 8486045
0.147620 -0.007030 0.671000 8157586
0.148280 -0.003210 0.674000 7960716
0.149160 0.000646 0.678000 7828873
0.150480 0.004560 0.684000 7828619
0.151140 0.008506 0.687000 7894148
0.151580 0.012468 0.689000 7828361
0.130680 0.017537 0.594000 12564701
0.130900 0.020967 0.595000 11444663
0.131560 0.024490 0.598000 11576763
0.132220 0.028047 0.601000 11642558
0.132660 0.031586 0.603000 11839681
0.133540 0.035264 0.607000 11905475
0.134420 0.038988 0.611000 11839426
0.135080 0.042688 0.614000 11641791
