# .PCD v.7 - Point Cloud Data file format
VERSION .7
FIELDS x y z rgb
SIZE 4 4 4 4
TYPE F F F I
COUNT 1 1 1 1
WIDTH 1338
HEIGHT 1
POINTS 1338
DATA ascii
0.277052 0.120689 0.797000 11443377
0.277400 0.125400 0.798000 12034493
0.278095 0.130286 0.800000 13744578
0.269832 0.094846 0.772000 16710653
0.269832 0.099257 0.772000 14396106
0.270182 0.103803 0.773000 14660019
0.277871 0.115843 0.795000 10785958
0.278570 0.120689 0.797000 11574956
0.278570 0.125243 0.797000 11906494
0.279619 0.130286 0.800000 14267835
0.271303 0.094846 0.772000 16710909
0.270600 0.099000 0.770000 14203356
0.271654 0.103803 0.773000 12754344
0.277980 0.115260 0.791000 10918062
0.279386 0.120386 0.795000 11574950
0.280089 0.125243 0.797000 13219776
0.272773 0.094846 0.772000 16709626
0.272067 0.099000 0.770000 14008042
0.273127 0.103803 0.773000 10850213
0.277720 0.110040 0.786000 10916001
0.278780 0.114969 0.789000 11049390
0.280193 0.120083 0.793000 11575485
0.280900 0.124929 0.795000 14464187
0.274244 0.094846 0.772000 16248567
0.273533 0.099000 0.770000 14340344
0.274599 0.103803 0.773000 10717090
0.279217 0.110040 0.786000 10982568
0.279928 0.114823 0.788000 11442862
0.280993 0.119780 0.791000 12826067
0.282414 0.124929 0.795000 14332086
0.275000 0.099000 0.770000 14739963
0.276786 0.104071 0.775000 10591173
0.280714 0.110040 0.786000 11048128
0.281429 0.114823 0.788000 11841469
0.282500 0.119780 0.791000 14143688
0.276467 0.099000 0.770000 15198974
0.278980 0.104340 0.777000 12499432
0.281493 0.109760 0.784000 12498136
0.282211 0.114531 0.786000 13158605
0.283289 0.119477 0.789000 14270140
0.277933 0.099000 0.770000 15653851
0.280460 0.104340 0.777000 14340314
0.282987 0.109760 0.784000 13947856
0.283709 0.114531 0.786000 14467013
0.280489 0.103803 0.773000 14340300
0.165397 0.121593 0.793000 10059136
0.164980 0.125807 0.791000 10124930
0.164171 0.119600 0.780000 10124931
0.166487 0.125807 0.791000 10125187
0.166487 0.130327 0.791000 10191238
0.165445 0.114995 0.779000 10190210
0.165445 0.119447 0.779000 10190722
0.165657 0.124057 0.780000 10190981
0.166082 0.128844 0.782000 10257031
0.166931 0.133994 0.786000 10388103
0.166500 0.114700 0.777000 10256003
0.166500 0.119140 0.777000 10256514
0.167143 0.124057 0.780000 10256774
0.167143 0.128514 0.780000 10388104
0.167571 0.133312 0.782000 10454152
0.168000 0.138133 0.784000 10454412
0.166899 0.100728 0.772000 10124413
0.167115 0.105275 0.773000 10124672
0.167548 0.109976 0.775000 10124930
0.167548 0.114405 0.775000 10322052
0.167980 0.119140 0.777000 10322308
0.167980 0.123580 0.777000 10388360
0.168412 0.128350 0.779000 10453898
0.168629 0.132971 0.780000 10520201
0.169493 0.138133 0.784000 10520205
0.168370 0.100728 0.772000 10190207
0.167933 0.104867 0.770000 10190210
0.168370 0.109550 0.772000 10190723
0.167933 0.113667 0.770000 10387844
0.168588 0.118527 0.773000 10388102
0.169024 0.123262 0.775000 10454154
0.169460 0.128020 0.777000 10519691
0.169896 0.132801 0.779000 10586249
0.170550 0.137781 0.782000 10585742
0.167200 0.086133 0.760000 10320253
0.167860 0.090833 0.763000 10124157
0.167860 0.099553 0.763000 10190209
0.169400 0.104867 0.770000 10256004
0.169400 0.109267 0.770000 10256516
0.168960 0.113371 0.768000 10453893
0.169840 0.118373 0.772000 10388359
0.169840 0.122785 0.772000 10519947
0.170500 0.127690 0.775000 10520204
0.170940 0.132460 0.777000 10652043
0.171600 0.137429 0.780000 10651279
0.172040 0.142250 0.782000 10848407
0.167538 0.085567 0.755000 10189693
0.167760 0.090000 0.756000 10058874
0.168204 0.094570 0.758000 10124674
0.168648 0.099162 0.760000 10124930
0.169757 0.104186 0.765000 10256262
0.170423 0.108983 0.768000 10322565
0.170201 0.113224 0.767000 10453894
0.170423 0.117760 0.768000 10454152
0.170867 0.122467 0.770000 10585739
0.171976 0.127690 0.775000 10585741
0.171976 0.132119 0.775000 10651788
0.172864 0.137252 0.779000 10782352
0.173086 0.141886 0.780000 10914450
0.169648 0.072912 0.758000 9665464
0.167857 0.076429 0.750000 9792147
0.167410 0.080499 0.748000 9926524
0.168529 0.085340 0.753000 10124417
0.168976 0.089881 0.755000 9928062
0.168976 0.094195 0.755000 10124932
0.169648 0.098901 0.758000 9994371
0.169648 0.103232 0.758000 10322055
0.170319 0.107990 0.761000 10322821
0.170319 0.112338 0.761000 10454152
0.170767 0.116993 0.763000 10454408
0.171662 0.121990 0.767000 10651532
0.172333 0.126867 0.770000 10586253
0.172781 0.131608 0.772000 10717070
0.173005 0.136195 0.773000 10848656
0.173900 0.141340 0.777000 10980499
0.170640 0.072720 0.756000 12165597
0.168834 0.076225 0.748000 10716583
0.168157 0.080176 0.745000 9793398
0.169963 0.085340 0.753000 9993348
0.170414 0.089881 0.755000 10059650
0.169737 0.093821 0.752000 10190469
0.170414 0.098510 0.755000 10125445
0.170414 0.102824 0.755000 10322312
0.171091 0.107564 0.758000 10388613
0.171091 0.111895 0.758000 10454153
0.171543 0.116533 0.760000 10520201
0.172220 0.121353 0.763000 10651533
0.173123 0.126372 0.767000 10717837
0.173349 0.130926 0.768000 10783120
0.174251 0.136019 0.772000 10914704
0.174929 0.140976 0.775000 11046292
0.175380 0.145780 0.777000 11046550
0.172080 0.072720 0.756000 14669036
0.170259 0.076225 0.748000 11648723
0.169576 0.080176 0.745000 9602219
0.171397 0.085340 0.753000 9862014
0.171170 0.089524 0.752000 10125187
0.170259 0.093322 0.748000 10256263
0.171170 0.098118 0.752000 10256773
0.171397 0.102551 0.753000 10387850
0.172080 0.107280 0.756000 10454406
0.172080 0.111600 0.756000 10519691
0.172990 0.116533 0.760000 10520459
0.173218 0.121035 0.761000 10717327
0.174129 0.126043 0.765000 10783375
0.174584 0.130755 0.767000 10848913
0.174811 0.135314 0.768000 10915217
0.175950 0.140612 0.773000 11112086
0.176405 0.145405 0.775000 11112344
0.173979 0.068581 0.758000 14606841
0.173520 0.072720 0.756000 14346235
0.172143 0.076429 0.750000 13097470
0.170995 0.080176 0.745000 12036064
0.170995 0.084433 0.745000 9993847
0.170995 0.088690 0.745000 10190724
0.170995 0.092948 0.745000 10322056
0.171684 0.097596 0.748000 10322566
0.172143 0.102143 0.750000 10453900
0.172831 0.106854 0.753000 10585735
0.173290 0.111452 0.755000 10585741
0.173979 0.116227 0.758000 10586253
0.174438 0.120876 0.760000 10717584
0.175127 0.125713 0.763000 10849168
0.175586 0.130414 0.765000 10914962
0.176045 0.135138 0.767000 11046290
0.177192 0.140430 0.772000 11112088
0.177422 0.145030 0.773000 11243418
0.177881 0.149833 0.775000 11309980
0.175423 0.068581 0.758000 14075888
0.174960 0.072720 0.756000 13943531
0.173109 0.076225 0.748000 14533347
0.171720 0.079853 0.742000 14398938
0.171951 0.084207 0.743000 10194361
0.171951 0.088452 0.743000 10190217
0.171951 0.092698 0.743000 10387849
0.172414 0.097205 0.745000 10388360
0.173109 0.101870 0.748000 10519691
0.174034 0.106712 0.752000 10651272
0.174729 0.111452 0.755000 10651789
0.174960 0.115920 0.756000 10652046
0.175423 0.120558 0.758000 10783377
0.176117 0.125384 0.761000 10849681
0.176580 0.130073 0.763000 10981012
0.177043 0.134786 0.765000 11112085
0.178200 0.140067 0.770000 11178136
0.178894 0.145030 0.773000 11309468
0.179200 0.060709 0.768000 15725054
0.176867 0.068581 0.758000 13813734
0.176167 0.072624 0.755000 13086938
0.175000 0.076429 0.750000 12625352
0.173133 0.079853 0.742000 12960725
0.173133 0.084093 0.742000 11973370
0.172667 0.088095 0.740000 9927565
0.173133 0.092573 0.742000 10388106
0.173367 0.096944 0.743000 10454153
0.173833 0.101462 0.745000 10585481
0.175000 0.106429 0.750000 10651273
0.175700 0.111157 0.753000 10717581
0.176167 0.115767 0.755000 10717839
0.176400 0.120240 0.756000 10849170
0.177333 0.125219 0.760000 10915475
0.178033 0.130073 0.763000 11046549
0.178033 0.134433 0.763000 11177879
0.179200 0.139703 0.768000 11244184
0.180133 0.144842 0.772000 11375261
0.180833 0.149833 0.775000 11507613
0.180663 0.056320 0.768000 16048876
0.180663 0.060709 0.768000 15590646
0.180663 0.065097 0.768000 14078956
0.177840 0.068400 0.756000 13552873
0.177605 0.072624 0.755000 12169944
0.176429 0.076429 0.750000 10722246
0.174547 0.079853 0.742000 11510727
0.174076 0.083867 0.740000 13680086
0.173841 0.087976 0.739000 9670064
0.174076 0.092324 0.740000 10453384
0.174547 0.096813 0.742000 10454154
0.174547 0.101053 0.742000 10585483
0.175958 0.106145 0.748000 10651530
0.176429 0.110714 0.750000 10783118
0.177134 0.115460 0.753000 10783376
0.177605 0.120081 0.755000 10914963
0.177840 0.124560 0.756000 10981013
0.179016 0.129732 0.761000 11112599
0.179487 0.134433 0.763000 11178393
0.180663 0.139703 0.768000 11310234
0.181133 0.144467 0.770000 11441823
0.182310 0.149833 0.775000 11573664
0.182600 0.056467 0.770000 16317691
0.182600 0.060867 0.770000 15130606
0.182600 0.065267 0.770000 14144495
0.183311 0.069938 0.773000 13420267
0.179043 0.072624 0.755000 12036565
0.188529 0.081014 0.795000 10591172
0.175960 0.079853 0.742000 10587577
0.174774 0.083527 0.737000 12363953
0.174774 0.087738 0.737000 11640787
0.175249 0.092199 0.739000 10387333
0.175486 0.096552 0.740000 10519691
0.175486 0.100781 0.740000 10651277
0.176197 0.105435 0.743000 10717068
0.177383 0.110419 0.748000 10848910
0.178331 0.115307 0.752000 10914706
0.178569 0.119763 0.753000 11046291
0.179043 0.124395 0.755000 11046807
0.180466 0.129732 0.761000 11178649
0.180940 0.134433 0.763000 11309979
0.182126 0.139703 0.768000 11376283
0.182600 0.144467 0.770000 11573410
0.183074 0.149253 0.772000 11704995
0.184067 0.056467 0.770000 16578042
0.184067 0.060867 0.770000 14736110
0.184545 0.065436 0.772000 14210032
0.184784 0.069938 0.773000 13289190
0.188609 0.075894 0.789000 11840466
0.190521 0.081218 0.797000 10525634
0.191238 0.086095 0.800000 9670325
0.176178 0.083527 0.737000 10978727
0.176178 0.087738 0.737000 13546438
0.176178 0.091950 0.737000 10320793
0.176656 0.096422 0.739000 10585482
0.176895 0.100781 0.740000 10717070
0.177612 0.105435 0.743000 10783118
0.178569 0.110271 0.747000 10914449
0.179286 0.115000 0.750000 10980499
0.179286 0.119286 0.750000 11112085
0.180481 0.124395 0.755000 11112856
0.181676 0.129562 0.760000 11244698
0.181915 0.134081 0.761000 11376029
0.183350 0.139521 0.767000 11508126
0.184067 0.144467 0.770000 11639204
0.184067 0.148867 0.770000 11836840
0.185533 0.056467 0.770000 16116472
0.186015 0.061025 0.772000 14670317
0.186256 0.065521 0.773000 14209009
0.187220 0.070300 0.777000 13025249
0.190593 0.076087 0.791000 11445455
0.192280 0.081320 0.798000 10393791
0.193726 0.086526 0.804000 9669810
0.177582 0.087738 0.737000 12895673
0.177582 0.091950 0.737000 11178668
0.177582 0.096161 0.737000 10585737
0.178064 0.100645 0.739000 10717582
0.178787 0.105293 0.742000 10848912
0.179510 0.109976 0.745000 10914708
0.180232 0.114693 0.748000 11046036
0.180714 0.119286 0.750000 11112342
0.181196 0.123901 0.752000 11244185
0.182642 0.129221 0.758000 11310491
0.183365 0.134081 0.761000 11507104
0.184329 0.139157 0.765000 11639456
0.185051 0.144091 0.768000 11770534
0.185533 0.148867 0.770000 11968429
0.187000 0.056467 0.770000 15591669
0.187486 0.061025 0.772000 14604270
0.188214 0.065690 0.775000 14143470
0.191371 0.071295 0.788000 12696285
0.192586 0.076279 0.793000 11052235
0.193800 0.081320 0.798000 10327997
0.195257 0.086526 0.804000 9604014
0.197200 0.092027 0.812000 8814237
0.178743 0.091825 0.736000 12103882
0.178743 0.096030 0.736000 10585487
0.178986 0.100372 0.737000 10783119
0.179714 0.105010 0.740000 10849171
0.180443 0.109681 0.743000 10980756
0.181414 0.114540 0.747000 11112342
0.181657 0.118968 0.748000 11177879
0.182143 0.123571 0.750000 11310235
0.183600 0.128880 0.756000 11441824
0.184086 0.133552 0.758000 11638691
0.185786 0.139157 0.765000 11770789
0.186514 0.144091 0.768000 11902378
0.186514 0.148480 0.768000 12100017
0.189201 0.052270 0.773000 15658238
0.188956 0.056613 0.772000 15261170
0.189201 0.061104 0.773000 14538991
0.190180 0.065860 0.777000 14011627
0.192872 0.071295 0.788000 12432857
0.194586 0.076471 0.795000 10985672
0.195320 0.081320 0.798000 10196410
0.196789 0.086526 0.804000 9472938
0.198747 0.092027 0.812000 8945821
0.200460 0.097500 0.819000 10056065
0.179166 0.091326 0.732000 12432872
0.180145 0.096030 0.736000 10454164
0.180390 0.100372 0.737000 10783376
0.180879 0.104868 0.739000 10914710
0.181858 0.109681 0.743000 11046803
0.181858 0.113927 0.743000 11178647
0.183082 0.118968 0.748000 11243928
0.183571 0.123571 0.750000 11376030
0.184795 0.128710 0.755000 11573156
0.185530 0.133552 0.758000 11770022
0.186264 0.138430 0.761000 11902377
0.186753 0.143153 0.763000 12034223
0.187977 0.148480 0.768000 12231605
0.188956 0.153665 0.772000 12428728
0.191167 0.052405 0.775000 16121598
0.190673 0.056687 0.773000 14868208
0.191167 0.061262 0.775000 14540015
0.192153 0.066030 0.779000 13880298
0.194620 0.071386 0.789000 12170965
0.196100 0.076471 0.795000 10919620
0.196840 0.081320 0.798000 10065080
0.198813 0.086741 0.806000 9341094
0.200293 0.092027 0.812000 9076890
0.201527 0.097262 0.817000 7960711
0.180313 0.091201 0.731000 12829105
0.180560 0.095509 0.732000 10326946
0.181547 0.100236 0.736000 10848915
0.181793 0.104584 0.737000 10980503
0.182533 0.109238 0.740000 11178133
0.183767 0.114233 0.745000 11244185
0.184507 0.118968 0.748000 11375514
0.184507 0.123242 0.748000 11442080
0.186233 0.128710 0.755000 11638953
0.186973 0.133552 0.758000 11836330
0.187713 0.138430 0.761000 12033966
0.188207 0.143153 0.763000 12166065
0.189193 0.148287 0.767000 12363191
0.189933 0.153267 0.770000 12495291
0.192643 0.052405 0.775000 16119806
0.192146 0.056687 0.773000 14736367
0.192643 0.061262 0.775000 14407151
0.194383 0.066284 0.782000 13551594
0.196123 0.071386 0.789000 11906513
0.197614 0.076471 0.795000 10788032
0.198857 0.081524 0.800000 9998261
0.200846 0.086956 0.808000 9340835
0.201840 0.092027 0.812000 9076886
0.203083 0.097262 0.817000 8420236
0.181706 0.091201 0.731000 11772026
0.181706 0.095378 0.731000 11442865
0.181954 0.099691 0.732000 10914198
0.183197 0.104584 0.737000 11046552
0.183694 0.109090 0.739000 11178390
0.184689 0.113927 0.743000 11375771
0.185683 0.118809 0.747000 11441308
0.186429 0.123571 0.750000 11639203
0.186429 0.127857 0.750000 11770541
0.187920 0.133200 0.756000 11967663
0.188417 0.137884 0.758000 12165555
0.189163 0.142778 0.761000 12363188
0.190157 0.147900 0.765000 12495033
0.191400 0.153267 0.770000 12626622
0.194119 0.052405 0.775000 16121598
0.194119 0.056833 0.775000 14605295
0.194620 0.061420 0.777000 14340592
0.196874 0.066623 0.786000 13222887
0.198127 0.071567 0.791000 11644367
0.199630 0.076664 0.797000 10591164
0.200381 0.081524 0.800000 9866164
0.202385 0.086956 0.808000 9274529
0.203387 0.092027 0.812000 9076629
0.204138 0.097024 0.815000 8879757
0.205641 0.102430 0.821000 10648695
0.183098 0.095378 0.731000 12497336
0.183098 0.099555 0.731000 10914195
0.184350 0.104442 0.736000 11112601
0.185102 0.109090 0.739000 11178905
0.185853 0.113773 0.742000 11441310
0.186104 0.118172 0.743000 11507615
0.187106 0.123077 0.747000 11770790
0.187857 0.127857 0.750000 11901873
0.189110 0.133024 0.755000 12099761
0.189861 0.137884 0.758000 12297397
0.190612 0.142778 0.761000 12494776
0.191614 0.147900 0.765000 12626877
0.192867 0.153267 0.770000 12758209
0.196100 0.048100 0.777000 14263749
0.195595 0.052405 0.775000 15922686
0.195595 0.056833 0.775000 14604015
0.196100 0.061420 0.777000 14143472
0.198371 0.066623 0.786000 12958692
0.199633 0.071567 0.791000 11446221
0.201148 0.076664 0.797000 10459064
0.201905 0.081524 0.800000 9800882
0.203924 0.086956 0.808000 9273503
0.205438 0.092253 0.814000 9011091
0.206195 0.097262 0.817000 8814735
0.207710 0.102679 0.823000 9665651
0.184490 0.099555 0.731000 10980751
0.185248 0.104158 0.734000 11178395
0.186005 0.108795 0.737000 11310236
0.186762 0.113467 0.740000 11572641
0.187267 0.118013 0.742000 11639457
0.188781 0.123242 0.748000 11836585
0.188781 0.127516 0.748000 12033716
0.190548 0.133024 0.755000 12231604
0.190800 0.137520 0.756000 12363447
0.192062 0.142778 0.761000 12561083
0.192567 0.147513 0.763000 12692672
0.193829 0.152869 0.768000 12889796
0.197580 0.048100 0.777000 14532557
0.197071 0.052405 0.775000 15791867
0.197580 0.056980 0.777000 14538734
0.198343 0.061657 0.780000 13946351
0.200377 0.066792 0.788000 12696287
0.201140 0.071567 0.791000 11184583
0.202666 0.076664 0.797000 10327735
0.203937 0.081728 0.802000 9669293
0.205971 0.087171 0.810000 9274014
0.206989 0.092253 0.814000 9010834
0.207751 0.097262 0.817000 8683407
0.209277 0.102679 0.823000 8747391
0.185374 0.099283 0.729000 11047323
0.186137 0.103874 0.732000 11244447
0.187154 0.108648 0.736000 11376032
0.187409 0.113007 0.737000 11639204
0.188680 0.118013 0.742000 11771046
0.189443 0.122748 0.745000 11902892
0.190206 0.127516 0.748000 12165813
0.191477 0.132671 0.753000 12363191
0.192240 0.137520 0.756000 12495036
0.193511 0.142778 0.761000 12627135
0.194020 0.147513 0.763000 12824004
0.195291 0.152869 0.768000 12955847
0.199060 0.052540 0.777000 15657975
0.199572 0.057127 0.779000 14407405
0.199829 0.061657 0.780000 13814509
0.201878 0.066792 0.788000 12497882
0.203159 0.071748 0.793000 11051713
0.204184 0.076664 0.797000 10261431
0.204952 0.081524 0.800000 9603752
0.207514 0.087171 0.810000 9274269
0.208539 0.092253 0.814000 9010833
0.209308 0.097262 0.817000 8814479
0.210845 0.102679 0.823000 8747914
0.187275 0.099555 0.731000 11771815
0.187275 0.103732 0.731000 11376035
0.188556 0.108648 0.736000 11507876
0.188812 0.113007 0.737000 11770792
0.189581 0.117695 0.740000 11902634
0.190350 0.122418 0.743000 12100271
0.191630 0.127516 0.748000 12297398
0.192911 0.132671 0.753000 12494779
0.193680 0.137520 0.756000 12561088
0.194705 0.142590 0.760000 12758722
0.195473 0.147513 0.763000 12955847
0.196754 0.152869 0.768000 13087434
0.200540 0.052540 0.777000 15589619
0.201056 0.057127 0.779000 14275308
0.201830 0.061815 0.782000 13683948
0.203379 0.066792 0.788000 12301015
0.204670 0.071748 0.793000 10854845
0.205702 0.076664 0.797000 10129845
0.206992 0.081728 0.802000 9603239
0.209057 0.087171 0.810000 9208474
0.210090 0.092253 0.814000 9010577
0.210864 0.097262 0.817000 8945552
0.212412 0.102679 0.823000 8814477
0.188668 0.099555 0.731000 12495306
0.188668 0.103732 0.731000 11441825
0.189442 0.108352 0.734000 11704999
0.190216 0.113007 0.737000 11836587
0.190732 0.117536 0.739000 12099760
0.191765 0.122418 0.743000 12231859
0.192797 0.127346 0.747000 12428984
0.193571 0.132143 0.750000 12560828
0.195120 0.137520 0.756000 12692929
0.195636 0.142215 0.758000 12890308
0.196410 0.147127 0.761000 13022154
0.197959 0.152670 0.767000 13153741
0.202020 0.052540 0.777000 15458543
0.202540 0.057127 0.779000 14077163
0.203320 0.061815 0.782000 13420266
0.204880 0.066792 0.788000 12102357
0.206180 0.071748 0.793000 10788281
0.207220 0.076664 0.797000 10063539
0.208000 0.081524 0.800000 9537445
0.210080 0.086956 0.808000 9208216
0.211640 0.092253 0.814000 8945296
0.211900 0.097024 0.815000 8880016
0.213980 0.102679 0.823000 8813967
0.189540 0.099283 0.729000 12758765
0.189540 0.103449 0.729000 11638944
0.190840 0.108352 0.734000 11836329
0.191360 0.112853 0.736000 11967919
0.192140 0.117536 0.739000 12165813
0.193180 0.122418 0.743000 12363191
0.193700 0.127005 0.745000 12429753
0.194480 0.131790 0.748000 12692414
0.196300 0.137338 0.755000 12824770
0.197080 0.142215 0.758000 13022151
0.197860 0.147127 0.761000 13153740
0.199420 0.152670 0.767000 13285584
0.203500 0.052540 0.777000 15325424
0.204024 0.057127 0.779000 13815786
0.205333 0.061973 0.784000 13223656
0.206381 0.066792 0.788000 11906001
0.208214 0.071929 0.795000 10657207
0.209000 0.076760 0.798000 9998256
0.210048 0.081728 0.802000 9471650
0.212143 0.087171 0.810000 9142678
0.213190 0.092253 0.814000 8814224
0.213452 0.097024 0.815000 8814478
0.215024 0.102430 0.821000 8813966
0.190929 0.099283 0.729000 13085920
0.190929 0.103449 0.729000 11770026
0.191714 0.108057 0.732000 11967917
0.192762 0.112853 0.736000 12034226
0.193548 0.117536 0.739000 12297399
0.194333 0.122253 0.742000 12429498
0.195119 0.127005 0.745000 12496316
0.195905 0.131790 0.748000 12758721
0.197738 0.137338 0.755000 12956614
0.198524 0.142215 0.758000 13153993
0.199310 0.147127 0.761000 13219791
0.200881 0.152670 0.767000 13351635
0.204980 0.052540 0.777000 15063792
0.205508 0.057127 0.779000 13749737
0.206827 0.061973 0.784000 13025510
0.208146 0.066877 0.789000 11642316
0.209201 0.071748 0.793000 10590645
0.210520 0.076760 0.798000 9932718
0.211575 0.081728 0.802000 9406367
0.213158 0.086956 0.808000 9142677
0.214741 0.092253 0.814000 8880015
0.215532 0.097262 0.817000 8880013
0.216588 0.102430 0.821000 8879756
0.192317 0.099283 0.729000 12758227
0.192317 0.103449 0.729000 11770037
0.192845 0.107910 0.731000 12099760
0.193636 0.112547 0.734000 12165813
0.194428 0.117218 0.737000 12363705
0.195219 0.121924 0.740000 12496317
0.196538 0.127005 0.745000 12627647
0.197330 0.131790 0.748000 12824515
0.198385 0.136792 0.752000 13022409
0.199968 0.142215 0.758000 13220300
0.200759 0.147127 0.761000 13351377
0.202342 0.152670 0.767000 13483222
0.206460 0.052540 0.777000 14801137
0.206991 0.057127 0.779000 13682918
0.208320 0.061973 0.784000 12829155
0.209649 0.066877 0.789000 11315145
0.210711 0.071748 0.793000 10524341
0.211774 0.076664 0.797000 9866668
0.213103 0.081728 0.802000 9340829
0.214697 0.086956 0.808000 9077141
0.215760 0.092027 0.812000 8879760
0.216557 0.097024 0.815000 8945294
0.218151 0.102430 0.821000 8879756
0.193440 0.103307 0.728000 11772606
0.194237 0.107910 0.731000 12231605
0.195034 0.112547 0.734000 12297656
0.195831 0.117218 0.737000 12430012
0.197160 0.122253 0.742000 12561856
0.197957 0.127005 0.745000 12759235
0.198754 0.131790 0.748000 12890566
0.199286 0.136429 0.750000 13154252
0.201411 0.142215 0.758000 13286094
0.202209 0.147127 0.761000 13417428
0.203803 0.152670 0.767000 13615065
0.207940 0.052540 0.777000 14670065
0.208475 0.057127 0.779000 13550564
0.209813 0.061973 0.784000 12761824
0.211151 0.066877 0.789000 11182789
0.212222 0.071748 0.793000 10458548
0.213292 0.076664 0.797000 9801131
0.214095 0.081524 0.800000 9340570
0.216236 0.086956 0.808000 9142933
0.217307 0.092027 0.812000 8945297
0.218110 0.097024 0.815000 8945040
0.219715 0.102430 0.821000 8879756
0.194827 0.103307 0.728000 12034503
0.195630 0.107910 0.731000 12297401
0.195630 0.112087 0.731000 12429754
0.196968 0.117059 0.736000 12561599
0.197770 0.121759 0.739000 12693443
0.198841 0.126664 0.743000 12890823
0.200179 0.131790 0.748000 13022153
0.200714 0.136429 0.750000 13285839
0.202855 0.142215 0.758000 13417424
0.203658 0.147127 0.761000 13549270
0.205264 0.152670 0.767000 13811933
0.209420 0.052540 0.777000 14538225
0.209959 0.057127 0.779000 13419747
0.211307 0.061973 0.784000 12696533
0.212654 0.066877 0.789000 11051716
0.213193 0.071567 0.791000 10327218
0.214810 0.076664 0.797000 9735079
0.215619 0.081524 0.800000 9340057
0.217236 0.086741 0.806000 9142933
0.218853 0.092027 0.812000 9010833
0.219662 0.097024 0.815000 8879757
0.220740 0.102180 0.819000 8879757
0.221279 0.107121 0.821000 8617096
0.196213 0.103307 0.728000 12301255
0.197022 0.107910 0.731000 12428731
0.197022 0.112087 0.731000 12495550
0.198370 0.117059 0.736000 12627906
0.199178 0.121759 0.739000 12759749
0.199987 0.126493 0.742000 13022666
0.201604 0.131790 0.748000 13154253
0.202143 0.136429 0.750000 13416914
0.203760 0.141840 0.756000 13483476
0.205108 0.147127 0.761000 13681111
0.206725 0.152670 0.767000 13944031
0.210900 0.052540 0.777000 14406385
0.211443 0.057127 0.779000 13222115
0.212800 0.061973 0.784000 12498122
0.214157 0.066877 0.789000 10919362
0.214700 0.071567 0.791000 10260912
0.216329 0.076664 0.797000 9735075
0.217143 0.081524 0.800000 9340056
0.218771 0.086741 0.806000 9077142
0.219857 0.091800 0.810000 9010833
0.220943 0.096905 0.814000 8880010
0.222300 0.102180 0.819000 8879501
0.222843 0.107121 0.821000 8682633
0.197600 0.103307 0.728000 13285832
0.197600 0.107467 0.728000 12494781
0.198414 0.112087 0.731000 12627138
0.199229 0.116741 0.734000 12759236
0.200586 0.121759 0.739000 12956871
0.201671 0.126664 0.743000 13088716
0.203029 0.131790 0.748000 13285841
0.203571 0.136429 0.750000 13483221
0.205200 0.141840 0.756000 13614809
0.206557 0.147127 0.761000 13812951
0.208186 0.152670 0.767000 14075874
0.212380 0.052540 0.777000 14273777
0.212927 0.057127 0.779000 13025503
0.214293 0.061973 0.784000 12301000
0.215660 0.066877 0.789000 10723264
0.216207 0.071567 0.791000 10194863
0.217300 0.076471 0.795000 9669282
0.218667 0.081524 0.800000 9340056
0.219760 0.086526 0.804000 9011607
0.220853 0.091573 0.808000 9010835
0.222493 0.096905 0.814000 8814478
0.222767 0.101681 0.815000 8879245
0.223860 0.106860 0.819000 8748170
0.198440 0.103023 0.726000 14206144
0.198987 0.107467 0.728000 12560573
0.199260 0.111780 0.729000 12693444
0.200080 0.116423 0.732000 12825033
0.201447 0.121430 0.737000 13088203
0.203087 0.126664 0.743000 13220303
0.204453 0.131790 0.748000 13352147
0.205000 0.136429 0.750000 13614809
0.206640 0.141840 0.756000 13747164
0.208007 0.147127 0.761000 13944801
0.209647 0.152670 0.767000 14142182
0.213310 0.052405 0.775000 14209265
0.214410 0.057127 0.779000 12958940
0.215787 0.061973 0.784000 12234438
0.217163 0.066877 0.789000 10657213
0.217713 0.071567 0.791000 10063790
0.218814 0.076471 0.795000 9669025
0.219640 0.081320 0.798000 9274519
0.221291 0.086526 0.804000 9077144
0.222392 0.091573 0.808000 8945300
0.223493 0.096667 0.812000 8814481
0.224319 0.101681 0.815000 8813709
0.225420 0.106860 0.819000 8748171
0.199548 0.102881 0.725000 14602937
0.200373 0.107467 0.728000 12626621
0.200649 0.111780 0.729000 12890822
0.201474 0.116423 0.732000 12956877
0.202850 0.121430 0.737000 13154255
0.204502 0.126664 0.743000 13351633
0.205603 0.131614 0.747000 13550037
0.206429 0.136429 0.750000 13746653
0.208080 0.141840 0.756000 13879008
0.210007 0.147513 0.763000 14076651
0.211108 0.152670 0.767000 14339306
0.214786 0.052405 0.775000 14145264
0.215894 0.057127 0.779000 12893912
0.216726 0.061815 0.782000 12103112
0.218666 0.066877 0.789000 10526140
0.219220 0.071567 0.791000 9997740
0.220329 0.076471 0.795000 9603232
0.221160 0.081320 0.798000 9274520
0.222823 0.086526 0.804000 9077142
0.223931 0.091573 0.808000 8945299
0.225040 0.096667 0.812000 8814478
0.225594 0.101556 0.814000 8813709
0.226980 0.106860 0.819000 8748171
0.200929 0.102881 0.725000 14928054
0.201206 0.107171 0.726000 12757954
0.201760 0.111627 0.728000 13022410
0.202869 0.116423 0.732000 13088719
0.204254 0.121430 0.737000 13220306
0.205917 0.126664 0.743000 13483221
0.207026 0.131614 0.747000 13681368
0.207857 0.136429 0.750000 13878495
0.209520 0.141840 0.756000 14010851
0.210906 0.147127 0.761000 14273772
0.212569 0.152670 0.767000 14470891
0.216262 0.052405 0.775000 14013166
0.217378 0.057127 0.779000 12762324
0.218215 0.061815 0.782000 11905737
0.220169 0.066877 0.789000 10655931
0.220727 0.071567 0.791000 9932713
0.221285 0.076279 0.793000 9537695
0.222401 0.081218 0.797000 9274264
0.223796 0.086310 0.802000 9142933
0.224912 0.091347 0.806000 8945553
0.226587 0.096667 0.812000 8748940
0.227145 0.101556 0.814000 8813709
0.227982 0.106599 0.817000 8682380
0.202310 0.102881 0.725000 14670004
0.202589 0.107171 0.726000 12955846
0.203147 0.111627 0.728000 13154253
0.204263 0.116423 0.732000 13220304
0.205658 0.121430 0.737000 13352149
0.207053 0.126493 0.742000 13615064
0.207890 0.131262 0.745000 13812699
0.208728 0.136065 0.748000 14010080
0.210960 0.141840 0.756000 14142693
0.212355 0.147127 0.761000 14405356
0.214030 0.152670 0.767000 14536940
0.217738 0.052405 0.775000 13948657
0.218862 0.057127 0.779000 12630484
0.219705 0.061815 0.782000 11774660
0.220829 0.066623 0.786000 10786745
0.221671 0.071386 0.789000 9932967
0.222795 0.076279 0.793000 9471901
0.223919 0.081218 0.797000 9274008
0.225324 0.086310 0.802000 9142932
0.226448 0.091347 0.806000 8945297
0.227571 0.096429 0.810000 8683149
0.228695 0.101556 0.814000 8813710
0.228976 0.106338 0.815000 8616845
0.203129 0.102597 0.723000 14400432
0.203971 0.107171 0.726000 13153228
0.204814 0.111780 0.729000 13220048
0.205657 0.116423 0.732000 13352148
0.207062 0.121430 0.737000 13483736
0.208748 0.126664 0.743000 13746907
0.209871 0.131614 0.747000 13878751
0.210714 0.136429 0.750000 14141668
0.212400 0.141840 0.756000 14274535
0.213805 0.147127 0.761000 14537197
0.215490 0.152670 0.767000 14602989
0.219214 0.052405 0.775000 14013428
0.219780 0.056980 0.777000 12433364
0.220629 0.061657 0.780000 11708095
0.222326 0.066623 0.786000 10720439
0.223174 0.071386 0.789000 9932453
0.224306 0.076279 0.793000 9406364
0.225437 0.081218 0.797000 9274264
0.226851 0.086310 0.802000 9142932
0.227417 0.091120 0.804000 8945553
0.229114 0.096429 0.810000 8683407
0.229680 0.101307 0.812000 8747918
0.230529 0.106338 0.815000 8617102
0.204506 0.102597 0.723000 13809580
0.205354 0.107171 0.726000 13416657
0.205920 0.111627 0.728000 13417171
0.206769 0.116264 0.731000 13483223
0.208466 0.121430 0.737000 13680603
0.210163 0.126664 0.743000 13878493
0.211577 0.131790 0.748000 14075620
0.212143 0.136429 0.750000 14273767
0.213840 0.141840 0.756000 14406122
0.215254 0.147127 0.761000 14668781
0.216951 0.152670 0.767000 14668782
0.220690 0.052405 0.775000 14015479
0.221260 0.056980 0.777000 12235729
0.222114 0.061657 0.780000 11642559
0.223253 0.066453 0.784000 10589877
0.224677 0.071386 0.789000 9932197
0.225247 0.076087 0.791000 9340828
0.226955 0.081218 0.797000 9208728
0.228379 0.086310 0.802000 9077140
0.228949 0.091120 0.804000 8945553
0.229518 0.095952 0.806000 8683151
0.231227 0.101307 0.812000 8682126
0.231796 0.106208 0.814000 8551054
0.232650 0.111268 0.817000 8092041
0.205598 0.102455 0.722000 13215660
0.206452 0.107024 0.725000 13679058
0.206737 0.111320 0.726000 13548757
0.207591 0.115946 0.729000 13614554
0.209585 0.121265 0.736000 13812702
0.211293 0.126493 0.742000 14010082
0.212717 0.131614 0.747000 14208230
0.213002 0.136065 0.748000 14405867
0.214995 0.141652 0.755000 14537451
0.217273 0.147513 0.763000 14800110
0.218697 0.152869 0.768000 14734573
0.221593 0.052270 0.773000 14277113
0.222167 0.056833 0.775000 12102862
0.223313 0.061578 0.779000 11511487
0.224173 0.066284 0.782000 10589620
0.225893 0.071295 0.788000 9866661
0.226180 0.075894 0.789000 9341083
0.226753 0.080607 0.791000 9208727
0.228473 0.085772 0.797000 9077141
0.229907 0.090893 0.802000 8880017
0.231053 0.095952 0.806000 8682639
0.232200 0.101057 0.810000 8682125
0.233347 0.106208 0.814000 8616589
0.233633 0.110995 0.815000 8156550
0.206973 0.102455 0.722000 12361643
0.207833 0.107024 0.725000 13877715
0.208120 0.111320 0.726000 13680343
0.209553 0.116264 0.731000 13746652
0.210987 0.121265 0.736000 13944289
0.212707 0.126493 0.742000 14141927
0.214140 0.131614 0.747000 14339817
0.214427 0.136065 0.748000 14537454
0.216433 0.141652 0.755000 14668781
0.218153 0.147127 0.761000 14800367
0.219873 0.152670 0.767000 14800109
0.223066 0.052270 0.773000 14544633
0.223643 0.056833 0.775000 11906510
0.224797 0.061578 0.779000 11446460
0.225663 0.066284 0.782000 10524083
0.226817 0.071114 0.786000 9866405
0.227394 0.075798 0.788000 9275547
0.227683 0.080403 0.789000 9208471
0.229991 0.085772 0.797000 9011604
0.229991 0.090327 0.797000 8879506
0.230857 0.095238 0.800000 8682638
0.232589 0.100558 0.806000 8616333
0.233743 0.105686 0.810000 8616333
0.234320 0.110587 0.812000 8223368
0.208637 0.102597 0.723000 11441575
0.209214 0.107024 0.725000 14074588
0.209503 0.111320 0.726000 13812187
0.210946 0.116264 0.731000 13878750
0.212389 0.121265 0.736000 14076388
0.214120 0.126493 0.742000 14339305
0.215563 0.131614 0.747000 14471404
0.215851 0.136065 0.748000 14668783
0.218160 0.141840 0.756000 14734829
0.219603 0.147127 0.761000 14865905
0.221623 0.152869 0.768000 14865899
0.224538 0.052270 0.773000 14540793
0.225119 0.056833 0.775000 11773901
0.226281 0.061578 0.779000 11379641
0.226571 0.066114 0.780000 10524338
0.228314 0.071114 0.786000 9866661
0.228895 0.075798 0.788000 9340828
0.229186 0.080403 0.789000 9208471
0.230929 0.085557 0.795000 9011860
0.231510 0.090327 0.797000 8879506
0.232381 0.095238 0.800000 8682638
0.234124 0.100558 0.806000 8616589
0.235286 0.105686 0.810000 8550541
0.235286 0.110314 0.810000 8222602
0.210014 0.102597 0.723000 10977956
0.210595 0.107024 0.725000 14272997
0.211467 0.111627 0.728000 13943774
0.211757 0.115946 0.729000 14010336
0.213790 0.121265 0.736000 14273767
0.215533 0.126493 0.742000 14471147
0.216986 0.131614 0.747000 14668526
0.217857 0.136429 0.750000 14734831
0.219600 0.141840 0.756000 14866413
0.221052 0.147127 0.761000 14931442
0.223086 0.152869 0.768000 14865642
0.226595 0.056833 0.775000 11643856
0.227765 0.061578 0.779000 11313594
0.228057 0.066114 0.780000 10524336
0.229227 0.070933 0.784000 9931942
0.230396 0.075798 0.788000 9406107
0.230689 0.080403 0.789000 9207959
0.231858 0.085342 0.793000 9011604
0.232443 0.090100 0.795000 8879764
0.233320 0.095000 0.798000 8682638
0.234490 0.100059 0.802000 8551052
0.235659 0.105164 0.806000 8419212
0.235659 0.109770 0.806000 8288906
0.211391 0.102597 0.723000 10455199
0.211976 0.107024 0.725000 14470117
0.212269 0.111320 0.726000 14009825
0.213146 0.115946 0.729000 14207458
0.215192 0.121265 0.736000 14405353
0.216947 0.126493 0.742000 14602989
0.218409 0.131614 0.747000 14800111
0.219870 0.136792 0.752000 14866416
0.221040 0.141840 0.756000 14931949
0.223671 0.147900 0.765000 14931182
0.224549 0.152869 0.768000 14865385
0.228071 0.056833 0.775000 11839188
0.228660 0.061420 0.777000 11182010
0.229543 0.066114 0.780000 10524847
0.230131 0.070752 0.782000 9931943
0.231309 0.075606 0.786000 9471387
0.232191 0.080403 0.789000 9208470
0.233369 0.085342 0.793000 9011860
0.233957 0.090100 0.795000 8814229
0.234546 0.094881 0.797000 8747919
0.235429 0.099810 0.800000 8551306
0.236606 0.104903 0.804000 8484492
0.236606 0.109497 0.804000 8222601
0.237194 0.114375 0.806000 10054554
0.213357 0.107024 0.725000 14668261
0.213651 0.111320 0.726000 14141412
0.214534 0.115946 0.729000 14339299
0.216594 0.121265 0.736000 14537196
0.218360 0.126493 0.742000 14734319
0.219831 0.131614 0.747000 14865904
0.221303 0.136792 0.752000 14931697
0.222480 0.141840 0.756000 14997228
0.225717 0.148287 0.767000 14931177
0.229548 0.056833 0.775000 11973336
0.230140 0.061420 0.777000 10984886
0.231029 0.066114 0.780000 10458797
0.231621 0.070752 0.782000 9931687
0.232806 0.075606 0.786000 9537178
0.233398 0.080301 0.788000 9208471
0.234287 0.085127 0.791000 9011603
0.234879 0.089873 0.793000 8813972
0.235471 0.094643 0.795000 8747918
0.236360 0.099560 0.798000 8551307
0.236952 0.104381 0.800000 8484746
0.237545 0.109225 0.802000 8157323
0.238137 0.114091 0.804000 9666204
0.214738 0.107024 0.725000 14865128
0.215034 0.111320 0.726000 14273766
0.215923 0.115946 0.729000 14471145
0.218292 0.121430 0.737000 14668782
0.219773 0.126493 0.742000 14865647
0.221254 0.131614 0.747000 14865905
0.222735 0.136792 0.752000 15062511
0.223920 0.141840 0.756000 14997483
0.227178 0.148287 0.767000 14865385
0.231024 0.056833 0.775000 12301277
0.231620 0.061420 0.777000 10919090
0.232216 0.066030 0.779000 10458795
0.232514 0.070571 0.780000 9932199
0.234303 0.075606 0.786000 9602970
0.234899 0.080301 0.788000 9274264
0.235197 0.084911 0.789000 9011603
0.235793 0.089647 0.791000 8814226
0.236986 0.094643 0.795000 8747662
0.237582 0.099435 0.797000 8551307
0.237880 0.104120 0.798000 8353673
0.239072 0.109225 0.802000 8222092
0.239669 0.114091 0.804000 9659294
0.215523 0.106729 0.723000 14997739
0.216417 0.111320 0.726000 14405864
0.217311 0.115946 0.729000 14603247
0.219696 0.121430 0.737000 14734320
0.221187 0.126493 0.742000 14866159
0.222975 0.131790 0.748000 14931697
0.224466 0.136974 0.753000 14996972
0.225956 0.142215 0.758000 14931945
0.232500 0.056833 0.775000 12566493
0.232500 0.061262 0.775000 10853043
0.233100 0.065860 0.777000 10458794
0.234000 0.070571 0.780000 9932453
0.235200 0.075413 0.784000 9603227
0.235800 0.080097 0.786000 9274264
0.236400 0.084804 0.788000 9011603
0.236700 0.089420 0.789000 8814226
0.237300 0.094167 0.791000 8748174
0.238500 0.099186 0.795000 8551307
0.239100 0.103990 0.797000 8222858
0.240000 0.108952 0.800000 8222604
0.240600 0.113808 0.802000 9666205
0.216900 0.106729 0.723000 15064559
0.218400 0.111627 0.728000 14537195
0.219300 0.116264 0.731000 14735088
0.221100 0.121430 0.737000 14800624
0.222900 0.126664 0.743000 14931695
0.225000 0.132143 0.750000 14931951
0.226500 0.137338 0.755000 14931180
0.227400 0.142215 0.758000 14799331
0.234580 0.056980 0.777000 13223133
0.233976 0.061262 0.775000 10787763
0.233976 0.065690 0.775000 10459050
0.234580 0.070300 0.777000 9998242
0.235184 0.074932 0.779000 9668764
0.236693 0.079893 0.784000 9274519
0.237901 0.084804 0.788000 9011348
0.237901 0.089307 0.788000 8814225
0.238203 0.093929 0.789000 8748175
0.239410 0.098936 0.793000 8551050
0.240014 0.103729 0.795000 8288396
0.240618 0.108544 0.797000 8156555
0.241524 0.113524 0.800000 9857693
0.218277 0.106729 0.723000 15195379
0.219787 0.111627 0.728000 14668782
0.220692 0.116264 0.731000 14800880
0.222504 0.121430 0.737000 14866417
0.224315 0.126664 0.743000 14997231
0.227032 0.132495 0.752000 14932206
0.228240 0.137520 0.756000 14931435
0.228844 0.142215 0.758000 14665948
0.236060 0.056980 0.777000 13878995
0.235452 0.061262 0.775000 10787763
0.235452 0.065690 0.775000 10458280
0.235452 0.070119 0.775000 10129058
0.236060 0.074740 0.777000 9734301
0.236971 0.079486 0.780000 9340056
0.237579 0.084158 0.782000 9011348
0.238794 0.089080 0.786000 8879506
0.239402 0.093810 0.788000 8747921
0.240313 0.098687 0.791000 8550797
0.240921 0.103468 0.793000 8288396
0.241529 0.108271 0.795000 8091019
0.219350 0.102455 0.722000 10063013
0.219654 0.106729 0.723000 15325428
0.221173 0.111627 0.728000 14734832
0.222389 0.116423 0.732000 14866161
0.223908 0.121430 0.737000 14866417
0.226338 0.127005 0.745000 14996976
0.228465 0.132495 0.752000 14931691
0.229680 0.137520 0.756000 14997723
0.229680 0.141840 0.756000 14466759
0.236317 0.061104 0.773000 11116467
0.236317 0.065521 0.773000 10457767
0.236317 0.069938 0.773000 10194593
0.236929 0.074548 0.775000 9865630
0.238151 0.079384 0.779000 9406104
0.238457 0.083943 0.780000 9077141
0.239069 0.088627 0.782000 8879763
0.240291 0.093571 0.786000 8813460
0.240903 0.098312 0.788000 8550799
0.241820 0.103207 0.791000 8288652
0.241820 0.107727 0.791000 7959435
0.221031 0.102597 0.723000 10914220
0.221643 0.107024 0.725000 15326708
0.222560 0.111627 0.728000 14866417
0.223783 0.116423 0.732000 14997489
0.225923 0.121759 0.739000 14800881
0.228369 0.127346 0.747000 14931441
0.229897 0.132495 0.752000 14930921
0.231120 0.137520 0.756000 14598602
0.231120 0.141840 0.756000 14396594
0.237790 0.061104 0.773000 11446469
0.237790 0.065521 0.773000 10391716
0.237790 0.069938 0.773000 10259361
0.238405 0.074548 0.775000 9931422
0.239020 0.079180 0.777000 9471897
0.239943 0.083943 0.780000 9142935
0.240558 0.088627 0.782000 8945555
0.241173 0.093333 0.784000 8813457
0.241789 0.098063 0.786000 8616334
0.242404 0.102815 0.788000 8288651
0.242404 0.107318 0.788000 7894666
0.222409 0.102597 0.723000 11772080
0.222409 0.106729 0.723000 15391985
0.223947 0.111627 0.728000 14932209
0.225792 0.116741 0.734000 15063023
0.227638 0.121924 0.740000 14735342
0.229791 0.127346 0.747000 14930923
0.231330 0.132495 0.752000 14862808
0.232560 0.137520 0.756000 14197946
0.239881 0.061262 0.775000 11907799
0.238952 0.065436 0.772000 10457250
0.238952 0.069848 0.772000 10194081
0.239262 0.074355 0.773000 9997214
0.239881 0.078976 0.775000 9537434
0.241119 0.083835 0.779000 9208729
0.241429 0.088400 0.780000 8945554
0.242048 0.093095 0.782000 8813711
0.242667 0.097813 0.784000 8550796
0.243286 0.102554 0.786000 8353931
0.243286 0.107046 0.786000 7762569
0.223786 0.102597 0.723000 12823475
0.224405 0.107024 0.725000 15392237
0.225333 0.111627 0.728000 14932208
0.227810 0.117059 0.736000 14997485
0.229048 0.121924 0.740000 14801131
0.231524 0.127516 0.748000 14864356
0.232762 0.132495 0.752000 13939911
0.234000 0.137520 0.756000 13739177
0.240734 0.061104 0.773000 12369633
0.239800 0.065267 0.770000 10523564
0.240423 0.069848 0.772000 10194338
0.240734 0.074355 0.773000 9997215
0.241357 0.078976 0.775000 9602716
0.241980 0.083620 0.777000 9208729
0.242603 0.088287 0.779000 8945556
0.242914 0.092857 0.780000 8813711
0.243537 0.097564 0.782000 8551054
0.243537 0.102032 0.782000 8353676
0.244160 0.106773 0.784000 7632264
0.224851 0.102455 0.722000 13810629
0.225786 0.107024 0.725000 15457263
0.227031 0.111780 0.729000 14866671
0.229523 0.117218 0.737000 14865899
0.230457 0.121924 0.740000 14800106
0.232949 0.127516 0.748000 14863601
0.242207 0.061104 0.773000 13158122
0.240640 0.065097 0.768000 10391735
0.241267 0.069667 0.770000 10194595
0.241893 0.074259 0.772000 9997215
0.242207 0.078772 0.773000 9668510
0.242833 0.083405 0.775000 9340057
0.243460 0.088060 0.777000 9011350
0.244087 0.092738 0.779000 8813712
0.244400 0.097314 0.780000 8551055
0.244400 0.101771 0.780000 8419470
0.245027 0.106501 0.782000 7563399
0.226227 0.102455 0.722000 14737110
0.227167 0.107024 0.725000 15260400
0.228420 0.111780 0.729000 14932206
0.230613 0.117059 0.736000 14931433
0.231867 0.121924 0.740000 14864362
0.234060 0.127346 0.747000 15591422
0.243679 0.061104 0.773000 14012631
0.242103 0.065097 0.768000 10264511
0.242103 0.069486 0.768000 10260392
0.242733 0.074067 0.770000 9997217
0.243364 0.078670 0.772000 9734303
0.243679 0.083190 0.773000 9471130
0.244310 0.087833 0.775000 9076888
0.244310 0.092262 0.775000 8748434
0.245570 0.097190 0.779000 8616593
0.244940 0.101380 0.777000 8419726
0.244940 0.105820 0.777000 7498625
0.227602 0.102455 0.722000 15653596
0.228548 0.107024 0.725000 14996463
0.229809 0.111780 0.729000 14932207
0.232015 0.117059 0.736000 14931178
0.233276 0.121924 0.740000 14866156
0.243249 0.065012 0.767000 11315655
0.243566 0.069486 0.768000 10195372
0.244200 0.074067 0.770000 9997218
0.244200 0.078467 0.770000 9734559
0.244834 0.083082 0.772000 9537180
0.245786 0.087833 0.775000 9142938
0.245786 0.092262 0.775000 8879763
0.245786 0.096690 0.775000 8682386
0.246420 0.101380 0.777000 8551055
0.246420 0.105820 0.777000 8283771
0.231197 0.107614 0.729000 14997229
0.231831 0.112087 0.731000 14998255
0.233734 0.117218 0.737000 14666987
0.234686 0.121924 0.740000 14999279
0.244071 0.064843 0.765000 12369104
0.244710 0.069395 0.767000 10130859
0.244710 0.073778 0.767000 9931683
0.245029 0.078263 0.768000 9734560
0.245029 0.082651 0.768000 9602716
0.245667 0.087267 0.770000 9208986
0.245029 0.091429 0.768000 9011091
0.245667 0.096067 0.770000 8813714
0.247900 0.101380 0.777000 8682639
0.232586 0.107614 0.729000 14997487
0.233224 0.112087 0.731000 15062245
0.235138 0.117218 0.737000 14401483
0.236095 0.121924 0.740000 15064300
0.244245 0.064504 0.761000 13488346
0.245529 0.069214 0.765000 10591146
0.246170 0.073778 0.767000 10062757
0.246170 0.078161 0.767000 9669024
0.246170 0.082544 0.767000 9668508
0.246170 0.086927 0.767000 9340058
0.246170 0.091310 0.767000 9142420
0.244245 0.094944 0.761000 8879761
0.244245 0.099292 0.761000 8813968
0.244887 0.103913 0.763000 10061480
0.233974 0.107614 0.729000 14931696
0.234616 0.112087 0.731000 14272730
0.236542 0.117218 0.737000 13282731
0.245371 0.064419 0.760000 14599119
0.246986 0.069214 0.765000 10986693
0.246986 0.073586 0.765000 10129322
0.246986 0.077957 0.765000 9603231
0.246986 0.082329 0.765000 9668509
0.246986 0.086700 0.765000 9471130
0.246986 0.091071 0.765000 9208469
0.245694 0.094944 0.761000 9011092
0.245694 0.099292 0.761000 8943759
0.246340 0.103913 0.763000 10985418
0.246819 0.064419 0.760000 14400709
0.247793 0.069033 0.763000 12303072
0.247793 0.073393 0.763000 10065583
0.247793 0.077753 0.763000 9734813
0.247793 0.082113 0.763000 9733790
0.247793 0.086473 0.763000 9536921
0.247144 0.090595 0.761000 9339799
0.247144 0.094944 0.761000 8945559
0.248593 0.068852 0.761000 13553871
0.248593 0.073201 0.761000 10003655
0.248593 0.077550 0.761000 9867175
0.248593 0.081898 0.761000 9799583
0.248267 0.086133 0.760000 9602713
0.247613 0.090238 0.758000 9405077
0.245980 0.093946 0.753000 8945555
0.250043 0.068852 0.761000 13944510
0.250043 0.073201 0.761000 11776735
0.250043 0.077550 0.761000 10261937
0.249714 0.081790 0.760000 9668256
0.249057 0.085907 0.758000 9405336
0.248071 0.089881 0.755000 9142675
0.247414 0.093946 0.753000 9009039
0.251162 0.073105 0.760000 13485267
0.251162 0.077448 0.760000 10657996
0.250501 0.081575 0.758000 9539253
0.249510 0.085567 0.755000 9272739
0.249510 0.089881 0.755000 8879525
0.247196 0.093322 0.748000 9074867
0.245544 0.096944 0.743000 13421014
0.252610 0.073105 0.760000 14141896
0.251945 0.077244 0.758000 12500966
0.251280 0.081360 0.756000 11115978
0.250948 0.085567 0.755000 10063534
0.249950 0.089524 0.752000 9862328
0.248289 0.093197 0.747000 11512791
0.246627 0.096813 0.742000 14479602
0.252720 0.077040 0.756000 14342356
0.252386 0.081252 0.755000 12632789
0.251383 0.085227 0.752000 10923217
0.250714 0.089286 0.750000 10858199
0.249043 0.092948 0.745000 13885419
0.247371 0.096552 0.740000 15520472
0.254160 0.077040 0.756000 14403521
0.253824 0.081252 0.755000 13689057
0.252815 0.085227 0.752000 13160179
0.252143 0.089286 0.750000 13623031
0.249453 0.092573 0.742000 14608382
0.248781 0.096552 0.740000 14726079
0.254248 0.085227 0.752000 15461360
0.250190 0.088095 0.740000 16380921
0.250867 0.092573 0.742000 15333118
0.250190 0.096552 0.740000 13939642
0.271829 0.123280 0.804000 11573938
0.255680 0.085227 0.752000 15262445
0.251600 0.088095 0.740000 16184316
0.252280 0.092573 0.742000 15263742
0.252280 0.096813 0.742000 14072245
0.273360 0.123280 0.804000 11574195
0.273360 0.127874 0.804000 12101567
0.263950 0.091905 0.772000 15921914
0.274208 0.122973 0.802000 11508914
0.274208 0.127556 0.802000 12035776
0.265421 0.091905 0.772000 16051961
0.265421 0.096316 0.772000 15262973
0.275048 0.122667 0.800000 11574449
0.275735 0.127556 0.802000 12101312
0.266891 0.091905 0.772000 16118778
0.266200 0.096067 0.770000 15267326
0.266200 0.100467 0.770000 14333114
0.275534 0.117652 0.797000 10785186
0.275880 0.122360 0.798000 11574961
0.276571 0.127238 0.800000 12166595
0.268362 0.091905 0.772000 16250107
0.266971 0.095817 0.768000 15396094
0.268362 0.100728 0.772000 14399423
0.268710 0.105275 0.773000 13939639
0.277052 0.117652 0.797000 10917022
0.277052 0.122207 0.797000 11706802
0.277400 0.126920 0.798000 12627910
0.270182 0.092024 0.773000 16314615
0.269133 0.096067 0.770000 15531518
0.269133 0.100467 0.770000 14463428
0.270182 0.105275 0.773000 13478312
0.277871 0.117357 0.795000 11048873
0.278570 0.122207 0.797000 11837620
0.278920 0.126920 0.798000 13155008
0.280318 0.132139 0.802000 14137272
0.271654 0.092024 0.773000 15920116
0.270600 0.096067 0.770000 15791358
0.270600 0.100467 0.770000 13476810
0.273060 0.105820 0.777000 12097176
0.278683 0.117062 0.793000 11114931
0.279386 0.121900 0.795000 11837366
0.280089 0.126761 0.797000 13743545
0.272067 0.096067 0.770000 16121598
0.272067 0.100467 0.770000 12494026
0.274540 0.105820 0.777000 10717856
0.278427 0.111821 0.788000 11244710
0.279487 0.116767 0.791000 11180465
0.280193 0.121593 0.793000 11775167
0.281607 0.126761 0.797000 14332341
0.273533 0.096067 0.770000 16119806
0.273533 0.100467 0.770000 12689354
0.276730 0.106092 0.779000 10718631
0.279217 0.111537 0.786000 11310507
0.280283 0.116471 0.789000 11970223
0.280993 0.121287 0.791000 13220807
0.275000 0.096067 0.770000 16185070
0.275714 0.100728 0.772000 12830692
0.278571 0.106229 0.780000 10719165
0.281429 0.111821 0.788000 11313600
0.281429 0.116324 0.788000 12762300
0.282500 0.121287 0.791000 14598335
0.276467 0.096067 0.770000 15456990
0.277185 0.100728 0.772000 14416126
0.280057 0.106229 0.780000 12366546
0.282211 0.111537 0.786000 12697045
0.282211 0.116029 0.786000 13615048
0.278655 0.100728 0.772000 15916256
0.281543 0.106229 0.780000 14079183
0.283709 0.111537 0.786000 14074828
0.283709 0.116029 0.786000 14466242
0.285206 0.111537 0.786000 14204099
0.165397 0.118572 0.793000 10059134
0.165814 0.123414 0.795000 10124929
0.164980 0.127313 0.791000 10059394
0.166908 0.118572 0.793000 10124673
