# .PCD v.7 - Point Cloud Data file format
VERSION .7
FIELDS x y z rgb
SIZE 4 4 4 4
TYPE F F F I
COUNT 1 1 1 1
WIDTH 1326
HEIGHT 1
POINTS 1326
DATA ascii
0.197476 -0.034048 0.650000 9730431
0.197780 -0.030380 0.651000 8349546
0.198084 -0.026701 0.652000 7693164
0.200514 -0.023257 0.660000 7823475
0.201122 -0.019545 0.662000 7893629
0.202033 -0.015833 0.665000 8353924
0.203249 -0.012106 0.669000 8420231
0.203552 -0.008295 0.670000 8350854
0.203856 -0.004473 0.671000 8418180
0.204160 -0.000640 0.672000 8813698
0.204160 0.003200 0.672000 9667206
0.204768 0.007061 0.674000 9995408
0.204160 0.010880 0.672000 11703963
0.203552 0.014676 0.670000 9930643
0.202641 0.018422 0.667000 9004653
0.198103 -0.033943 0.648000 9400443
0.198714 -0.030333 0.650000 8875619
0.199020 -0.026660 0.651000 9532797
0.202077 -0.023292 0.661000 10060934
0.202689 -0.019574 0.663000 10392469
0.203300 -0.015833 0.665000 10589341
0.204523 -0.012106 0.669000 10721950
0.204829 -0.008295 0.670000 10324378
0.205134 -0.004473 0.671000 9863051
0.205440 -0.000640 0.672000 9075842
0.206051 0.003210 0.674000 9732743
0.206051 0.007061 0.674000 9995666
0.205134 0.010864 0.671000 11178398
0.204829 0.014676 0.670000 9996947
0.203911 0.018422 0.667000 9201791
0.199030 -0.033890 0.647000 9006973
0.199952 -0.030333 0.650000 9468031
0.200260 -0.026660 0.651000 11310222
0.203336 -0.023292 0.661000 12361874
0.203951 -0.019574 0.663000 12886170
0.204567 -0.015833 0.665000 12885145
0.205797 -0.012106 0.669000 13015706
0.206105 -0.008295 0.670000 12295574
0.206412 -0.004473 0.671000 11308685
0.207335 -0.000642 0.674000 9403783
0.207643 0.003214 0.675000 9732487
0.207643 0.007071 0.675000 9995922
0.206720 0.010880 0.672000 10653850
0.206105 0.014676 0.670000 10128531
0.205182 0.018422 0.667000 9335937
0.200262 -0.033890 0.647000 8742783
0.201190 -0.030333 0.650000 11046810
0.201500 -0.026660 0.651000 12101023
0.204595 -0.023292 0.661000 12492702
0.205833 -0.015833 0.665000 12622229
0.207071 -0.012106 0.669000 12753045
0.207381 -0.008295 0.670000 12229522
0.208000 -0.004480 0.672000 11704462
0.208619 -0.000642 0.674000 10586763
0.208929 0.003214 0.675000 9994631
0.208929 0.007071 0.675000 9995665
0.207690 0.010864 0.671000 10522517
0.207071 0.014654 0.669000 10193554
0.206452 0.018422 0.667000 9536131
0.201806 -0.030240 0.648000 12625052
0.208346 -0.012106 0.669000 12425366
0.208657 -0.008295 0.670000 12229011
0.209280 -0.004480 0.672000 12097168
0.209903 -0.000642 0.674000 11832716
0.210214 0.003214 0.675000 10192773
0.210214 0.007071 0.675000 9995402
0.208969 0.010864 0.671000 10390934
0.208346 0.014654 0.669000 10193297
0.207411 0.018394 0.666000 9733507
0.211500 0.007071 0.675000 10388867
0.210560 0.010880 0.672000 10390934
0.209620 0.014654 0.669000 10128016
0.208680 0.018394 0.666000 9799555
0.212786 0.007071 0.675000 10781823
0.211840 0.010880 0.672000 10324625
0.210894 0.014654 0.669000 10061707
0.209949 0.018394 0.666000 9798525
0.212803 0.014698 0.671000 9864581
0.211217 0.018394 0.666000 9599351
0.200362 0.042465 0.628000 9139311
0.198028 0.013515 0.617000 9598585
0.198670 0.024170 0.619000 9205104
0.201558 0.042465 0.628000 9205362
0.199526 0.010006 0.618000 9531765
0.198880 0.013493 0.616000 9466227
0.199526 0.024131 0.618000 9336435
0.200817 0.027842 0.622000 9336180
0.201140 0.031447 0.623000 9336436
0.201786 0.035119 0.625000 9401971
0.202431 0.038814 0.627000 9270900
0.202754 0.042465 0.628000 9271413
0.200053 0.009973 0.616000 9335155
0.199729 0.013471 0.615000 9401196
0.199729 0.016986 0.615000 9336181
0.200703 0.024131 0.618000 9402230
0.202002 0.027842 0.622000 9336439
0.202327 0.031447 0.623000 9402230
0.202976 0.035119 0.625000 9336949
0.202327 0.038567 0.623000 9336693
0.202976 0.042262 0.625000 9271671
0.203301 0.045907 0.626000 9271672
0.196327 -0.010875 0.601000 9598839
0.197307 -0.007478 0.604000 8939891
0.200900 0.009957 0.615000 9139316
0.200573 0.013450 0.614000 9401456
0.200247 0.016930 0.613000 9271158
0.201553 0.024092 0.617000 9468023
0.203187 0.027842 0.622000 9402488
0.203513 0.031447 0.623000 9468024
0.203513 0.035007 0.623000 9337208
0.203513 0.038567 0.623000 9337208
0.203840 0.042194 0.624000 9337465
0.204167 0.045833 0.625000 9271673
0.197143 -0.021143 0.600000 10779767
0.197143 -0.017714 0.600000 10380908
0.197143 -0.014286 0.600000 9925744
0.197471 -0.010875 0.601000 9662836
0.198457 -0.007478 0.604000 9138296
0.198457 -0.004027 0.604000 9139828
0.198457 0.002876 0.604000 9270391
0.201743 0.009941 0.614000 9270646
0.200757 0.013384 0.611000 9336692
0.200100 0.016820 0.609000 9271416
0.201414 0.020433 0.613000 9402749
0.202400 0.024053 0.616000 9468281
0.203057 0.027663 0.618000 9336953
0.204371 0.031396 0.622000 9402747
0.204371 0.034950 0.622000 9337466
0.204371 0.038505 0.622000 9403003
0.204700 0.042127 0.623000 9403003
0.205029 0.045760 0.624000 9402746
0.197955 -0.021108 0.599000 8939896
0.198286 -0.017714 0.600000 9006960
0.198286 -0.014286 0.600000 9335410
0.199277 -0.010911 0.603000 9663349
0.199608 -0.007478 0.604000 9401463
0.199608 -0.004027 0.604000 9270645
0.199608 -0.000575 0.604000 9270647
0.199608 0.002876 0.604000 9204857
0.200930 0.009844 0.608000 9336440
0.201260 0.013340 0.609000 9336951
0.200930 0.016792 0.608000 9271673
0.201260 0.020300 0.609000 9402748
0.202912 0.023975 0.614000 9402747
0.203904 0.027618 0.617000 9271419
0.204895 0.031295 0.620000 9271932
0.204895 0.034838 0.620000 9403004
0.204565 0.038319 0.619000 9403260
0.205556 0.042059 0.622000 9403004
0.205887 0.045687 0.623000 9534075
0.197434 -0.024326 0.594000 9467004
0.198764 -0.021072 0.598000 9138809
0.199096 -0.017685 0.599000 9139828
0.199429 -0.014286 0.600000 9270644
0.200426 -0.010911 0.603000 9532790
0.200426 -0.007466 0.603000 9270390
0.200758 -0.004027 0.604000 9336183
0.199761 -0.000572 0.601000 9270903
0.200426 0.002871 0.603000 9204859
0.201755 0.006359 0.607000 9336698
0.202088 0.009844 0.608000 9336442
0.202088 0.013318 0.608000 9468026
0.201755 0.016765 0.607000 9337467
0.202088 0.020267 0.608000 9403002
0.203750 0.023936 0.613000 9468541
0.205079 0.027618 0.617000 9403005
0.205079 0.031144 0.617000 9337725
0.205411 0.034726 0.618000 9403261
0.205411 0.038257 0.618000 9534589
0.205411 0.041789 0.618000 9468797
0.205744 0.045393 0.619000 9599613
0.198566 -0.024326 0.594000 9532794
0.199234 -0.021002 0.596000 9401976
0.199569 -0.017626 0.597000 9270899
0.200237 -0.014262 0.599000 9270646
0.201909 -0.010930 0.604000 9336695
0.201574 -0.007466 0.603000 9139319
0.201909 -0.004027 0.604000 9401976
0.200906 -0.000572 0.601000 9270905
0.201240 0.002867 0.602000 9205627
0.201240 0.006307 0.602000 9336700
0.202243 0.009795 0.605000 9336700
0.202577 0.013274 0.606000 9533563
0.202577 0.016737 0.606000 9403006
0.203580 0.020300 0.609000 9403260
0.204249 0.023858 0.611000 9468797
0.202243 0.027081 0.605000 9468798
0.206254 0.031144 0.617000 9403518
0.206589 0.034726 0.618000 9469054
0.205920 0.038133 0.616000 9600126
0.206254 0.041721 0.617000 9534590
0.206589 0.045320 0.618000 9599870
0.206923 0.048930 0.619000 9469056
0.199697 -0.024326 0.594000 9270647
0.200706 -0.021037 0.597000 9270903
0.200370 -0.017596 0.596000 9336691
0.201378 -0.014262 0.599000 9270903
0.203059 -0.010930 0.604000 9271160
0.198689 -0.007317 0.591000 9270903
0.202387 -0.004013 0.602000 9336953
0.202050 -0.000572 0.601000 9205626
0.202050 0.002862 0.601000 9271420
0.202050 0.006296 0.601000 9336957
0.202723 0.009763 0.603000 9402750
0.203059 0.013230 0.604000 9533819
0.203395 0.016710 0.605000 9469057
0.203731 0.020200 0.606000 9403262
0.204404 0.023741 0.608000 9469053
0.203395 0.027081 0.605000 9534591
0.204404 0.030690 0.608000 9469055
0.206085 0.034445 0.613000 9534591
0.206085 0.037948 0.613000 9665662
0.207093 0.041653 0.616000 9665918
0.207430 0.045247 0.617000 9600127
0.207766 0.048851 0.618000 9535106
0.206576 -0.042479 0.611000 13487837
0.206576 -0.038988 0.611000 13814760
0.200152 -0.024244 0.592000 9008246
0.200152 -0.020861 0.592000 9139832
0.199814 -0.017449 0.591000 9336694
0.200490 -0.014119 0.593000 9336440
0.200490 -0.010730 0.593000 9205880
0.199814 -0.007317 0.591000 9336437
0.203533 -0.004013 0.602000 9271418
0.202857 -0.000571 0.600000 9205885
0.203195 0.002862 0.601000 9337213
0.202857 0.006286 0.600000 9403004
0.203195 0.009730 0.601000 9468287
0.203533 0.013187 0.602000 9533821
0.204210 0.016682 0.604000 9534592
0.204886 0.020200 0.606000 9469054
0.204886 0.023663 0.606000 9469310
0.204548 0.027081 0.605000 9534848
0.204886 0.030589 0.606000 9469312
0.205900 0.034220 0.609000 9600129
0.206576 0.037824 0.611000 9731456
0.207590 0.041518 0.614000 9796991
0.207929 0.045100 0.615000 9600642
0.208605 0.048772 0.617000 9600899
0.208080 -0.042549 0.612000 13487599
0.208080 -0.039051 0.612000 13352676
0.201280 -0.027627 0.592000 9999036
0.200940 -0.024203 0.591000 9138805
0.200260 -0.020755 0.589000 9205369
0.200260 -0.017390 0.589000 9402489
0.200940 -0.014071 0.591000 9336697
0.200940 -0.010694 0.591000 9205880
0.200940 -0.007317 0.591000 9336946
0.204680 -0.004013 0.602000 9337212
0.204000 -0.000571 0.600000 9271679
0.204000 0.002857 0.600000 9402751
0.202980 0.006254 0.597000 9403003
0.204000 0.009714 0.600000 9533824
0.204680 0.013187 0.602000 9534079
0.205020 0.016654 0.603000 9534591
0.205700 0.020167 0.605000 9534590
0.205700 0.023624 0.605000 9534590
0.205700 0.027081 0.605000 9600384
0.206040 0.030589 0.606000 9600641
0.206720 0.034164 0.608000 9600642
0.207060 0.037700 0.609000 9731458
0.208080 0.041383 0.612000 9731712
0.209100 0.045100 0.615000 9600901
0.209440 0.048693 0.616000 9666435
0.209588 -0.042618 0.613000 13552619
0.209246 -0.039051 0.612000 12827620
0.209588 -0.035612 0.613000 12433124
0.201724 -0.027533 0.590000 10989522
0.201040 -0.024080 0.588000 9271173
0.200356 -0.020650 0.586000 9270907
0.200698 -0.017330 0.587000 9467770
0.201382 -0.014024 0.589000 9336953
0.201724 -0.010676 0.590000 9205881
0.201724 -0.007305 0.590000 9337463
0.202066 -0.003940 0.591000 9337213
0.202408 -0.000564 0.592000 9402753
0.203775 0.002838 0.596000 9468542
0.203775 0.006244 0.596000 9468796
0.204117 0.009666 0.597000 9533823
0.204459 0.013099 0.598000 9599613
0.205143 0.016571 0.600000 9534591
0.206169 0.020100 0.603000 9600127
0.206510 0.023585 0.604000 9534592
0.206510 0.027036 0.604000 9666177
0.206852 0.030538 0.605000 9666433
0.207536 0.034108 0.607000 9601155
0.207878 0.037638 0.608000 9666179
0.208904 0.041315 0.611000 9666179
0.209588 0.044953 0.613000 9535366
0.209930 0.048535 0.614000 9666182
0.210755 -0.042618 0.613000 13354727
0.210411 -0.039051 0.612000 12761060
0.210755 -0.035612 0.613000 12367844
0.202848 -0.027533 0.590000 11645927
0.201472 -0.023998 0.586000 9074836
0.201129 -0.020614 0.585000 9205116
0.201129 -0.017271 0.585000 9402234
0.202160 -0.014000 0.588000 9402489
0.202504 -0.010658 0.589000 9336955
0.202504 -0.007292 0.589000 9403003
0.203191 -0.003940 0.591000 9402750
0.203535 -0.000564 0.592000 9403267
0.204223 0.002829 0.594000 9468798
0.204223 0.006223 0.594000 9468541
0.204910 0.009650 0.596000 9599359
0.205254 0.013077 0.597000 9599866
0.205942 0.016544 0.599000 9534592
0.206286 0.020000 0.600000 9665920
0.206973 0.023507 0.602000 9665410
0.207317 0.026991 0.603000 9731714
0.207661 0.030488 0.604000 9732226
0.208349 0.034051 0.606000 9666692
0.209036 0.037638 0.608000 9732228
0.209380 0.041180 0.609000 9732229
0.210755 0.044953 0.613000 9666440
0.211099 0.048535 0.614000 9797768
0.211787 0.052213 0.616000 9797769
0.211923 -0.042618 0.613000 13157865
0.211923 -0.039115 0.613000 12630757
0.213306 -0.035845 0.617000 12368103
0.214343 -0.032476 0.620000 12301537
0.203971 -0.027533 0.590000 12302818
0.202243 -0.023957 0.585000 8881835
0.201897 -0.020579 0.584000 9205116
0.202243 -0.017271 0.585000 9336955
0.202243 -0.013929 0.585000 9468282
0.203280 -0.010640 0.588000 9402748
0.203626 -0.007292 0.589000 9468797
0.203971 -0.003933 0.590000 9468286
0.203971 -0.000562 0.590000 9403265
0.204317 0.002814 0.591000 9468798
0.205009 0.006212 0.593000 9534080
0.205700 0.009633 0.595000 9599872
0.206046 0.013055 0.596000 9599615
0.206737 0.016516 0.598000 9534849
0.206737 0.019933 0.598000 9666176
0.207429 0.023429 0.600000 9731715
0.207774 0.026902 0.601000 9731715
0.208120 0.030387 0.602000 9732228
0.209157 0.033995 0.605000 9732230
0.209849 0.037576 0.607000 9798022
0.210540 0.041180 0.609000 9863815
0.211577 0.044880 0.612000 9797770
0.211923 0.048456 0.613000 9929097
0.212269 0.052044 0.614000 9929099
0.214481 -0.046422 0.617000 14077940
0.213438 -0.042688 0.614000 13025771
0.213438 -0.039179 0.614000 12631015
0.214481 -0.035845 0.617000 12368106
0.214829 -0.032371 0.618000 12236258
0.205095 -0.027533 0.590000 12236764
0.202662 -0.023875 0.583000 10524866
0.202662 -0.020544 0.583000 9073788
0.203010 -0.017242 0.584000 9402749
0.203357 -0.013929 0.585000 9403002
0.203705 -0.010604 0.586000 9403004
0.204052 -0.007268 0.587000 9468542
0.204400 -0.003920 0.588000 9533822
0.204748 -0.000561 0.589000 9403262
0.205095 0.002810 0.590000 9534590
0.205443 0.006191 0.591000 9534338
0.206138 0.009601 0.593000 9665666
0.206833 0.013033 0.595000 9665667
0.207529 0.016489 0.597000 9665922
0.207529 0.019900 0.597000 9666432
0.208224 0.023390 0.599000 9731973
0.208919 0.026902 0.601000 9731972
0.209267 0.030387 0.602000 9797766
0.209962 0.033939 0.604000 9863560
0.210310 0.037452 0.605000 9864072
0.211005 0.041045 0.607000 9863816
0.211352 0.044587 0.608000 9929100
0.212743 0.048377 0.612000 9994889
0.213438 0.052044 0.614000 9994381
0.215656 -0.046422 0.617000 13816304
0.215307 -0.042827 0.616000 12894186
0.214957 -0.039243 0.615000 12565478
0.216355 -0.035961 0.619000 12433384
0.216006 -0.032371 0.618000 12170722
0.218802 -0.029213 0.626000 12235740
0.203073 -0.023793 0.581000 12168141
0.203423 -0.020509 0.582000 9007736
0.203423 -0.017183 0.582000 9403006
0.203423 -0.013857 0.582000 9403004
0.203073 -0.010513 0.581000 9403006
0.204471 -0.007243 0.585000 9468800
0.204821 -0.003907 0.586000 9534336
0.205520 -0.000560 0.588000 9468799
0.205870 0.002805 0.589000 9534592
0.206219 0.006181 0.590000 9600131
0.207268 0.009601 0.593000 9665923
0.207617 0.013011 0.594000 9731461
0.208316 0.016461 0.596000 9731716
0.208316 0.019867 0.596000 9666691
0.209015 0.023350 0.598000 9731975
0.209714 0.026857 0.600000 9732231
0.210064 0.030336 0.601000 9863560
0.210763 0.033883 0.603000 9994636
0.211112 0.037390 0.604000 9929611
0.211811 0.040977 0.606000 9863564
0.212161 0.044513 0.607000 10060686
0.212860 0.048140 0.609000 10060942
0.214258 0.051959 0.613000 9995151
0.217534 -0.046572 0.619000 13683180
0.216831 -0.042896 0.617000 12893928
0.216831 -0.039370 0.617000 12631013
0.217886 -0.036019 0.620000 12433638
0.219643 -0.032738 0.625000 12171233
0.219994 -0.029213 0.626000 11972315
0.204180 -0.023793 0.581000 12239576
0.203477 -0.020403 0.579000 9403252
0.203477 -0.017094 0.579000 9468800
0.203477 -0.013786 0.579000 9403006
0.203829 -0.010495 0.580000 9403264
0.205234 -0.007230 0.584000 9469058
0.205234 -0.003893 0.584000 9534337
0.205234 -0.000556 0.584000 9534592
0.206640 0.002800 0.588000 9600386
0.206640 0.006160 0.588000 9665923
0.207694 0.009569 0.591000 9665924
0.208046 0.012968 0.592000 9797254
0.208749 0.016406 0.594000 9797511
0.208749 0.019800 0.594000 9666694
0.209451 0.023272 0.596000 9797513
0.210506 0.026812 0.599000 9798026
0.210506 0.030235 0.599000 9929353
0.210857 0.033714 0.600000 9994895
0.211560 0.037267 0.602000 9995149
0.212263 0.040842 0.604000 9929616
0.212614 0.044367 0.605000 10061199
0.213669 0.048061 0.608000 10126738
0.214020 0.051620 0.609000 10126481
0.214723 0.055281 0.611000 10127248
0.219067 -0.050190 0.620000 13355486
0.218360 -0.046497 0.618000 13486571
0.218007 -0.042896 0.617000 12827880
0.218360 -0.039434 0.618000 12631013
0.219773 -0.036135 0.622000 12499431
0.220833 -0.032738 0.625000 12170976
0.221187 -0.029213 0.626000 11774427
0.221187 -0.025636 0.626000 12234453
0.203873 -0.020332 0.577000 9797273
0.204227 -0.017065 0.578000 9469055
0.204227 -0.013762 0.578000 9468799
0.204933 -0.010495 0.580000 9403521
0.205287 -0.007193 0.581000 9469314
0.205993 -0.003887 0.583000 9534850
0.206347 -0.000556 0.584000 9600130
0.207053 0.002790 0.586000 9665923
0.207407 0.006150 0.587000 9731717
0.207760 0.009520 0.588000 9666182
0.208820 0.012946 0.591000 9797255
0.209527 0.016378 0.593000 9863303
0.209527 0.019767 0.593000 9732489
0.210233 0.023233 0.595000 9798027
0.211293 0.026768 0.598000 9929612
0.211293 0.030185 0.598000 9929612
0.211647 0.033658 0.599000 9994896
0.212000 0.037143 0.600000 10061199
0.213060 0.040774 0.603000 10060945
0.213767 0.044367 0.605000 10061459
0.214473 0.047982 0.607000 10192532
0.214827 0.051535 0.608000 10258324
0.215180 0.055100 0.609000 10127508
0.220248 -0.050190 0.620000 13618415
0.220248 -0.046648 0.620000 13353963
0.220248 -0.043105 0.620000 12762600
0.220248 -0.039562 0.620000 12631012
0.221313 -0.036193 0.623000 12499432
0.222024 -0.032738 0.625000 12104927
0.222379 -0.029213 0.626000 11577819
0.222734 -0.025677 0.627000 11576019
0.204617 -0.020297 0.576000 10261182
0.204972 -0.017035 0.577000 9469567
0.204972 -0.013738 0.577000 9469056
0.205683 -0.010477 0.579000 9534594
0.206038 -0.007181 0.580000 9534850
0.206749 -0.003880 0.582000 9600898
0.207104 -0.000555 0.583000 9600388
0.207814 0.002786 0.585000 9731716
0.208170 0.006139 0.586000 9863047
0.208525 0.009504 0.587000 9797512
0.209235 0.012902 0.589000 9928840
0.210301 0.016350 0.592000 9994376
0.210656 0.019767 0.593000 9798540
0.211011 0.023194 0.594000 9863822
0.211722 0.026678 0.596000 9995406
0.212077 0.030134 0.597000 9995406
0.212788 0.033658 0.599000 10060945
0.212788 0.037081 0.599000 10126994
0.213853 0.040707 0.602000 10126993
0.214564 0.044293 0.604000 10192790
0.214919 0.047824 0.605000 10193046
0.215985 0.051535 0.608000 10258839
0.216340 0.055100 0.609000 10259095
0.221429 -0.050190 0.620000 13886448
0.221429 -0.046648 0.620000 13223402
0.222143 -0.043244 0.622000 12762599
0.221429 -0.039562 0.620000 12565476
0.222857 -0.036251 0.624000 12499174
0.223571 -0.032790 0.626000 12039389
0.223571 -0.029213 0.626000 11446744
0.224286 -0.025718 0.628000 10854862
0.205357 -0.020262 0.575000 10790093
0.205714 -0.017006 0.576000 9468544
0.205714 -0.013714 0.576000 9534850
0.206786 -0.010477 0.579000 9600388
0.207143 -0.007181 0.580000 9600644
0.207500 -0.003873 0.581000 9666692
0.207500 -0.000553 0.581000 9665926
0.208214 0.002776 0.583000 9797510
0.208929 0.006129 0.585000 9928585
0.208929 0.009471 0.585000 9863561
0.210000 0.012880 0.588000 9994634
0.210714 0.016295 0.590000 10125706
0.211429 0.019733 0.592000 9929613
0.211429 0.023116 0.592000 9929871
0.212857 0.026678 0.596000 10061201
0.213214 0.030134 0.597000 10061201
0.213571 0.033602 0.598000 10126484
0.213571 0.037019 0.598000 10192788
0.215000 0.040707 0.602000 10258069
0.215357 0.044220 0.603000 10258583
0.215714 0.047745 0.604000 10258842
0.216786 0.051450 0.607000 10259097
0.217143 0.055010 0.608000 10325400
0.222610 -0.050190 0.620000 13817073
0.222610 -0.046648 0.620000 13157097
0.223328 -0.043244 0.622000 12697062
0.223687 -0.039753 0.623000 12565476
0.224405 -0.036310 0.625000 12433636
0.224764 -0.032790 0.626000 12039387
0.225123 -0.029260 0.627000 11315156
0.225482 -0.025718 0.628000 10656969
0.206093 -0.020227 0.574000 11184604
0.206452 -0.016976 0.575000 9468033
0.206811 -0.013714 0.576000 9534852
0.207170 -0.010441 0.577000 9600390
0.207889 -0.007169 0.579000 9666181
0.208248 -0.003867 0.580000 9732230
0.208607 -0.000553 0.581000 9797256
0.208966 0.002771 0.582000 9863560
0.209684 0.006118 0.584000 9929098
0.210043 0.009471 0.585000 9929098
0.210761 0.012858 0.587000 9994892
0.211120 0.016240 0.588000 10125709
0.211838 0.019667 0.590000 9995662
0.212197 0.023077 0.591000 9995665
0.213274 0.026589 0.594000 10126995
0.213992 0.030084 0.596000 10126995
0.214351 0.033546 0.597000 10192534
0.214710 0.037019 0.598000 10258327
0.215788 0.040639 0.601000 10258584
0.216147 0.044147 0.602000 10324377
0.216865 0.047745 0.604000 10324893
0.217583 0.051366 0.606000 10390427
0.217942 0.054919 0.607000 10391193
0.223790 -0.050190 0.620000 13752051
0.223790 -0.046648 0.620000 13091562
0.224512 -0.043244 0.622000 12631014
0.225234 -0.039817 0.624000 12565219
0.225956 -0.036368 0.626000 12367841
0.226317 -0.032843 0.627000 12039129
0.226678 -0.029307 0.628000 11183824
0.227039 -0.025759 0.629000 10459849
0.206465 -0.020156 0.572000 11581908
0.207548 -0.016976 0.575000 9404053
0.207548 -0.013690 0.575000 9535110
0.207909 -0.010423 0.576000 9535368
0.208270 -0.007144 0.577000 9731976
0.208991 -0.003860 0.579000 9797768
0.209352 -0.000552 0.580000 9863304
0.209713 0.002767 0.581000 9863563
0.210435 0.006108 0.583000 9929612
0.210796 0.009455 0.584000 9929357
0.211518 0.012836 0.586000 9995152
0.212240 0.016240 0.588000 10126480
0.212601 0.019633 0.589000 10061201
0.212962 0.023038 0.590000 10061458
0.214045 0.026544 0.593000 10193045
0.214767 0.030033 0.595000 10193045
0.215128 0.033490 0.596000 10258583
0.215489 0.036957 0.597000 10258841
0.216571 0.040571 0.600000 10324378
0.216932 0.044073 0.601000 10324633
0.217654 0.047666 0.603000 10456479
0.218376 0.051281 0.605000 10522012
0.219098 0.054919 0.607000 10522780
0.224971 -0.050190 0.620000 13816052
0.224971 -0.046648 0.620000 13026027
0.225697 -0.043244 0.622000 12631269
0.226786 -0.039881 0.625000 12499683
0.227149 -0.036368 0.626000 12302558
0.227511 -0.032843 0.627000 11907800
0.227874 -0.029307 0.628000 11118028
0.228963 -0.025841 0.631000 10459593
0.207554 -0.020156 0.572000 11446476
0.208643 -0.016976 0.575000 9666218
0.208280 -0.013667 0.574000 9666184
0.208643 -0.010405 0.575000 9666698
0.209006 -0.007131 0.576000 9731978
0.209369 -0.003847 0.577000 9863563
0.210457 -0.000552 0.580000 9929096
0.210457 0.002762 0.580000 9928846
0.211183 0.006097 0.582000 9995406
0.211546 0.009439 0.583000 9995152
0.212271 0.012814 0.585000 10060947
0.212997 0.016212 0.587000 10192531
0.213360 0.019600 0.588000 10127251
0.213723 0.022999 0.589000 10193044
0.214811 0.026499 0.592000 10258839
0.215537 0.029983 0.594000 10259095
0.215900 0.033433 0.595000 10324632
0.216263 0.036895 0.596000 10390427
0.217351 0.040504 0.599000 10390428
0.217714 0.044000 0.600000 10456218
0.218077 0.047508 0.601000 10522272
0.218803 0.051111 0.603000 10587806
0.219891 0.054829 0.606000 10588319
0.226152 -0.050190 0.620000 13948918
0.226152 -0.046648 0.620000 12959976
0.227247 -0.043313 0.623000 12631013
0.227976 -0.039881 0.625000 12434145
0.228341 -0.036368 0.626000 12302813
0.228706 -0.032843 0.627000 11710680
0.229435 -0.029353 0.629000 10986698
0.230530 -0.025882 0.632000 10459592
0.230530 -0.022270 0.632000 11312578
0.209738 -0.016976 0.575000 9866413
0.208644 -0.013619 0.572000 9797258
0.209373 -0.010387 0.574000 9732492
0.210103 -0.007131 0.576000 9797773
0.210103 -0.003840 0.576000 9929357
0.211197 -0.000551 0.579000 9995147
0.211562 0.002762 0.580000 9994896
0.211927 0.006087 0.581000 9995664
0.212656 0.009439 0.583000 10061202
0.213021 0.012792 0.584000 10192277
0.213750 0.016185 0.586000 10192788
0.214115 0.019567 0.587000 10258582
0.214845 0.022999 0.589000 10258839
0.215574 0.026454 0.591000 10324889
0.216304 0.029932 0.593000 10325145
0.217033 0.033433 0.595000 10390682
0.217398 0.036895 0.596000 10522013
0.218128 0.040436 0.598000 10456478
0.218492 0.043927 0.599000 10522269
0.218857 0.047429 0.600000 10588066
0.219587 0.051027 0.602000 10654112
0.221046 0.054829 0.606000 10719907
0.227333 -0.050190 0.620000 14080248
0.228067 -0.046798 0.622000 12959718
0.228800 -0.043383 0.624000 12565220
0.229167 -0.039881 0.625000 12433886
0.229533 -0.036368 0.626000 12170971
0.229900 -0.032843 0.627000 11579351
0.230633 -0.029353 0.629000 10920392
0.231733 -0.025882 0.632000 10328518
0.232467 -0.022341 0.634000 11049399
0.210100 -0.016917 0.573000 10261424
0.209367 -0.013595 0.571000 9797516
0.209733 -0.010350 0.572000 9863822
0.210100 -0.007094 0.573000 9863824
0.210833 -0.003833 0.575000 9995407
0.211933 -0.000550 0.578000 9995406
0.212300 0.002757 0.579000 10060946
0.212667 0.006076 0.580000 10061457
0.213400 0.009423 0.582000 10127508
0.214133 0.012792 0.584000 10193047
0.214867 0.016185 0.586000 10324118
0.215233 0.019567 0.587000 10324632
0.215600 0.022960 0.588000 10324634
0.216333 0.026410 0.590000 10390938
0.217067 0.029882 0.592000 10390683
0.217800 0.033377 0.594000 10456732
0.218167 0.036833 0.595000 10588063
0.218900 0.040369 0.597000 10522528
0.219267 0.043853 0.598000 10588064
0.219633 0.047350 0.599000 10654116
0.220000 0.050857 0.600000 10785954
0.221467 0.054648 0.604000 10785702
0.221833 0.058195 0.605000 10785959
0.228514 -0.050190 0.620000 14278902
0.229251 -0.046798 0.622000 12894181
0.229989 -0.043383 0.624000 12499427
0.230357 -0.039881 0.625000 12368094
0.230726 -0.036368 0.626000 12039386
0.231463 -0.032895 0.628000 11447253
0.232569 -0.029447 0.631000 10789064
0.233306 -0.025923 0.633000 10131652
0.233674 -0.022341 0.634000 10849461
0.210823 -0.016888 0.572000 10591417
0.209717 -0.013548 0.569000 9863819
0.210454 -0.010332 0.571000 9929616
0.210823 -0.007082 0.572000 9995408
0.211191 -0.003820 0.573000 10061456
0.213034 -0.000550 0.578000 10061456
0.213403 0.002757 0.579000 10126995
0.213771 0.006076 0.580000 10127508
0.214509 0.009423 0.582000 10193303
0.214877 0.012770 0.583000 10258842
0.215614 0.016157 0.585000 10390168
0.215983 0.019533 0.586000 10390683
0.216720 0.022960 0.588000 10390429
0.217089 0.026365 0.589000 10456988
0.217826 0.029831 0.591000 10456734
0.218563 0.033321 0.593000 10522784
0.218931 0.036771 0.594000 10588321
0.220037 0.040369 0.597000 10654114
0.220406 0.043853 0.598000 10588580
0.220774 0.047350 0.599000 10720166
0.221143 0.050857 0.600000 10851238
0.222249 0.054557 0.603000 10851753
0.222617 0.058099 0.604000 10851753
0.229695 -0.050190 0.620000 14012660
0.230436 -0.046798 0.622000 12828388
0.231177 -0.043383 0.624000 12499170
0.231548 -0.039881 0.625000 12302558
0.231918 -0.036368 0.626000 12039384
0.232659 -0.032895 0.628000 11314643
0.233770 -0.029447 0.631000 10657735
0.234511 -0.025923 0.633000 10130626
0.234882 -0.022341 0.634000 10194354
0.211912 -0.016888 0.572000 11774914
0.210801 -0.013548 0.569000 9863818
0.211542 -0.010332 0.571000 9995410
0.211912 -0.007082 0.572000 9995663
0.212283 -0.003820 0.573000 10127505
0.212653 -0.000547 0.574000 10127250
0.214135 0.002752 0.578000 10127509
0.214876 0.006076 0.580000 10193558
0.215247 0.009407 0.581000 10259097
0.215988 0.012770 0.583000 10390172
0.216358 0.016130 0.584000 10456219
0.217099 0.019533 0.586000 10456733
0.217470 0.022921 0.587000 10456224
0.217840 0.026320 0.588000 10523038
0.218581 0.029781 0.590000 10588064
0.219322 0.033265 0.592000 10588835
0.220063 0.036771 0.594000 10654372
0.220804 0.040301 0.596000 10720163
0.221174 0.043780 0.597000 10719912
0.221545 0.047270 0.598000 10851495
0.222286 0.050857 0.600000 10917035
0.223027 0.054467 0.602000 10982827
0.223768 0.058099 0.604000 10983340
0.231621 -0.050352 0.622000 13747444
0.232366 -0.046949 0.624000 12696803
0.232738 -0.043452 0.625000 12433376
0.232738 -0.039881 0.625000 12236765
0.233110 -0.036368 0.626000 11973592
0.233855 -0.032895 0.628000 11184080
0.234972 -0.029447 0.631000 10592197
0.235717 -0.025923 0.633000 10064831
0.236462 -0.022376 0.635000 9603507
0.236462 -0.018748 0.635000 12888765
0.211512 -0.013524 0.568000 9864078
0.212257 -0.010314 0.570000 10061205
0.212630 -0.007070 0.571000 10061971
0.213002 -0.003813 0.572000 10127764
0.213747 -0.000547 0.574000 10193044
0.214491 0.002743 0.576000 10128024
0.215609 0.006066 0.579000 10259609
0.215981 0.009390 0.580000 10324891
0.216353 0.012727 0.581000 10455710
0.217470 0.016130 0.584000 10456478
0.217843 0.019500 0.585000 10522784
0.218588 0.022921 0.587000 10522785
0.218960 0.026320 0.588000 10589089
0.219705 0.029781 0.590000 10654370
0.220077 0.033209 0.591000 10720421
0.220822 0.036710 0.593000 10720422
0.221567 0.040233 0.595000 10786471
0.221939 0.043707 0.596000 10786218
0.222684 0.047270 0.598000 10917545
0.223056 0.050772 0.599000 10917548
0.224173 0.054467 0.602000 11048365
0.224918 0.058099 0.604000 11049389
0.232806 -0.050352 0.622000 13947123
0.233554 -0.046949 0.624000 12696803
0.233929 -0.043452 0.625000 12367838
0.233929 -0.039881 0.625000 12170972
0.234303 -0.036368 0.626000 11908055
0.235051 -0.032895 0.628000 11117773
0.236549 -0.029493 0.632000 10460099
0.237297 -0.025964 0.634000 9933501
0.237671 -0.022376 0.635000 9406900
0.237671 -0.018748 0.635000 12827065
0.212220 -0.013500 0.567000 10061201
0.212969 -0.010296 0.569000 10126744
0.213343 -0.007057 0.570000 10127766
0.213717 -0.003807 0.571000 10193559
0.214466 -0.000546 0.573000 10259093
0.215214 0.002738 0.575000 10259611
0.215963 0.006045 0.577000 10390940
0.216711 0.009374 0.579000 10455966
0.217086 0.012705 0.580000 10522015
0.218209 0.016102 0.583000 10522528
0.218583 0.019467 0.584000 10653859
0.219331 0.022882 0.586000 10654370
0.220080 0.026320 0.588000 10654883
0.220454 0.029730 0.589000 10785956
0.221203 0.033209 0.591000 10851750
0.221951 0.036710 0.593000 10851753
0.222700 0.040233 0.595000 10917802
0.223074 0.043707 0.596000 10852268
0.223449 0.047191 0.597000 10983338
0.224197 0.050772 0.599000 11049389
0.225320 0.054467 0.602000 11114671
0.226069 0.058099 0.604000 11180975
0.233990 -0.050352 0.622000 14210800
0.234743 -0.046949 0.624000 12631265
0.235119 -0.043452 0.625000 12367581
0.235495 -0.039945 0.626000 12105179
0.235871 -0.036426 0.627000 11776728
0.236624 -0.032948 0.629000 10986955
0.237752 -0.029493 0.632000 10328769
0.238505 -0.025964 0.634000 9736634
0.239257 -0.022411 0.636000 9275827
0.240010 -0.018836 0.638000 12757178
0.213300 -0.013500 0.567000 10322842
0.213676 -0.010278 0.568000 10127513
0.214052 -0.007045 0.569000 10258841
0.214805 -0.003807 0.571000 10194073
0.215181 -0.000545 0.572000 10324634
0.216310 0.002738 0.575000 10325405
0.216686 0.006034 0.576000 10456479
0.217814 0.009374 0.579000 10522272
0.218190 0.012705 0.580000 10588322
0.218943 0.016074 0.582000 10588578
0.219319 0.019433 0.583000 10785188
0.220071 0.022843 0.585000 10720420
0.220824 0.026275 0.587000 10786214
0.221200 0.029680 0.588000 10852008
0.221952 0.033152 0.590000 10983081
0.223081 0.036710 0.593000 10983340
0.223833 0.040233 0.595000 10983598
0.224210 0.043707 0.596000 10918062
0.224586 0.047191 0.597000 11114926
0.225338 0.050772 0.599000 11115184
0.226467 0.054467 0.602000 11180721
0.226843 0.058003 0.603000 11312561
0.235175 -0.050352 0.622000 13881068
0.235931 -0.046949 0.624000 12631520
0.236310 -0.043452 0.625000 12302300
0.236688 -0.039945 0.626000 12039642
0.237066 -0.036426 0.627000 11710168
0.237822 -0.032948 0.629000 10921161
0.238956 -0.029493 0.632000 10263231
0.240090 -0.026005 0.635000 9671095
0.240469 -0.022411 0.636000 9144241
0.241225 -0.018836 0.638000 12428987
0.214002 -0.013476 0.566000 10653602
0.214758 -0.010278 0.568000 10259099
0.215136 -0.007045 0.569000 10324891
0.215514 -0.003800 0.570000 10390940
0.216270 -0.000545 0.572000 10390431
0.217405 0.002738 0.575000 10456735
0.217783 0.006034 0.576000 10522273
0.218161 0.009342 0.577000 10653603
0.219295 0.012705 0.580000 10654372
0.220051 0.016074 0.582000 10719909
0.220430 0.019433 0.583000 10851237
0.221186 0.022843 0.585000 10851750
0.221942 0.026275 0.587000 10917545
0.222320 0.029680 0.588000 10983596
0.222698 0.033096 0.589000 11048875
0.223832 0.036648 0.592000 11049391
0.224589 0.040166 0.594000 11049393
0.225345 0.043707 0.596000 11114929
0.225345 0.047112 0.596000 11180977
0.226479 0.050772 0.599000 11180979
0.227613 0.054467 0.602000 11247026
0.227991 0.058003 0.603000 11378866
0.236360 -0.050352 0.622000 13551339
0.237120 -0.046949 0.624000 12631007
0.237500 -0.043452 0.625000 12236507
0.237880 -0.039945 0.626000 11973592
0.238260 -0.036426 0.627000 11644627
0.239020 -0.032948 0.629000 10854600
0.240160 -0.029493 0.632000 10132156
0.241300 -0.026005 0.635000 9604789
0.242440 -0.022482 0.638000 9078447
0.242820 -0.018866 0.639000 12032438
0.214700 -0.013452 0.565000 10982828
0.215460 -0.010260 0.567000 10324893
0.215840 -0.007032 0.568000 10390941
0.216220 -0.003793 0.569000 10522270
0.216980 -0.000544 0.571000 10521505
0.218500 0.002738 0.575000 10588067
0.218880 0.006034 0.576000 10522532
0.219260 0.009342 0.577000 10785189
0.220020 0.012683 0.579000 10720166
0.220780 0.016047 0.581000 10785958
0.221160 0.019400 0.582000 10916775
0.221920 0.022804 0.584000 10983337
0.222680 0.026230 0.586000 11048877
0.223060 0.029630 0.587000 11049646
0.223440 0.033040 0.588000 11114671
0.224960 0.036648 0.592000 11115185
0.225720 0.040166 0.594000 11180980
0.226100 0.043633 0.595000 11246516
0.226480 0.047112 0.596000 11246771
0.227620 0.050772 0.599000 11247029
0.228380 0.054376 0.601000 11378613
0.228760 0.057907 0.602000 11444406
0.237545 -0.050352 0.622000 13420266
0.238309 -0.046949 0.624000 12565470
0.238690 -0.043452 0.625000 12236250
0.239072 -0.039945 0.626000 11908054
0.239836 -0.036484 0.628000 11512782
0.240218 -0.032948 0.629000 10788295
0.240982 -0.029447 0.631000 10000313
0.242891 -0.026046 0.636000 9538228
0.243655 -0.022482 0.638000 9143725
0.244037 -0.018866 0.639000 10782130
0.215776 -0.013452 0.565000 11312565
0.216158 -0.010242 0.566000 10390687
0.216922 -0.007032 0.568000 10456990
0.217304 -0.003793 0.569000 10653345
0.218068 -0.000544 0.571000 10588067
0.219213 0.002733 0.574000 10653863
0.219595 0.006024 0.575000 10654119
0.219977 0.009326 0.576000 10851239
0.220741 0.012661 0.578000 10786216
0.221505 0.016019 0.580000 10917544
0.222269 0.019400 0.582000 10983080
0.223032 0.022804 0.584000 11049133
0.223414 0.026186 0.585000 11114672
0.223796 0.029579 0.586000 11181233
0.224560 0.033040 0.588000 11180722
0.225706 0.036586 0.591000 11180980
0.226851 0.040166 0.594000 11246774
0.227233 0.043633 0.595000 11312055
0.227615 0.047112 0.596000 11312564
0.228761 0.050772 0.599000 11312823
0.229525 0.054376 0.601000 11444407
0.229907 0.057907 0.602000 11510201
0.238730 -0.050352 0.622000 13287402
0.239113 -0.046873 0.623000 12433885
0.239881 -0.043452 0.625000 12170202
0.240265 -0.039945 0.626000 11842261
0.241032 -0.036484 0.628000 11446732
0.241416 -0.032948 0.629000 10657220
0.242568 -0.029493 0.632000 9934519
0.243719 -0.026005 0.635000 9407409
0.244870 -0.022482 0.638000 9209002
0.245254 -0.018866 0.639000 9537700
0.216852 -0.013452 0.565000 11575743
0.216852 -0.010224 0.565000 10456737
0.217620 -0.007020 0.567000 10588321
0.218004 -0.003787 0.568000 10719397
0.218771 -0.000543 0.570000 10719910
0.219539 0.002724 0.572000 10654376
0.220690 0.006024 0.575000 10785962
0.221074 0.009326 0.576000 10851755
0.221842 0.012661 0.578000 10917803
0.222610 0.016019 0.580000 10983340
0.222993 0.019367 0.581000 11048877
0.223761 0.022765 0.583000 11114928
0.224529 0.026186 0.585000 11246001
0.224912 0.029579 0.586000 11246771
0.225296 0.032984 0.587000 11246771
0.226831 0.036586 0.591000 11246774
0.227599 0.040098 0.593000 11378360
0.227983 0.043560 0.594000 11378359
0.228750 0.047112 0.596000 11378615
0.229902 0.050772 0.599000 11378874
0.230670 0.054376 0.601000 11510202
0.231053 0.057907 0.602000 11575739
0.239914 -0.050352 0.622000 13157098
0.240300 -0.046873 0.623000 12367581
0.240686 -0.043383 0.624000 12104154
0.241457 -0.039945 0.626000 11776212
0.242229 -0.036484 0.628000 11314890
0.242614 -0.032948 0.629000 10525378
0.243771 -0.029493 0.632000 9803188
0.244929 -0.026005 0.635000 9341614
0.245314 -0.022411 0.636000 9077927
0.246471 -0.018866 0.639000 8745110
0.217929 -0.013452 0.565000 11905993
0.217929 -0.010224 0.565000 10588324
0.218314 -0.007008 0.566000 10654372
0.219086 -0.003787 0.568000 10785193
0.219471 -0.000542 0.569000 10785960
0.220629 0.002724 0.572000 10786217
0.221400 0.006013 0.574000 10851756
0.222171 0.009326 0.576000 10983087
0.222943 0.012661 0.578000 10983597
0.223329 0.015991 0.579000 11049136
0.223714 0.019333 0.580000 11115185
0.224871 0.022765 0.583000 11180723
0.225257 0.026141 0.584000 11312050
0.225257 0.029478 0.584000 11312565
0.226414 0.032984 0.587000 11312564
0.227571 0.036524 0.590000 11378104
0.228729 0.040098 0.593000 11444409
0.229114 0.043560 0.594000 11509944
0.229886 0.047112 0.596000 11444410
0.230657 0.050688 0.598000 11509693
0.231814 0.054376 0.601000 11575997
0.232200 0.057907 0.602000 11641789
0.241099 -0.050352 0.622000 13092073
0.241487 -0.046873 0.623000 12235738
0.241874 -0.043383 0.624000 12037849
0.242650 -0.039945 0.626000 11710162
0.243425 -0.036484 0.628000 11117770
0.243812 -0.032948 0.629000 10394047
0.244975 -0.029493 0.632000 9737140
0.246138 -0.026005 0.635000 9275821
0.246526 -0.022411 0.636000 8946854
0.247689 -0.018866 0.639000 7961242
0.219005 -0.013452 0.565000 12172241
0.219005 -0.010224 0.565000 10653863
0.219005 -0.006995 0.565000 10720679
0.219780 -0.003780 0.567000 10851754
0.220168 -0.000541 0.568000 10852011
0.221718 0.002724 0.572000 10917803
0.222493 0.006013 0.574000 10917550
0.222881 0.009310 0.575000 11049136
0.223656 0.012639 0.577000 11114927
0.224431 0.015991 0.579000 11114930
0.224819 0.019333 0.580000 11181491
0.225207 0.022687 0.581000 11246774
0.226370 0.026141 0.584000 11377845
0.227145 0.029579 0.586000 11312824
0.227532 0.032984 0.587000 11378103
0.228308 0.036462 0.589000 11444155
0.229470 0.040030 0.592000 11510204
0.229858 0.043487 0.593000 11575739
0.231021 0.047112 0.596000 11575484
0.231796 0.050688 0.598000 11641279
0.232571 0.054286 0.600000 11641536
0.232959 0.057810 0.601000 11707584
0.242284 -0.050352 0.622000 12959975
0.242673 -0.046873 0.623000 12169431
0.243452 -0.043452 0.625000 11906776
0.243842 -0.039945 0.626000 11644112
0.244621 -0.036484 0.628000 10985929
0.245010 -0.032948 0.629000 10328253
0.246179 -0.029493 0.632000 9670579
0.247348 -0.026005 0.635000 9144492
0.247737 -0.022411 0.636000 8881060
0.248516 -0.018836 0.638000 7958686
0.248906 -0.015214 0.639000 12104920
0.219691 -0.010206 0.564000 10785706
0.220081 -0.006995 0.565000 10786217
0.220860 -0.003780 0.567000 10917804
0.221250 -0.000541 0.568000 10983598
0.222029 0.002714 0.570000 11049134
0.223197 0.006003 0.573000 11049136
0.223976 0.009310 0.575000 11114930
0.224366 0.012617 0.576000 11115185
0.225145 0.015964 0.578000 11180724
0.225534 0.019300 0.579000 11247028
0.225924 0.022648 0.580000 11378105
0.227482 0.026141 0.584000 11443640
0.228261 0.029579 0.586000 11443899
0.228650 0.032984 0.587000 11509433
0.229040 0.036400 0.588000 11509950
0.230209 0.039963 0.591000 11575998
0.230988 0.043487 0.593000 11641534
0.231767 0.047033 0.595000 11641534
0.232546 0.050603 0.597000 11903682
0.233325 0.054195 0.599000 11707587
0.233714 0.057714 0.600000 11773123
0.243469 -0.050352 0.622000 12827874
0.243860 -0.046873 0.623000 12104407
0.244643 -0.043452 0.625000 11840727
0.245034 -0.039945 0.626000 11512526
0.245817 -0.036484 0.628000 10854344
0.246209 -0.032948 0.629000 10196922
0.247383 -0.029493 0.632000 9604017
0.248557 -0.026005 0.635000 9012650
0.248557 -0.022376 0.635000 8815266
0.249731 -0.018836 0.638000 7959960
0.220766 -0.010206 0.564000 10917039
0.221157 -0.006995 0.565000 10917804
0.221157 -0.003767 0.565000 10983598
0.221940 -0.000540 0.567000 11114928
0.222723 0.002710 0.569000 11114928
0.223506 0.005982 0.571000 11246001
0.224680 0.009293 0.574000 11180979
0.225463 0.012617 0.576000 11180981
0.225854 0.015936 0.577000 11246774
0.226637 0.019300 0.579000 11378359
0.227029 0.022648 0.580000 11443899
0.228203 0.026096 0.583000 11509689
0.228986 0.029529 0.585000 11575485
0.229769 0.032984 0.587000 11575228
0.230160 0.036400 0.588000 11575999
0.231334 0.039963 0.591000 11576513
0.231726 0.043413 0.592000 11707328
0.232900 0.047033 0.595000 11707329
0.233683 0.050603 0.597000 12100803
0.234466 0.054195 0.599000 11839172
0.234857 0.057714 0.600000 11839173
0.244653 -0.050352 0.622000 12696541
0.245047 -0.046873 0.623000 11972568
0.245833 -0.043452 0.625000 11709142
0.246227 -0.039945 0.626000 11381197
0.247013 -0.036484 0.628000 10788807
0.247407 -0.032948 0.629000 10195639
0.248587 -0.029493 0.632000 9538478
0.249767 -0.026005 0.635000 9012135
0.249767 -0.022376 0.635000 8683935
0.250160 -0.018777 0.636000 7958930
0.250160 -0.015143 0.636000 12105418
0.221447 -0.010188 0.563000 11047860
0.221840 -0.006983 0.564000 11049134
0.222233 -0.003767 0.565000 11049392
0.223020 -0.000540 0.567000 11115441
0.223807 0.002710 0.569000 11180722
0.224593 0.005982 0.571000 11312049
0.225380 0.009277 0.573000 11312564
0.226560 0.012617 0.576000 11312568
0.226560 0.015909 0.576000 11378105
0.227347 0.019267 0.578000 11444154
0.228133 0.022648 0.580000 11575485
0.228920 0.026051 0.582000 11575738
0.229313 0.029428 0.583000 11641791
0.230100 0.032871 0.585000 11641791
0.230887 0.036338 0.587000 11707329
0.232460 0.039963 0.591000 11642051
0.232853 0.043413 0.592000 11773122
0.233640 0.046954 0.594000 11773379
0.234427 0.050518 0.596000 12035780
0.235607 0.054195 0.599000 11904965
0.236000 0.057714 0.600000 11905224
0.246233 -0.053993 0.623000 13615814
0.245838 -0.050352 0.622000 12631262
0.246233 -0.046873 0.623000 11775701
0.246629 -0.043383 0.624000 11577299
0.247419 -0.039945 0.626000 11183818
0.248210 -0.036484 0.628000 10788292
0.248605 -0.032948 0.629000 10196149
0.249395 -0.029447 0.631000 9472683
0.250581 -0.025964 0.634000 8946340
0.250976 -0.022376 0.635000 8617886
0.251371 -0.018777 0.636000 7893905
0.251371 -0.015143 0.636000 12173251
0.222124 -0.010170 0.562000 11114169
0.222914 -0.006983 0.564000 11180721
0.223310 -0.003767 0.565000 11115443
0.224100 -0.000540 0.567000 11181236
0.224495 0.002705 0.568000 11246772
0.225286 0.005971 0.570000 11377843
0.226076 0.009261 0.572000 11378359
0.227262 0.012595 0.575000 11378874
0.227657 0.015909 0.576000 11444154
0.228052 0.019233 0.577000 11575484
0.229238 0.022648 0.580000 11641279
0.229633 0.026007 0.581000 11641534
0.230819 0.029478 0.584000 11707840
0.231610 0.032928 0.586000 11773378
0.232005 0.036338 0.587000 11773378
0.233586 0.039963 0.591000 11773380
0.233981 0.043413 0.592000 11839172
0.234771 0.046954 0.594000 11839173
0.235562 0.050518 0.596000 11905220
0.236352 0.054105 0.598000 11970502
0.237143 0.057714 0.600000 11970760
0.247420 -0.053993 0.623000 13683140
0.247420 -0.050433 0.623000 12433630
0.247420 -0.046873 0.623000 11775443
0.247817 -0.043383 0.624000 11446224
0.248214 -0.039881 0.625000 11117768
0.249803 -0.036542 0.629000 10591425
0.250597 -0.033052 0.631000 10130099
0.250597 -0.029447 0.631000 9406887
0.251789 -0.025964 0.634000 8880289
0.252186 -0.022376 0.635000 8552093
0.252583 -0.018777 0.636000 8024975
0.252186 -0.015119 0.635000 12103612
0.222797 -0.010151 0.561000 11048126
0.223591 -0.006970 0.563000 11246516
0.223989 -0.003760 0.564000 11247030
0.224783 -0.000539 0.566000 11312822
0.225577 0.002705 0.568000 11312566
0.225974 0.005961 0.569000 11443893
0.227166 0.009261 0.572000 11444666
0.227960 0.012573 0.574000 11509948
0.228754 0.015909 0.576000 11575739
0.229151 0.019233 0.577000 11641277
0.229946 0.022609 0.579000 11707072
0.231137 0.026051 0.582000 11707585
0.231931 0.029478 0.584000 11773890
0.231931 0.032815 0.584000 11773892
0.233123 0.036338 0.587000 11839171
0.234314 0.039895 0.590000 11773637
0.235109 0.043413 0.592000 11904966
0.235903 0.046954 0.594000 11905222
0.236697 0.050518 0.596000 11971269
0.237491 0.054105 0.598000 11971015
0.237889 0.057618 0.599000 12102345
0.248607 -0.053993 0.623000 13680579
0.248208 -0.050352 0.622000 12235995
0.248607 -0.046873 0.623000 11709906
0.249006 -0.043383 0.624000 11380428
0.249405 -0.039881 0.625000 10986437
0.250602 -0.036484 0.628000 10459583
0.251001 -0.032948 0.629000 9998769
0.251799 -0.029447 0.631000 9275303
0.252996 -0.025964 0.634000 8814751
0.252996 -0.022341 0.634000 8551579
0.253395 -0.018748 0.635000 8090254
0.253395 -0.015119 0.635000 12041397
0.223866 -0.010151 0.561000 10984130
0.224265 -0.006958 0.562000 11312053
0.225063 -0.003760 0.564000 11313079
0.225462 -0.000538 0.565000 11378617
0.226659 0.002705 0.568000 11378361
0.227058 0.005961 0.569000 11509945
0.228255 0.009261 0.572000 11510205
0.229053 0.012573 0.574000 11575487
0.229851 0.015909 0.576000 11641790
0.229851 0.019200 0.576000 11707071
0.231049 0.022609 0.579000 11707586
0.232246 0.026051 0.582000 11773380
0.233044 0.029478 0.584000 11839684
0.233443 0.032871 0.585000 11839686
0.234241 0.036338 0.587000 11839941
0.235438 0.039895 0.590000 11839429
0.236236 0.043413 0.592000 11970760
0.237034 0.046954 0.594000 12036552
0.237832 0.050518 0.596000 12036808
0.238630 0.054105 0.598000 12037067
0.239030 0.057618 0.599000 12168139
0.249392 -0.050352 0.622000 12236760
0.249392 -0.046798 0.622000 11643857
0.250194 -0.043383 0.624000 11249096
0.250595 -0.039881 0.625000 10854850
0.251798 -0.036484 0.628000 10328252
0.252199 -0.032948 0.629000 9801904
0.253001 -0.029447 0.631000 9209254
0.253803 -0.025923 0.633000 8748956
0.254204 -0.022341 0.634000 8486040
0.254605 -0.018748 0.635000 8287373
0.254605 -0.015119 0.635000 11511982
0.224533 -0.010133 0.560000 11048390
0.224934 -0.006946 0.561000 11378358
0.226137 -0.003760 0.564000 11509945
0.226538 -0.000538 0.565000 11444667
0.227340 0.002700 0.567000 11509692
0.228142 0.005961 0.569000 11575997
0.228944 0.009245 0.571000 11641536
0.229746 0.012551 0.573000 11641537
0.230548 0.015881 0.575000 11707841
0.230949 0.019200 0.576000 11838656
0.231750 0.022570 0.578000 11838915
0.232953 0.026007 0.581000 11839430
0.233755 0.029428 0.583000 11905479
0.234156 0.032815 0.584000 11905735
0.235359 0.036338 0.587000 11905734
0.236562 0.039895 0.590000 11905477
0.236963 0.043340 0.591000 12036809
0.237765 0.046875 0.593000 12036810
0.238968 0.050518 0.596000 12102603
0.239770 0.054105 0.598000 12168398
0.240170 0.057618 0.599000 12234189
0.251786 -0.054167 0.625000 13679296
0.250980 -0.050433 0.623000 12237786
0.250577 -0.046798 0.622000 11512013
0.250980 -0.043313 0.623000 11182791
0.251786 -0.039881 0.625000 10723264
0.252591 -0.036426 0.627000 10262457
0.253397 -0.032948 0.629000 9604525
0.253397 -0.029353 0.629000 9143204
0.255009 -0.025923 0.633000 8683163
0.255411 -0.022341 0.634000 8485783
0.255814 -0.018748 0.635000 8483467
0.255814 -0.015119 0.635000 10991247
0.225600 -0.010133 0.560000 11050440
0.226003 -0.006946 0.561000 11509688
0.226809 -0.003753 0.563000 11706555
0.227614 -0.000538 0.565000 11510716
0.228420 0.002700 0.567000 11641278
0.229226 0.005961 0.569000 11641791
0.230031 0.009245 0.571000 11773122
0.230837 0.012551 0.573000 11707842
0.231643 0.015881 0.575000 11773379
0.232046 0.019200 0.576000 11904450
0.232851 0.022570 0.578000 11904709
0.234060 0.026007 0.581000 11905479
0.234866 0.029428 0.583000 11971272
0.235269 0.032815 0.584000 11971529
0.236074 0.036276 0.586000 11905737
0.237686 0.039895 0.590000 12037065
0.238089 0.043340 0.591000 12037323
0.238491 0.046796 0.592000 12102603
0.239700 0.050433 0.595000 12168908
0.240506 0.054014 0.597000 12234191
0.241714 0.057714 0.600000 12234447
0.252976 -0.054167 0.625000 13548991
0.251762 -0.050352 0.622000 12236507
0.251762 -0.046798 0.622000 11510474
0.252167 -0.043313 0.623000 11051206
0.252976 -0.039881 0.625000 10657470
0.253381 -0.036368 0.626000 10196150
0.254190 -0.032895 0.628000 9538731
0.254595 -0.029353 0.629000 9077665
0.255810 -0.025882 0.632000 8682906
0.256619 -0.022341 0.634000 8354198
0.257024 -0.018748 0.635000 8418186
0.257429 -0.015143 0.636000 10853232
0.226262 -0.010115 0.559000 11247049
0.226262 -0.006921 0.559000 11575481
0.227881 -0.003753 0.563000 11641021
0.228286 -0.000537 0.564000 11576253
0.229500 0.002700 0.567000 11707328
0.229905 0.005950 0.568000 11707585
0.231119 0.009245 0.571000 11838916
0.231929 0.012551 0.573000 11773379
0.232738 0.015881 0.575000 11838918
0.233143 0.019200 0.576000 11904964
0.233952 0.022570 0.578000 11970759
0.234762 0.025962 0.580000 11971272
0.235976 0.029428 0.583000 12037321
0.236381 0.032815 0.584000 12037322
0.237190 0.036276 0.586000 11971531
0.238405 0.039828 0.589000 12102860
0.239214 0.043340 0.591000 12168653
0.239619 0.046796 0.592000 12168908
0.240429 0.050349 0.594000 12234957
0.241643 0.054014 0.597000 12300239
0.242452 0.057618 0.599000 12300241
