# .PCD v.7 - Point Cloud Data file format
VERSION .7
FIELDS x y z rgb
SIZE 4 4 4 4
TYPE F F F I
COUNT 1 1 1 1
WIDTH 1282
HEIGHT 1
POINTS 1282
DATA ascii
-0.231086 -0.056914 0.720000 7157804
-0.231728 -0.052947 0.722000 9046308
-0.233011 -0.049091 0.726000 10382159
-0.233011 -0.044943 0.726000 8268065
-0.233653 -0.040907 0.728000 8463380
-0.233974 -0.036797 0.729000 9383452
-0.234937 -0.032766 0.732000 10907932
-0.235579 -0.028661 0.734000 11045166
-0.236221 -0.024533 0.736000 74538
-0.214081 -0.179572 0.671000 11546704
-0.210890 -0.173119 0.661000 10617153
-0.210890 -0.169342 0.661000 10354974
-0.210890 -0.165565 0.661000 10622240
-0.212167 -0.162767 0.665000 9044769
-0.212486 -0.159206 0.666000 8913943
-0.213762 -0.156333 0.670000 8782613
-0.214081 -0.152732 0.671000 8586515
-0.213762 -0.148676 0.670000 8455182
-0.215038 -0.145712 0.674000 8325904
-0.215038 -0.141861 0.674000 2951190
-0.215357 -0.138214 0.675000 1313813
-0.216633 -0.135153 0.679000 1444621
-0.216952 -0.131467 0.680000 1444876
-0.216952 -0.127581 0.680000 1510414
-0.217590 -0.124059 0.682000 1246481
-0.219186 -0.121043 0.687000 5834764
-0.220143 -0.117629 0.690000 9123893
-0.220143 -0.113686 0.690000 9857648
-0.220462 -0.109902 0.691000 10513270
-0.221100 -0.106260 0.693000 9519373
-0.221419 -0.102448 0.694000 8456247
-0.221738 -0.098624 0.695000 8270130
-0.222695 -0.095061 0.698000 9732901
-0.224290 -0.091725 0.703000 9051401
-0.224610 -0.087832 0.704000 10635043
-0.224929 -0.083929 0.705000 7938333
-0.225886 -0.080240 0.708000 7866132
-0.226524 -0.076410 0.710000 8662296
-0.226843 -0.072454 0.711000 9658686
-0.227800 -0.068680 0.714000 8596262
-0.229395 -0.065052 0.719000 8063273
-0.229714 -0.061029 0.720000 7751726
-0.230352 -0.057072 0.722000 6889012
-0.230671 -0.053020 0.723000 9257260
-0.231629 -0.049091 0.726000 10519152
-0.232267 -0.045067 0.728000 8466980
-0.232267 -0.040907 0.728000 8202776
-0.233224 -0.036898 0.731000 8791594
-0.233543 -0.032766 0.732000 10314760
-0.234181 -0.028661 0.734000 11045135
-0.234819 -0.024533 0.736000 2961712
-0.212486 -0.179305 0.670000 11611981
-0.209631 -0.173119 0.661000 10554177
-0.209631 -0.169342 0.661000 10551841
-0.209949 -0.165815 0.662000 10684446
-0.211534 -0.163256 0.667000 9307169
-0.211534 -0.159445 0.667000 9110551
-0.212803 -0.156567 0.671000 9044760
-0.213120 -0.152960 0.672000 8782870
-0.214071 -0.149786 0.675000 8651796
-0.214071 -0.145929 0.675000 8522512
-0.214071 -0.142071 0.675000 2819099
-0.214389 -0.138419 0.676000 1248023
-0.215657 -0.135352 0.680000 1248270
-0.216291 -0.131853 0.682000 1640973
-0.216291 -0.127956 0.682000 1706511
-0.216609 -0.124241 0.683000 722194
-0.217877 -0.121043 0.687000 7080971
-0.218511 -0.117458 0.689000 9715512
-0.218829 -0.113686 0.690000 10848626
-0.219146 -0.109902 0.691000 11631213
-0.219780 -0.106260 0.693000 9987160
-0.220097 -0.102448 0.694000 8329519
-0.221049 -0.098908 0.697000 8002589
-0.222000 -0.095333 0.700000 11037463
-0.222951 -0.091725 0.703000 8789550
-0.223269 -0.087832 0.704000 9790257
-0.223586 -0.083929 0.705000 7864604
-0.224537 -0.080240 0.708000 7802902
-0.225171 -0.076410 0.710000 8660765
-0.226123 -0.072658 0.713000 8931124
-0.226440 -0.068680 0.714000 7933475
-0.228026 -0.065052 0.719000 7735834
-0.228343 -0.061029 0.720000 7755830
-0.228977 -0.057072 0.722000 6627630
-0.229929 -0.053167 0.725000 9524759
-0.230246 -0.049091 0.726000 10583142
-0.230880 -0.045067 0.728000 8663335
-0.231197 -0.040963 0.729000 7874068
-0.231831 -0.036898 0.731000 8198692
-0.232783 -0.032855 0.734000 9718543
-0.233417 -0.028739 0.736000 11042082
-0.211210 -0.179305 0.670000 11939914
-0.209003 -0.173643 0.663000 10682945
-0.208688 -0.169598 0.662000 10748708
-0.209949 -0.166817 0.666000 10486300
-0.210894 -0.163746 0.669000 9635104
-0.210894 -0.159923 0.669000 9372696
-0.211525 -0.156567 0.671000 9241370
-0.211840 -0.152960 0.672000 9044762
-0.212786 -0.149786 0.675000 8783129
-0.212786 -0.145929 0.675000 8654864
-0.213101 -0.142282 0.676000 2426656
-0.214047 -0.139033 0.679000 1313561
-0.214362 -0.135352 0.680000 1313807
-0.215308 -0.132047 0.683000 1640974
-0.215308 -0.128144 0.683000 1575695
-0.215623 -0.124423 0.684000 787220
-0.217830 -0.121748 0.691000 7407881
-0.217514 -0.117629 0.690000 9858875
-0.217830 -0.113850 0.691000 9915763
-0.217830 -0.109902 0.691000 9986149
-0.218460 -0.106260 0.693000 10120355
-0.219090 -0.102595 0.695000 7799079
-0.219721 -0.098908 0.697000 9458439
-0.220667 -0.095333 0.700000 10902025
-0.221612 -0.091725 0.703000 8863827
-0.221928 -0.087832 0.704000 10060095
-0.222873 -0.084167 0.707000 7738906
-0.223189 -0.080240 0.708000 6560536
-0.224134 -0.076517 0.711000 7810337
-0.224765 -0.072658 0.713000 8333866
-0.225080 -0.068680 0.714000 7801887
-0.226656 -0.065052 0.719000 7669772
-0.226971 -0.061029 0.720000 7363390
-0.227602 -0.057072 0.722000 6554921
-0.228548 -0.053167 0.725000 9391106
-0.228863 -0.049091 0.726000 10714716
-0.229493 -0.045067 0.728000 8796458
-0.229809 -0.040963 0.729000 8134160
-0.230439 -0.036898 0.731000 8329758
-0.231385 -0.032855 0.734000 9387543
-0.232330 -0.028778 0.737000 9854516
-0.210560 -0.183680 0.672000 11089483
-0.210247 -0.179572 0.671000 12201547
-0.208680 -0.174429 0.666000 10816825
-0.207740 -0.169854 0.663000 10945587
-0.208993 -0.167068 0.667000 10290989
-0.209933 -0.163990 0.670000 9896993
-0.209933 -0.160162 0.670000 9569565
-0.210560 -0.156800 0.672000 9437982
-0.211500 -0.153643 0.675000 9241372
-0.211500 -0.149786 0.675000 8979482
-0.211813 -0.146145 0.676000 8784914
-0.212440 -0.142703 0.678000 2033956
-0.213067 -0.139238 0.680000 1379098
-0.214320 -0.136149 0.684000 1379859
-0.214320 -0.132240 0.684000 1641231
-0.214007 -0.128144 0.683000 1509904
-0.215260 -0.124969 0.687000 853526
-0.216513 -0.121748 0.691000 7736333
-0.216200 -0.117629 0.690000 9912130
-0.216513 -0.113850 0.691000 9070480
-0.216513 -0.109902 0.691000 8343935
-0.217767 -0.106567 0.695000 10240383
-0.218707 -0.103038 0.698000 7277356
-0.219333 -0.099333 0.700000 10909468
-0.220273 -0.095742 0.703000 10709780
-0.220587 -0.091855 0.704000 8935737
-0.220587 -0.087832 0.704000 10249508
-0.221527 -0.084167 0.707000 7667991
-0.221840 -0.080240 0.708000 5317657
-0.222780 -0.076517 0.711000 7028249
-0.223720 -0.072760 0.714000 7676973
-0.224347 -0.068872 0.716000 7670303
-0.225287 -0.065052 0.719000 7604493
-0.225600 -0.061029 0.720000 7037490
-0.226227 -0.057072 0.722000 6429222
-0.227167 -0.053167 0.725000 9321486
-0.228107 -0.049227 0.728000 10779230
-0.228107 -0.045067 0.728000 8989487
-0.228420 -0.040963 0.729000 8331033
-0.229360 -0.036949 0.732000 8396574
-0.230613 -0.032945 0.736000 8992281
-0.231553 -0.028856 0.739000 8730655
-0.209280 -0.183680 0.672000 10892355
-0.208969 -0.179572 0.671000 12135499
-0.208346 -0.175214 0.669000 11076657
-0.208346 -0.171391 0.669000 11212097
-0.208657 -0.167819 0.670000 10488639
-0.208657 -0.163990 0.670000 10094114
-0.208657 -0.160162 0.670000 9831970
-0.209280 -0.156800 0.672000 9700898
-0.210214 -0.153643 0.675000 9503519
-0.210214 -0.149786 0.675000 9176858
-0.210526 -0.146145 0.676000 8915731
-0.211149 -0.142703 0.678000 1837863
-0.212394 -0.139648 0.682000 1575963
-0.213017 -0.136149 0.684000 1445143
-0.213017 -0.132240 0.684000 1706512
-0.213640 -0.128707 0.686000 1641488
-0.214886 -0.125514 0.690000 918297
-0.215197 -0.121748 0.691000 8064273
-0.215197 -0.117799 0.691000 9847113
-0.215197 -0.113850 0.691000 9663916
-0.215197 -0.109902 0.691000 10059673
-0.217066 -0.106873 0.697000 10109787
-0.217066 -0.102890 0.697000 7471409
-0.217377 -0.099050 0.698000 10313008
-0.219246 -0.095878 0.704000 10390048
-0.219246 -0.091855 0.704000 9787934
-0.219557 -0.087957 0.705000 9978377
-0.220491 -0.084286 0.708000 7800596
-0.221114 -0.080467 0.710000 6693402
-0.222049 -0.076732 0.713000 7162897
-0.222983 -0.072964 0.716000 7417904
-0.222983 -0.068872 0.716000 7474206
-0.223917 -0.065052 0.719000 7276302
-0.224851 -0.061198 0.722000 6511142
-0.225163 -0.057151 0.723000 6161188
-0.226097 -0.053240 0.726000 9185306
-0.226720 -0.049227 0.728000 10977377
-0.227031 -0.045129 0.729000 8925748
-0.227031 -0.040963 0.729000 8264227
-0.227966 -0.036949 0.732000 8396318
-0.229211 -0.032945 0.736000 8727580
-0.230146 -0.028856 0.739000 8263433
-0.208000 -0.183680 0.672000 10626129
-0.207690 -0.179572 0.671000 12070222
-0.207381 -0.175476 0.670000 11340344
-0.207071 -0.171391 0.669000 11537724
-0.207381 -0.167819 0.670000 10686266
-0.207690 -0.164235 0.671000 10225704
-0.207690 -0.160401 0.671000 10029093
-0.208929 -0.157500 0.675000 9963809
-0.209238 -0.153870 0.676000 9766176
-0.209238 -0.150008 0.676000 9373977
-0.209238 -0.146145 0.676000 9046042
-0.210167 -0.142913 0.679000 1642538
-0.211095 -0.139648 0.682000 1707803
-0.211714 -0.136149 0.684000 1576214
-0.211714 -0.132240 0.684000 1707026
-0.212643 -0.128894 0.687000 1839122
-0.213262 -0.125332 0.689000 919069
-0.213881 -0.121748 0.691000 8324874
-0.213571 -0.117629 0.690000 9780307
-0.213881 -0.113850 0.691000 10316178
-0.214500 -0.110220 0.693000 11756690
-0.215119 -0.106567 0.695000 9909349
-0.215119 -0.102595 0.695000 7672875
-0.216667 -0.099333 0.700000 9717812
-0.217905 -0.095878 0.704000 9981723
-0.218214 -0.091986 0.705000 10650130
-0.218833 -0.088207 0.707000 9654301
-0.219143 -0.084286 0.708000 7931157
-0.219762 -0.080467 0.710000 8067606
-0.220690 -0.076732 0.713000 7361304
-0.221619 -0.072964 0.716000 7163187
-0.221929 -0.068969 0.717000 7344423
-0.222548 -0.065052 0.719000 6950939
-0.223476 -0.061198 0.722000 5986855
-0.223786 -0.057151 0.723000 5905439
-0.224714 -0.053240 0.726000 9046543
-0.225333 -0.049227 0.728000 11171917
-0.225643 -0.045129 0.729000 8923433
-0.226262 -0.041075 0.731000 8196893
-0.226571 -0.036949 0.732000 8460828
-0.227810 -0.032945 0.736000 8395550
-0.228738 -0.028856 0.739000 7867926
-0.206720 -0.183680 0.672000 11345246
-0.206105 -0.179305 0.670000 12002128
-0.206105 -0.175476 0.670000 11471423
-0.205797 -0.171391 0.669000 11406903
-0.206105 -0.167819 0.670000 10749493
-0.206720 -0.164480 0.672000 10422062
-0.207643 -0.161357 0.675000 10225961
-0.208566 -0.158200 0.678000 10094880
-0.208566 -0.154326 0.678000 9962786
-0.208566 -0.150451 0.678000 9636375
-0.208566 -0.146577 0.678000 7800609
-0.209181 -0.143124 0.680000 1774124
-0.210104 -0.139852 0.683000 1773852
-0.211027 -0.136547 0.686000 1708053
-0.211027 -0.132627 0.686000 1903892
-0.211950 -0.129270 0.689000 1839124
-0.212257 -0.125514 0.690000 1049377
-0.213180 -0.122100 0.693000 8718082
-0.213180 -0.118140 0.693000 9787228
-0.213180 -0.114180 0.693000 10903672
-0.213180 -0.110220 0.693000 11338123
-0.213795 -0.106567 0.695000 9719150
-0.214410 -0.102890 0.697000 7864613
-0.215641 -0.099475 0.701000 10777400
-0.216564 -0.095878 0.704000 9717783
-0.217487 -0.092247 0.707000 10313478
-0.217487 -0.088207 0.707000 9398066
-0.217794 -0.084286 0.708000 8062485
-0.218410 -0.080467 0.710000 8196627
-0.219640 -0.076840 0.714000 7550750
-0.220563 -0.073066 0.717000 6973494
-0.221178 -0.069161 0.719000 6631983
-0.221486 -0.065143 0.720000 6559016
-0.222101 -0.061198 0.722000 5527336
-0.222409 -0.057151 0.723000 5704986
-0.223331 -0.053240 0.726000 8589060
-0.223947 -0.049227 0.728000 11171896
-0.224254 -0.045129 0.729000 8662814
-0.224870 -0.041075 0.731000 8064536
-0.225792 -0.037050 0.734000 8328217
-0.226715 -0.032990 0.737000 8130081
-0.227330 -0.028856 0.739000 8067106
-0.205440 -0.183680 0.672000 12008587
-0.205134 -0.179572 0.671000 11932743
-0.204829 -0.175476 0.670000 11602738
-0.204829 -0.171648 0.670000 11276082
-0.205134 -0.168070 0.671000 10816046
-0.205134 -0.164235 0.671000 10618675
-0.206663 -0.161596 0.676000 10357293
-0.207274 -0.158200 0.678000 10291752
-0.207886 -0.154781 0.680000 10160421
-0.207580 -0.150673 0.679000 9963550
-0.207580 -0.146793 0.679000 6492195
-0.207886 -0.143124 0.680000 1906731
-0.209109 -0.140057 0.684000 1839390
-0.209720 -0.136547 0.686000 1774106
-0.210026 -0.132820 0.687000 2035735
-0.210943 -0.129457 0.690000 1905176
-0.211249 -0.125696 0.691000 1181217
-0.211860 -0.122100 0.693000 9109766
-0.212166 -0.118310 0.694000 9788525
-0.212166 -0.114345 0.694000 11504250
-0.212166 -0.110379 0.694000 10907789
-0.213083 -0.106873 0.697000 9519224
-0.213389 -0.103038 0.698000 7996953
-0.214917 -0.099759 0.703000 11900201
-0.215529 -0.096014 0.705000 9388576
-0.216140 -0.092247 0.707000 9993259
-0.216446 -0.088331 0.708000 9064494
-0.216446 -0.084286 0.708000 8193306
-0.217363 -0.080580 0.711000 8261908
-0.218280 -0.076840 0.714000 7804442
-0.219197 -0.073066 0.717000 6705970
-0.219809 -0.069161 0.719000 5920302
-0.220114 -0.065143 0.720000 6104611
-0.220726 -0.061198 0.722000 5133861
-0.221643 -0.057310 0.725000 5447706
-0.222560 -0.053387 0.728000 8193545
-0.222560 -0.049227 0.728000 11101470
-0.222866 -0.045129 0.729000 8465428
-0.223477 -0.041075 0.731000 7866898
-0.224394 -0.037050 0.734000 8195094
-0.225311 -0.032990 0.737000 7867162
-0.225923 -0.028856 0.739000 8201502
-0.204160 -0.183680 0.672000 12607160
-0.203552 -0.179305 0.670000 11869758
-0.203552 -0.175476 0.670000 11338534
-0.203552 -0.171648 0.670000 11012396
-0.203856 -0.168070 0.671000 10685223
-0.204160 -0.164480 0.672000 10684984
-0.205375 -0.161596 0.676000 10555186
-0.206287 -0.158433 0.679000 10423087
-0.206590 -0.154781 0.680000 10357544
-0.206590 -0.150895 0.680000 10096164
-0.206590 -0.147010 0.680000 4722981
-0.207198 -0.143545 0.682000 2299945
-0.208413 -0.140467 0.686000 1970719
-0.208717 -0.136746 0.687000 1905694
-0.208717 -0.132820 0.687000 2102041
-0.209932 -0.129645 0.691000 2035739
-0.210540 -0.126060 0.693000 1246242
-0.210844 -0.122276 0.694000 9706250
-0.211148 -0.118481 0.695000 10179453
-0.211148 -0.114510 0.695000 11168379
-0.211755 -0.110856 0.697000 11247247
-0.212059 -0.107027 0.698000 9586305
-0.212667 -0.103333 0.700000 8323341
-0.213578 -0.099759 0.703000 11699226
-0.214186 -0.096014 0.705000 8924969
-0.215097 -0.092377 0.708000 10320975
-0.215097 -0.088331 0.708000 9991978
-0.215705 -0.084524 0.710000 8193054
-0.216009 -0.080580 0.711000 8392981
-0.216920 -0.076840 0.714000 8066069
-0.218439 -0.073270 0.719000 7355438
-0.218743 -0.069257 0.720000 5593645
-0.218743 -0.065143 0.720000 5714205
-0.219350 -0.061198 0.722000 4805922
-0.220262 -0.057310 0.725000 5248538
-0.221173 -0.053387 0.728000 8194318
-0.221477 -0.049294 0.729000 9786627
-0.222085 -0.045252 0.731000 8396553
-0.222085 -0.041075 0.731000 7997452
-0.222996 -0.037050 0.734000 8194834
-0.224515 -0.033079 0.739000 7997716
-0.224819 -0.028895 0.740000 8200217
-0.202276 -0.179305 0.670000 11886726
-0.202276 -0.175476 0.670000 11087725
-0.202276 -0.171648 0.670000 10815591
-0.202578 -0.168070 0.671000 10554440
-0.202578 -0.164235 0.671000 10816822
-0.204691 -0.162074 0.678000 10686248
-0.205899 -0.159133 0.682000 10554917
-0.205899 -0.155236 0.682000 10488877
-0.205899 -0.151339 0.682000 10292772
-0.205899 -0.147442 0.682000 2889767
-0.206201 -0.143755 0.683000 2759209
-0.207107 -0.140467 0.686000 2102563
-0.207409 -0.136746 0.687000 2037024
-0.208314 -0.133400 0.690000 2167323
-0.208616 -0.129645 0.691000 2167067
-0.209220 -0.126060 0.693000 1247005
-0.209522 -0.122276 0.694000 10291743
-0.209824 -0.118481 0.695000 10511498
-0.210428 -0.114839 0.697000 10904224
-0.210730 -0.111015 0.698000 11500955
-0.211333 -0.107333 0.700000 9598577
-0.212239 -0.103776 0.703000 8598813
-0.212541 -0.099901 0.704000 11500308
-0.213447 -0.096287 0.707000 8399145
-0.213749 -0.092377 0.708000 10583859
-0.214352 -0.088581 0.710000 10838828
-0.214654 -0.084643 0.711000 8258075
-0.215258 -0.080807 0.713000 8458515
-0.215560 -0.076840 0.714000 8327448
-0.217070 -0.073270 0.719000 7940128
-0.217371 -0.069257 0.720000 5266731
-0.217371 -0.065143 0.720000 5262634
-0.218277 -0.061283 0.723000 4543276
-0.218881 -0.057310 0.725000 4991770
-0.219787 -0.053387 0.728000 8195599
-0.220089 -0.049294 0.729000 8463370
-0.220692 -0.045252 0.731000 8262920
-0.220994 -0.041131 0.732000 8062985
-0.222202 -0.037150 0.736000 8194585
-0.223108 -0.033079 0.739000 8129561
-0.223410 -0.028895 0.740000 8200727
-0.201000 -0.179305 0.670000 12688589
-0.201000 -0.175476 0.670000 12222132
-0.201300 -0.164235 0.671000 10885939
-0.203700 -0.162313 0.679000 10553118
-0.204900 -0.159367 0.683000 10423834
-0.204900 -0.155464 0.683000 10488883
-0.204600 -0.151339 0.682000 9837348
-0.204600 -0.147442 0.682000 2954025
-0.205200 -0.143966 0.684000 2694696
-0.206100 -0.140671 0.687000 2300456
-0.206700 -0.137144 0.689000 2168610
-0.207300 -0.133593 0.691000 2298398
-0.207900 -0.130020 0.693000 2102298
-0.207900 -0.126060 0.693000 1245976
-0.208200 -0.122276 0.694000 10299444
-0.208500 -0.118481 0.695000 10641046
-0.209100 -0.114839 0.697000 11638725
-0.209400 -0.111015 0.698000 11439014
-0.210300 -0.107487 0.701000 9653344
-0.210900 -0.103776 0.703000 10050605
-0.211200 -0.099901 0.704000 11438349
-0.212100 -0.096287 0.707000 8192298
-0.213000 -0.092638 0.710000 11238423
-0.213000 -0.088581 0.710000 10049327
-0.213900 -0.084881 0.713000 8520472
-0.214200 -0.080920 0.714000 8656145
-0.214800 -0.077055 0.716000 8459546
-0.215700 -0.073270 0.719000 8133137
-0.216000 -0.069257 0.720000 5852713
-0.216000 -0.065143 0.720000 4741176
-0.217500 -0.061452 0.725000 4083254
-0.217800 -0.057389 0.726000 4336922
-0.218400 -0.053387 0.728000 7999247
-0.219300 -0.049430 0.731000 8258577
-0.219600 -0.045314 0.732000 8195079
-0.219600 -0.041131 0.732000 8126981
-0.220800 -0.037150 0.736000 8063263
-0.221700 -0.033079 0.739000 8128798
-0.222000 -0.028895 0.740000 8265236
-0.202705 -0.162552 0.680000 10366817
-0.203599 -0.159367 0.683000 10294874
-0.203301 -0.155236 0.682000 10489153
-0.203301 -0.151339 0.682000 9449259
-0.203599 -0.147658 0.683000 2955311
-0.204493 -0.144387 0.686000 2629676
-0.204791 -0.140671 0.687000 2432041
-0.205686 -0.137343 0.690000 2300453
-0.205984 -0.133593 0.691000 2364449
-0.206878 -0.130208 0.694000 2103323
-0.206878 -0.126242 0.694000 1181718
-0.207176 -0.122452 0.695000 10296630
-0.207772 -0.118822 0.697000 10708874
-0.208070 -0.115004 0.698000 12349330
-0.208667 -0.111333 0.700000 11295632
-0.209561 -0.107793 0.703000 9783661
-0.209859 -0.103924 0.704000 11423540
-0.210157 -0.100043 0.705000 11439643
-0.210753 -0.096287 0.707000 8007194
-0.211648 -0.092638 0.710000 11959863
-0.211946 -0.088706 0.711000 9191470
-0.212840 -0.085000 0.714000 8717090
-0.213436 -0.081147 0.716000 8786965
-0.214330 -0.077378 0.719000 8655382
-0.214629 -0.073371 0.720000 8262426
-0.214629 -0.069257 0.720000 6439986
-0.215225 -0.065324 0.722000 4217137
-0.216119 -0.061452 0.725000 3621680
-0.216417 -0.057389 0.726000 3618845
-0.217013 -0.053387 0.728000 7805461
-0.217908 -0.049430 0.731000 8002846
-0.218206 -0.045314 0.732000 8194352
-0.218206 -0.041131 0.732000 8136226
-0.219398 -0.037150 0.736000 7999000
-0.220292 -0.033079 0.739000 8065312
-0.220590 -0.028895 0.740000 8330782
-0.201410 -0.162552 0.680000 11565220
-0.202594 -0.159600 0.684000 11228314
-0.202298 -0.155464 0.683000 10882639
-0.202298 -0.151561 0.683000 6820657
-0.202298 -0.147658 0.683000 2957364
-0.203187 -0.144387 0.686000 2891311
-0.203483 -0.140671 0.687000 2498091
-0.204668 -0.137542 0.691000 2431783
-0.204668 -0.133593 0.691000 2430245
-0.205556 -0.130208 0.694000 2300188
-0.205556 -0.126242 0.694000 1377555
-0.206445 -0.122805 0.697000 10040119
-0.206741 -0.118992 0.698000 10709887
-0.206741 -0.115004 0.698000 11953502
-0.207630 -0.111492 0.701000 11228538
-0.208518 -0.107947 0.704000 9976185
-0.208814 -0.104071 0.705000 12151098
-0.208814 -0.100043 0.705000 11628840
-0.209703 -0.096423 0.708000 9053707
-0.210295 -0.092638 0.710000 11966039
-0.211184 -0.088955 0.713000 8921901
-0.211480 -0.085000 0.714000 8651308
-0.212072 -0.081147 0.716000 8984345
-0.212961 -0.077378 0.719000 8785938
-0.213257 -0.073371 0.720000 8524834
-0.213257 -0.069257 0.720000 5721658
-0.213850 -0.065324 0.722000 4150826
-0.215034 -0.061537 0.726000 3161898
-0.215034 -0.057389 0.726000 3752225
-0.215923 -0.053460 0.729000 6308378
-0.216811 -0.049497 0.732000 8278571
-0.217404 -0.045438 0.734000 8673625
-0.217404 -0.041244 0.734000 7830079
-0.218292 -0.037201 0.737000 7421201
-0.219181 -0.033124 0.740000 8198178
-0.219773 -0.028973 0.742000 8264232
-0.201291 -0.159600 0.684000 12163251
-0.200997 -0.155464 0.683000 11299979
-0.200997 -0.151561 0.683000 4195180
-0.200997 -0.147658 0.683000 2890815
-0.201880 -0.144387 0.686000 3153968
-0.202174 -0.140671 0.687000 2563375
-0.203351 -0.137542 0.691000 2628136
-0.203351 -0.133593 0.691000 2497319
-0.204234 -0.130208 0.694000 2497058
-0.204529 -0.126424 0.695000 1575962
-0.205411 -0.122981 0.698000 9841189
-0.205411 -0.118992 0.698000 10700375
-0.206000 -0.115333 0.700000 11636567
-0.206294 -0.111492 0.701000 11164289
-0.207471 -0.108100 0.705000 10173255
-0.208060 -0.104367 0.707000 12868393
-0.208354 -0.100469 0.708000 11896642
-0.208943 -0.096695 0.710000 10108189
-0.208943 -0.092638 0.710000 12031053
-0.210120 -0.089080 0.714000 8657705
-0.210709 -0.085238 0.716000 8585505
-0.210709 -0.081147 0.716000 9113876
-0.211886 -0.077486 0.720000 8915989
-0.211886 -0.073371 0.720000 8728104
-0.212474 -0.069450 0.722000 5068354
-0.212769 -0.065414 0.723000 4018483
-0.213651 -0.061537 0.726000 2701860
-0.213651 -0.057389 0.726000 3816731
-0.214534 -0.053460 0.729000 4872488
-0.215417 -0.049497 0.732000 8483386
-0.216006 -0.045438 0.734000 9210208
-0.216889 -0.041412 0.737000 7499836
-0.217477 -0.037302 0.739000 6903838
-0.218360 -0.033213 0.742000 8264988
-0.218360 -0.028973 0.742000 8128298
-0.199696 -0.151561 0.683000 7364263
-0.200573 -0.144387 0.686000 2955825
-0.201450 -0.141081 0.689000 2758963
-0.202035 -0.137542 0.691000 2759465
-0.202035 -0.133593 0.691000 2694697
-0.203790 -0.130770 0.697000 2563111
-0.203790 -0.126788 0.697000 2298146
-0.204082 -0.122981 0.698000 8066578
-0.204667 -0.119333 0.700000 10420528
-0.205544 -0.115828 0.703000 10964303
-0.205836 -0.111970 0.704000 10903176
-0.206713 -0.108407 0.707000 10231573
-0.206713 -0.104367 0.707000 12800792
-0.207006 -0.100469 0.708000 11499612
-0.207590 -0.096695 0.710000 11477807
-0.208468 -0.093030 0.713000 12158019
-0.208760 -0.089080 0.714000 8388901
-0.209345 -0.085238 0.716000 9511445
-0.209637 -0.081260 0.717000 9244430
-0.210514 -0.077486 0.720000 9047320
-0.211099 -0.073575 0.722000 8870959
-0.211099 -0.069450 0.722000 5006665
-0.211976 -0.065595 0.725000 3754044
-0.212853 -0.061707 0.728000 2896414
-0.212853 -0.057547 0.728000 3684118
-0.213730 -0.053607 0.731000 5004598
-0.214608 -0.049632 0.734000 7765065
-0.215192 -0.045562 0.736000 8288870
-0.216070 -0.041525 0.739000 7295802
-0.216362 -0.037352 0.740000 7943466
-0.216947 -0.033213 0.742000 8592407
-0.200138 -0.141081 0.689000 2954800
-0.201300 -0.137940 0.693000 2890288
-0.201300 -0.133980 0.693000 2890795
-0.202752 -0.130958 0.698000 2629160
-0.203333 -0.127333 0.700000 3020834
-0.204205 -0.123862 0.703000 6294048
-0.204205 -0.119845 0.703000 10096427
-0.204205 -0.115828 0.703000 10224206
-0.204786 -0.112129 0.705000 10564694
-0.205367 -0.108407 0.707000 10354962
-0.205657 -0.104514 0.708000 12750132
-0.206238 -0.100752 0.710000 11172958
-0.206529 -0.096831 0.711000 12870187
-0.207400 -0.093160 0.714000 12290097
-0.207981 -0.089330 0.716000 8065073
-0.208271 -0.085357 0.717000 10519117
-0.208852 -0.081487 0.719000 9373984
-0.209143 -0.077486 0.720000 9243933
-0.209724 -0.073575 0.722000 8994863
-0.210014 -0.069546 0.723000 4947783
-0.210595 -0.065595 0.725000 3491647
-0.211467 -0.061707 0.728000 3092264
-0.211467 -0.057547 0.728000 3553825
-0.212338 -0.053607 0.731000 5134907
-0.213210 -0.049632 0.734000 7039050
-0.213790 -0.045562 0.736000 7364675
-0.214662 -0.041525 0.739000 7023907
-0.214952 -0.037352 0.740000 8985893
-0.215533 -0.033213 0.742000 8922654
-0.199980 -0.137940 0.693000 2692406
-0.199980 -0.133980 0.693000 2955820
-0.202000 -0.131333 0.700000 2759977
-0.202289 -0.127515 0.701000 2889762
-0.203443 -0.124214 0.705000 5245742
-0.203443 -0.120186 0.705000 10560038
-0.203154 -0.115992 0.704000 10358860
-0.204020 -0.112447 0.707000 10617637
-0.204309 -0.108560 0.708000 10690062
-0.204886 -0.104810 0.710000 12892497
-0.205174 -0.100894 0.711000 11696223
-0.205174 -0.096831 0.711000 13346856
-0.206617 -0.093421 0.716000 12289822
-0.206906 -0.089454 0.717000 10748221
-0.206906 -0.085357 0.717000 12229509
-0.207483 -0.081487 0.719000 9109809
-0.208349 -0.077701 0.722000 9307682
-0.208637 -0.073677 0.723000 9124143
-0.209214 -0.069738 0.725000 5337412
-0.209503 -0.065686 0.726000 4150081
-0.210369 -0.061791 0.729000 3223602
-0.210369 -0.057626 0.729000 5390125
-0.211234 -0.053680 0.732000 6701887
-0.212389 -0.049768 0.736000 8081226
-0.212677 -0.045624 0.737000 8137247
-0.213254 -0.041525 0.739000 8129805
-0.213543 -0.037352 0.740000 9048608
-0.214986 -0.033348 0.745000 10305062
-0.200667 -0.131333 0.700000 2891044
-0.201527 -0.127879 0.703000 2694180
-0.202100 -0.124214 0.705000 4131882
-0.202100 -0.120186 0.705000 11017772
-0.202100 -0.116157 0.705000 10558791
-0.202673 -0.112447 0.707000 10687791
-0.202960 -0.108560 0.708000 11017012
-0.203533 -0.104810 0.710000 13016658
-0.204393 -0.101178 0.713000 12154710
-0.204680 -0.097240 0.714000 13737526
-0.205540 -0.093551 0.717000 12299561
-0.206113 -0.089704 0.719000 13466979
-0.206400 -0.085714 0.720000 13944719
-0.206400 -0.081600 0.720000 8865882
-0.207260 -0.077809 0.723000 9372946
-0.207833 -0.073881 0.725000 9197648
-0.207833 -0.069738 0.725000 5796415
-0.208120 -0.065686 0.726000 4807487
-0.208980 -0.061791 0.729000 3419694
-0.209553 -0.057784 0.731000 7220521
-0.209840 -0.053680 0.732000 8266295
-0.210987 -0.049768 0.736000 9057348
-0.211847 -0.045748 0.739000 8981286
-0.212133 -0.041581 0.740000 9177873
-0.212707 -0.037453 0.742000 9175588
-0.213567 -0.033348 0.745000 11622705
-0.200472 -0.132084 0.704000 2562335
-0.200472 -0.128061 0.704000 2826022
-0.200757 -0.124214 0.705000 3346726
-0.200757 -0.120186 0.705000 7999794
-0.201327 -0.116487 0.707000 10757186
-0.201611 -0.112606 0.708000 10756153
-0.201611 -0.108560 0.708000 11683673
-0.202466 -0.104957 0.711000 13871699
-0.203320 -0.101320 0.714000 11881037
-0.203890 -0.097512 0.716000 13416772
-0.204744 -0.093812 0.719000 12683059
-0.205029 -0.089829 0.720000 14736522
-0.205598 -0.085952 0.722000 14602137
-0.205598 -0.081827 0.722000 12170883
-0.206452 -0.078024 0.725000 9644033
-0.206452 -0.073881 0.725000 9412210
-0.206737 -0.069834 0.726000 6251834
-0.207307 -0.065867 0.728000 5266494
-0.208161 -0.061961 0.731000 4868137
-0.208161 -0.057784 0.731000 8395046
-0.209015 -0.053827 0.734000 9383215
-0.210439 -0.049970 0.739000 9719102
-0.210439 -0.045748 0.739000 9178157
-0.210724 -0.041581 0.740000 9243158
-0.211578 -0.037504 0.743000 9243687
-0.212717 -0.033437 0.747000 11829564
-0.199980 -0.132647 0.707000 2299157
-0.199414 -0.128243 0.705000 2956068
-0.199414 -0.124214 0.705000 2497063
-0.199980 -0.116487 0.707000 11021093
-0.200829 -0.112924 0.710000 10821169
-0.200829 -0.108867 0.710000 12414039
-0.201677 -0.105252 0.713000 14725703
-0.201960 -0.101320 0.714000 11600205
-0.203374 -0.097921 0.719000 13067073
-0.203657 -0.093943 0.720000 13068140
-0.204223 -0.090078 0.722000 15976803
-0.204506 -0.086071 0.723000 15317842
-0.204506 -0.081940 0.723000 15445081
-0.205071 -0.078024 0.725000 9906742
-0.205354 -0.073983 0.726000 9601888
-0.205920 -0.070027 0.728000 6701873
-0.206203 -0.065957 0.729000 5726774
-0.207051 -0.062046 0.732000 6250297
-0.207051 -0.057863 0.732000 9570837
-0.208183 -0.053973 0.736000 10572644
-0.209031 -0.049970 0.739000 10378072
-0.209314 -0.045810 0.740000 9440551
-0.209880 -0.041693 0.742000 9308441
-0.210163 -0.037504 0.743000 9372458
-0.211294 -0.033437 0.747000 11953719
-0.198633 -0.132647 0.707000 2231818
-0.198633 -0.128607 0.707000 1971235
-0.198633 -0.116487 0.707000 7804679
-0.199476 -0.112924 0.710000 10951722
-0.199476 -0.108867 0.710000 13668437
-0.200600 -0.105400 0.714000 13741884
-0.201162 -0.101604 0.716000 10949196
-0.202286 -0.098057 0.720000 12386622
-0.202848 -0.094204 0.722000 13804708
-0.203129 -0.090203 0.723000 14789693
-0.203690 -0.086310 0.725000 14062090
-0.203971 -0.082280 0.726000 12623407
-0.204533 -0.078347 0.728000 9795691
-0.204533 -0.074187 0.728000 9391950
-0.204814 -0.070123 0.729000 8331559
-0.205376 -0.066138 0.731000 6977582
-0.205657 -0.062046 0.732000 7358024
-0.206781 -0.058179 0.736000 10486276
-0.207062 -0.054047 0.737000 12289945
-0.207905 -0.050038 0.740000 11171443
-0.208467 -0.045933 0.742000 9571616
-0.208467 -0.041693 0.742000 9570588
-0.209310 -0.037605 0.745000 9441069
-0.209871 -0.033437 0.747000 10835250
-0.197287 -0.128607 0.707000 919856
-0.198124 -0.112924 0.710000 11082523
-0.198403 -0.109020 0.711000 14925110
-0.199798 -0.105695 0.716000 12748581
-0.200635 -0.102030 0.719000 10223932
-0.200914 -0.098057 0.720000 11686490
-0.201472 -0.094204 0.722000 14535813
-0.202310 -0.090452 0.725000 13605192
-0.202589 -0.086429 0.726000 12864051
-0.203147 -0.082507 0.728000 9728071
-0.203147 -0.078347 0.728000 9736281
-0.203147 -0.074187 0.728000 9121603
-0.203984 -0.070315 0.731000 9966123
-0.204263 -0.066229 0.732000 8159054
-0.204821 -0.062215 0.734000 8401190
-0.205658 -0.058258 0.737000 11355977
-0.206216 -0.054193 0.739000 14073005
-0.206495 -0.050038 0.740000 11890541
-0.207332 -0.045995 0.743000 9768235
-0.207332 -0.041750 0.743000 9832730
-0.207890 -0.037605 0.745000 9437734
-0.208728 -0.033482 0.748000 9651002
-0.195940 -0.128607 0.707000 3475261
-0.197049 -0.109020 0.711000 12414743
-0.198434 -0.105695 0.716000 11954959
-0.199266 -0.102030 0.719000 11146284
-0.199543 -0.098057 0.720000 13738869
-0.201206 -0.094726 0.726000 13800293
-0.201206 -0.090577 0.726000 13416275
-0.201760 -0.086667 0.728000 12353628
-0.202037 -0.082620 0.729000 8937055
-0.202037 -0.078454 0.729000 10045255
-0.202037 -0.074289 0.729000 10236217
-0.203423 -0.070604 0.734000 10295854
-0.203977 -0.066590 0.736000 9746286
-0.203977 -0.062385 0.736000 10042115
-0.204809 -0.058416 0.739000 12944269
-0.205086 -0.054267 0.740000 14334400
-0.205640 -0.050173 0.742000 11233384
-0.206471 -0.046119 0.745000 10033461
-0.206471 -0.041862 0.745000 10095640
-0.207026 -0.037706 0.747000 10363934
-0.207303 -0.033482 0.748000 10901571
-0.195419 -0.108867 0.710000 9961740
-0.197070 -0.105695 0.716000 11151882
-0.197896 -0.102030 0.719000 12072254
-0.198722 -0.098330 0.722000 15708785
-0.199548 -0.094595 0.725000 13063763
-0.199823 -0.090577 0.726000 13142857
-0.200373 -0.086667 0.728000 11841883
-0.201199 -0.082847 0.731000 8076863
-0.201474 -0.078777 0.732000 10424642
-0.202025 -0.074798 0.734000 11350585
-0.202025 -0.070604 0.734000 10690863
-0.202850 -0.066681 0.737000 11251065
-0.202850 -0.062470 0.737000 11677743
-0.203401 -0.058416 0.739000 14527901
-0.204227 -0.054413 0.742000 14595497
-0.204227 -0.050173 0.742000 10566988
-0.205052 -0.046119 0.745000 10366509
-0.205052 -0.041862 0.745000 10361127
-0.205603 -0.037706 0.747000 11293752
-0.205878 -0.033482 0.748000 12153405
-0.194067 -0.108867 0.710000 6095617
-0.195707 -0.105695 0.716000 10223876
-0.196800 -0.102171 0.720000 13533008
-0.197620 -0.098466 0.723000 14067052
-0.198440 -0.094726 0.726000 13475649
-0.198987 -0.090827 0.728000 13134912
-0.199260 -0.086786 0.729000 11101018
-0.199807 -0.082847 0.731000 9442591
-0.200627 -0.078992 0.734000 10557244
-0.201173 -0.075002 0.736000 11350841
-0.201173 -0.070796 0.736000 11359024
-0.201993 -0.066862 0.739000 10794885
-0.201993 -0.062639 0.739000 12348763
-0.202267 -0.058495 0.740000 14399918
-0.202813 -0.054413 0.742000 13342354
-0.203087 -0.050241 0.743000 10290481
-0.203633 -0.046119 0.745000 10497061
-0.203633 -0.041862 0.745000 10230326
-0.204180 -0.037706 0.747000 11756882
-0.204453 -0.033482 0.748000 10912311
-0.195971 -0.102455 0.722000 14918478
-0.196243 -0.098466 0.723000 12364896
-0.197057 -0.094726 0.726000 13877326
-0.197871 -0.090951 0.729000 13138258
-0.198414 -0.087024 0.731000 10420798
-0.198686 -0.082960 0.732000 10823214
-0.199229 -0.078992 0.734000 10688311
-0.200043 -0.075104 0.737000 11349815
-0.200043 -0.070892 0.737000 11952690
-0.200586 -0.066862 0.739000 10259070
-0.200586 -0.062639 0.739000 13008719
-0.200857 -0.058495 0.740000 14259069
-0.201400 -0.054413 0.742000 12084062
-0.202214 -0.050376 0.745000 9966381
-0.202757 -0.046243 0.747000 10695208
-0.202757 -0.041974 0.747000 10037040
-0.203029 -0.037756 0.748000 12148812
-0.203029 -0.033482 0.748000 9665598
-0.194866 -0.102597 0.723000 11308620
-0.195405 -0.098738 0.725000 14209108
-0.195674 -0.094726 0.726000 13605467
-0.196483 -0.090951 0.729000 12159845
-0.197291 -0.087143 0.732000 10625570
-0.197291 -0.082960 0.732000 11160382
-0.198639 -0.079315 0.737000 10956081
-0.199178 -0.075308 0.739000 11151926
-0.199178 -0.071085 0.739000 11622451
-0.199448 -0.066952 0.740000 10259320
-0.199448 -0.062724 0.740000 11882306
-0.199987 -0.058653 0.742000 12276300
-0.200795 -0.054633 0.745000 11017769
-0.200795 -0.050376 0.745000 10103081
-0.201604 -0.046305 0.748000 10564139
-0.201604 -0.042030 0.748000 10562859
-0.202143 -0.037857 0.750000 12283973
-0.201604 -0.033482 0.748000 11501637
-0.193489 -0.102597 0.723000 7691303
-0.194024 -0.098738 0.725000 16034091
-0.194827 -0.094987 0.728000 13333098
-0.195897 -0.091326 0.732000 11095867
-0.196432 -0.087381 0.734000 10891300
-0.196432 -0.083187 0.734000 11418161
-0.197235 -0.079315 0.737000 11224897
-0.197770 -0.075308 0.739000 10892356
-0.197770 -0.071085 0.739000 11286813
-0.198038 -0.066952 0.740000 10186595
-0.198573 -0.062893 0.742000 10693700
-0.198841 -0.058732 0.743000 10295859
-0.199911 -0.054780 0.747000 10032208
-0.200179 -0.050579 0.748000 10228037
-0.200714 -0.046429 0.750000 10498629
-0.201250 -0.042255 0.752000 11095109
-0.201250 -0.037958 0.752000 12354384
-0.200714 -0.033571 0.750000 13343054
-0.192643 -0.098738 0.725000 8152579
-0.193706 -0.095117 0.729000 11108216
-0.194503 -0.091326 0.732000 10423056
-0.195566 -0.087619 0.736000 11021861
-0.195566 -0.083413 0.736000 11740964
-0.196363 -0.079530 0.739000 12546640
-0.197160 -0.075613 0.742000 11683666
-0.197160 -0.071373 0.742000 10887175
-0.197426 -0.067224 0.743000 9791823
-0.197957 -0.063148 0.745000 10623302
-0.197957 -0.058890 0.745000 9044251
-0.198754 -0.054853 0.748000 11817847
-0.199286 -0.050714 0.750000 11929696
-0.199817 -0.046552 0.752000 11685471
-0.199817 -0.042255 0.752000 12477791
-0.200083 -0.038009 0.753000 12879706
-0.199286 -0.033571 0.750000 11188310
-0.192845 -0.095378 0.731000 8872766
-0.193636 -0.091575 0.734000 9767701
-0.194428 -0.087738 0.737000 11155492
-0.194428 -0.083527 0.737000 12019253
-0.195219 -0.079638 0.740000 13868629
-0.196010 -0.075715 0.743000 12484441
-0.196010 -0.071470 0.743000 10496572
-0.196538 -0.067405 0.745000 9390405
-0.197066 -0.063317 0.747000 10492469
-0.197066 -0.059049 0.747000 7733552
-0.197857 -0.055000 0.750000 13678456
-0.198385 -0.050850 0.752000 13604224
-0.198385 -0.046552 0.752000 12819344
-0.199440 -0.042480 0.756000 13797217
-0.199440 -0.038160 0.756000 13398904
-0.191452 -0.095378 0.731000 4791043
-0.192238 -0.091575 0.734000 6357273
-0.193024 -0.087738 0.737000 8397346
-0.193548 -0.083753 0.739000 12162631
-0.194333 -0.079853 0.742000 14528858
-0.195119 -0.075919 0.745000 14339168
-0.196429 -0.072143 0.750000 12481905
-0.195905 -0.067676 0.748000 10625852
-0.196429 -0.063571 0.750000 11221796
-0.196429 -0.059286 0.750000 10027332
-0.197738 -0.055367 0.755000 14599800
-0.197214 -0.050917 0.753000 14345376
-0.198000 -0.046800 0.756000 13809088
-0.198000 -0.042480 0.756000 14327651
-0.198000 -0.038160 0.756000 11769750
-0.191620 -0.087738 0.737000 5639708
-0.192400 -0.083867 0.740000 12279086
-0.193180 -0.079961 0.743000 15252014
-0.194220 -0.076123 0.747000 16105551
-0.195000 -0.072143 0.750000 14529164
-0.195000 -0.067857 0.750000 11826536
-0.195520 -0.063741 0.752000 11952725
-0.195520 -0.059444 0.752000 12286305
-0.196300 -0.055367 0.755000 15518835
-0.196300 -0.051052 0.755000 15062943
-0.196560 -0.046800 0.756000 14785689
-0.197080 -0.042592 0.758000 14781792
-0.190990 -0.083867 0.740000 6161173
-0.192281 -0.080176 0.745000 9136129
-0.194088 -0.076632 0.752000 12889407
-0.194088 -0.072335 0.752000 13546662
-0.194088 -0.068038 0.752000 13488019
-0.194088 -0.063741 0.752000 13804677
-0.194346 -0.059523 0.753000 13741437
-0.195120 -0.055440 0.756000 15122286
-0.195120 -0.051120 0.756000 15259038
-0.195636 -0.046924 0.758000 13543281
-0.196152 -0.042705 0.760000 10450013
-0.190862 -0.080176 0.745000 3014913
-0.192143 -0.076429 0.750000 9654560
-0.192655 -0.072335 0.752000 12612948
-0.192655 -0.068038 0.752000 15113291
-0.192911 -0.063826 0.753000 15580270
-0.193424 -0.059681 0.755000 15181390
-0.193680 -0.055440 0.756000 14721618
-0.193680 -0.051120 0.756000 15441231
-0.195473 -0.047233 0.763000 12357434
-0.194961 -0.042761 0.761000 6105907
-0.189443 -0.080176 0.745000 1769729
-0.190714 -0.076429 0.750000 4915457
-0.191477 -0.072431 0.753000 6364673
-0.191223 -0.068038 0.752000 7750402
-0.191986 -0.063995 0.755000 8286038
-0.191986 -0.059681 0.755000 8421920
-0.192749 -0.055587 0.758000 7952182
-0.192749 -0.051255 0.758000 7947009
-0.195037 -0.047481 0.767000 6497538
-0.190548 -0.076938 0.755000 131361
-0.190043 -0.072431 0.753000 196870
-0.189790 -0.068038 0.752000 397828
-0.190548 -0.063995 0.755000 983340
-0.190548 -0.059681 0.755000 1646868
-0.191305 -0.055587 0.758000 1179941
-0.191305 -0.051255 0.758000 398863
-0.193829 -0.047543 0.768000 655632
-0.189360 -0.077040 0.756000 4325697
-0.188609 -0.072431 0.753000 1706507
-0.189861 -0.064250 0.758000 852225
-0.189360 -0.059760 0.756000 1704201
-0.189861 -0.055587 0.758000 1706004
-0.189861 -0.051255 0.758000 1578014
-0.192366 -0.047543 0.768000 2299165
-0.187920 -0.077040 0.756000 8546165
-0.187174 -0.072431 0.753000 3220563
-0.188417 -0.064250 0.758000 721198
-0.187920 -0.059760 0.756000 1704229
-0.188417 -0.055587 0.758000 2297362
-0.188417 -0.051255 0.758000 2758674
-0.186973 -0.064250 0.758000 5259099
-0.186480 -0.059760 0.756000 5112129
-0.248378 -0.161986 0.667000 8525587
-0.244885 -0.171860 0.661000 8126740
-0.243773 -0.167320 0.658000 7930637
-0.246737 -0.165549 0.666000 6554127
-0.246737 -0.161743 0.666000 6097175
-0.246737 -0.157937 0.666000 6684990
-0.255999 -0.108586 0.691000 7098181
-0.243626 -0.171860 0.661000 8192781
-0.242520 -0.167320 0.658000 7865112
-0.245100 -0.165300 0.665000 6882589
-0.245469 -0.161743 0.666000 6423067
-0.245469 -0.157937 0.666000 6619650
-0.249154 -0.152583 0.676000 8333315
-0.249891 -0.149160 0.678000 9004897
-0.249154 -0.144857 0.676000 7557468
-0.251366 -0.122760 0.682000 4530690
-0.254683 -0.112534 0.691000 3998978
-0.254683 -0.108586 0.691000 3872516
-0.254683 -0.104637 0.691000 3866881
-0.256894 -0.101563 0.697000 4002561
-0.258000 -0.098000 0.700000 3997953
-0.258369 -0.094134 0.701000 4330497
-0.259474 -0.082469 0.704000 4653313
-0.259106 -0.078334 0.703000 4986625
-0.242367 -0.171860 0.661000 8257806
-0.242000 -0.167829 0.660000 7799828
-0.243833 -0.165300 0.665000 7210263
-0.244200 -0.161743 0.666000 6751766
-0.244200 -0.157937 0.666000 6555147
-0.244200 -0.154131 0.666000 5899533
-0.247500 -0.152357 0.675000 5898515
-0.247867 -0.148720 0.676000 5905203
-0.247867 -0.144857 0.676000 3735859
-0.250433 -0.122940 0.683000 986898
-0.250800 -0.119211 0.684000 855316
-0.253367 -0.112534 0.691000 789009
-0.253367 -0.108586 0.691000 723217
-0.253000 -0.104486 0.690000 787982
-0.255933 -0.101709 0.698000 787982
-0.256667 -0.098000 0.700000 657164
-0.256667 -0.094000 0.700000 722699
-0.256667 -0.090000 0.700000 460044
-0.257033 -0.086123 0.701000 525070
-0.258133 -0.082469 0.704000 394509
-0.257767 -0.078334 0.703000 525327
-0.257767 -0.074317 0.703000 526098
-0.260700 -0.067037 0.711000 399136
-0.242567 -0.176700 0.665000 11026514
-0.241108 -0.171860 0.661000 8389391
-0.240743 -0.167829 0.660000 7799569
-0.242567 -0.165300 0.665000 7210257
-0.242931 -0.161743 0.666000 6686225
-0.242931 -0.157937 0.666000 6490132
-0.243296 -0.154363 0.667000 6162968
-0.245850 -0.152131 0.674000 6227746
-0.246214 -0.148500 0.675000 6226181
-0.245120 -0.144000 0.672000 4261130
-0.248768 -0.134451 0.682000 2164495
-0.248768 -0.130554 0.682000 1903915
-0.248768 -0.126657 0.682000 1840421
-0.249132 -0.122940 0.683000 1511458
-0.249497 -0.119211 0.684000 1447202
-0.251686 -0.116314 0.690000 1314595
-0.251686 -0.112371 0.690000 1446431
-0.251686 -0.108429 0.690000 1314590
-0.251686 -0.104486 0.690000 1248283
-0.254239 -0.101563 0.697000 1248026
-0.254604 -0.097720 0.698000 1314328
-0.255333 -0.094000 0.700000 1248277
-0.255333 -0.090000 0.700000 1117207
-0.255333 -0.086000 0.700000 1248026
-0.256428 -0.082351 0.703000 1248537
-0.256428 -0.078334 0.703000 1248029
-0.256428 -0.074317 0.703000 1117730
-0.258251 -0.070800 0.708000 1115910
-0.259346 -0.067037 0.711000 1245698
-0.259346 -0.062974 0.711000 2818817
-0.244566 -0.182943 0.674000 10630995
-0.240574 -0.176169 0.663000 11026004
-0.239486 -0.171600 0.660000 8519948
-0.238760 -0.167320 0.658000 7799312
-0.240574 -0.164803 0.663000 7275280
-0.241300 -0.161500 0.665000 6620944
-0.241663 -0.157937 0.666000 6490640
-0.242026 -0.154363 0.667000 6424853
-0.243840 -0.151680 0.672000 6556187
-0.244929 -0.148500 0.675000 6555403
-0.243840 -0.144000 0.672000 4720912
-0.244566 -0.140577 0.674000 2623253
-0.247469 -0.134451 0.682000 2362129
-0.247831 -0.130746 0.683000 2231070
-0.247469 -0.126657 0.682000 2363417
-0.247469 -0.122760 0.682000 1969175
-0.248920 -0.119560 0.686000 2036248
-0.250371 -0.116314 0.690000 2034713
-0.250009 -0.112209 0.689000 2035223
-0.250009 -0.108271 0.689000 1969687
-0.250734 -0.104637 0.691000 1706773
-0.252911 -0.101563 0.697000 1772820
-0.252911 -0.097580 0.697000 1903379
-0.253274 -0.093731 0.698000 1772818
-0.254000 -0.090000 0.700000 1706771
-0.254000 -0.086000 0.700000 1969172
-0.255089 -0.082351 0.703000 2100242
-0.255089 -0.078334 0.703000 2034709
-0.255451 -0.074423 0.704000 1707033
-0.256903 -0.070800 0.708000 2034185
-0.257629 -0.066943 0.710000 2033930
-0.257991 -0.062974 0.711000 1640200
-0.243643 -0.183214 0.675000 10564951
-0.239311 -0.176169 0.663000 11092309
-0.238229 -0.171600 0.660000 8585737
-0.237507 -0.167320 0.658000 7799311
-0.238229 -0.164057 0.660000 7275278
-0.238950 -0.160771 0.662000 6686224
-0.240394 -0.157937 0.666000 6621196
-0.240394 -0.154131 0.666000 6490130
-0.242199 -0.151454 0.671000 6490643
-0.243282 -0.148280 0.674000 6490128
-0.243282 -0.144429 0.674000 4852502
-0.244004 -0.140994 0.676000 2427416
-0.245087 -0.137740 0.679000 2100245
-0.245448 -0.134057 0.680000 1969428
-0.245448 -0.130171 0.680000 1903633
-0.246170 -0.126657 0.682000 1904140
-0.246530 -0.122940 0.683000 1773067
-0.247613 -0.119560 0.686000 1839374
-0.248696 -0.116146 0.689000 1641487
-0.248696 -0.112209 0.689000 1903375
-0.248696 -0.108271 0.689000 1641231
-0.249057 -0.104486 0.690000 1706511
-0.250501 -0.101126 0.694000 1510158
-0.250862 -0.097300 0.695000 1575439
-0.251945 -0.093731 0.698000 1706766
-0.251945 -0.089743 0.698000 1444366
-0.252667 -0.086000 0.700000 1706766
-0.253028 -0.082117 0.701000 1837579
-0.253750 -0.078334 0.703000 1772301
-0.254110 -0.074423 0.704000 1510159
-0.254110 -0.070400 0.704000 1706508
-0.256276 -0.066943 0.710000 1837330
-0.256637 -0.062974 0.711000 1444367
-0.256637 -0.058911 0.711000 1050893
-0.243793 -0.188180 0.679000 10702463
-0.243434 -0.184029 0.678000 10566742
-0.243434 -0.180154 0.678000 11158102
-0.236971 -0.171600 0.660000 8651019
-0.235894 -0.167066 0.657000 7733775
-0.236971 -0.164057 0.660000 7275021
-0.237330 -0.160529 0.661000 6685967
-0.238049 -0.157226 0.663000 6751244
-0.239126 -0.154131 0.666000 6489870
-0.240921 -0.151454 0.671000 6425102
-0.241998 -0.148280 0.674000 6359311
-0.242357 -0.144643 0.675000 5048853
-0.242716 -0.140994 0.676000 2230804
-0.242716 -0.137131 0.676000 1706770
-0.243793 -0.133860 0.679000 1510929
-0.244152 -0.130171 0.680000 1575952
-0.244870 -0.126657 0.682000 1379852
-0.244870 -0.122760 0.682000 1576971
-0.245230 -0.119037 0.683000 1641998
-0.246666 -0.115809 0.687000 1248271
-0.246666 -0.111883 0.687000 1706767
-0.246666 -0.107957 0.687000 1378830
-0.247384 -0.104334 0.689000 1707021
-0.248820 -0.100980 0.693000 1248270
-0.249179 -0.097160 0.694000 1247758
-0.250256 -0.093597 0.697000 1640718
-0.250615 -0.089743 0.698000 1182732
-0.250615 -0.085754 0.698000 1444876
-0.251333 -0.082000 0.700000 1510155
-0.251692 -0.078111 0.701000 1510670
-0.252770 -0.074423 0.704000 1313806
-0.252770 -0.070400 0.704000 1379342
-0.254924 -0.066943 0.710000 1641232
-0.255283 -0.062974 0.711000 1248527
-0.255283 -0.058911 0.711000 1640973
-0.242500 -0.188180 0.679000 10494835
-0.241429 -0.183486 0.676000 10632021
-0.236429 -0.175903 0.662000 10897240
-0.235714 -0.171600 0.660000 8847884
-0.234643 -0.167066 0.657000 7733520
-0.235000 -0.163560 0.658000 7275020
-0.236071 -0.160529 0.661000 6685710
-0.236429 -0.156989 0.662000 6619916
-0.238214 -0.154363 0.667000 6489355
-0.239286 -0.151229 0.670000 6359049
-0.240000 -0.147840 0.672000 6359309
-0.240714 -0.144429 0.674000 5573396
-0.241071 -0.140786 0.675000 1575185
-0.241429 -0.137131 0.676000 1510414
-0.242143 -0.133663 0.678000 1510925
-0.242500 -0.129980 0.679000 1575951
-0.242857 -0.126286 0.680000 1510412
-0.243571 -0.122760 0.682000 1445386
-0.243929 -0.119037 0.683000 1641487
-0.245000 -0.115640 0.686000 1248270
-0.245000 -0.111720 0.686000 1641487
-0.245357 -0.107957 0.687000 1378572
-0.246071 -0.104334 0.689000 1510924
-0.246786 -0.100689 0.691000 1313806
-0.247500 -0.097020 0.693000 1378573
-0.248214 -0.093329 0.695000 1509902
-0.248929 -0.089614 0.697000 1248521
-0.250000 -0.086000 0.700000 1510153
-0.250000 -0.082000 0.700000 1772298
-0.250357 -0.078111 0.701000 1313551
-0.251429 -0.074423 0.704000 1116684
-0.253571 -0.071000 0.710000 1116943
-0.253571 -0.066943 0.710000 1444366
-0.253571 -0.062886 0.710000 1575439
-0.253929 -0.058911 0.711000 1378830
-0.257857 -0.047446 0.722000 1182223
-0.257857 -0.043320 0.722000 1181719
-0.240851 -0.184029 0.678000 10697558
-0.235523 -0.176169 0.663000 10635098
-0.234457 -0.171600 0.660000 8978701
-0.233391 -0.167066 0.657000 7667982
-0.234812 -0.164306 0.661000 7340554
-0.234812 -0.160529 0.661000 6619917
-0.235168 -0.156989 0.662000 6488844
-0.236233 -0.153900 0.665000 6489099
-0.236944 -0.150551 0.667000 6358537
-0.238365 -0.147620 0.671000 6293258
-0.238720 -0.144000 0.672000 6162704
-0.239430 -0.140577 0.674000 919567
-0.239786 -0.136929 0.675000 1379339
-0.240141 -0.133269 0.676000 1510414
-0.241207 -0.129980 0.679000 1575951
-0.241562 -0.126286 0.680000 1575693
-0.242272 -0.122760 0.682000 1379850
-0.242628 -0.119037 0.683000 1575952
-0.242983 -0.115303 0.684000 1248269
-0.243693 -0.111720 0.686000 1575950
-0.244049 -0.107957 0.687000 1378316
-0.244759 -0.104334 0.689000 1248268
-0.245114 -0.100543 0.690000 1379596
-0.246180 -0.097020 0.693000 1509644
-0.247601 -0.093597 0.697000 1378830
-0.247601 -0.089614 0.697000 1248526
-0.247956 -0.085754 0.698000 1640975
-0.248667 -0.082000 0.700000 2033936
-0.249022 -0.078111 0.701000 1181717
-0.250088 -0.074423 0.704000 854291
-0.251509 -0.070800 0.708000 788240
-0.252219 -0.066943 0.710000 1246997
-0.252574 -0.062974 0.711000 1902870
-0.252574 -0.058911 0.711000 1116169
-0.256482 -0.047446 0.722000 1510669
-0.256837 -0.043380 0.723000 1706512
-0.256837 -0.039249 0.723000 1772039
-0.239913 -0.188180 0.679000 10292351
-0.239560 -0.184029 0.678000 10698326
-0.234260 -0.176169 0.663000 10636381
-0.233200 -0.171600 0.660000 8979214
-0.232140 -0.167066 0.657000 7733517
-0.233553 -0.164306 0.661000 7340552
-0.233553 -0.160529 0.661000 6619404
-0.233907 -0.156989 0.662000 6423308
-0.234967 -0.153900 0.665000 6423563
-0.236380 -0.151003 0.669000 6358280
-0.237087 -0.147620 0.671000 6293000
-0.237087 -0.143786 0.671000 6096908
-0.238147 -0.140577 0.674000 919309
-0.238500 -0.136929 0.675000 1248007
-0.238853 -0.133269 0.676000 1313296
-0.239560 -0.129789 0.678000 1379342
-0.239913 -0.126100 0.679000 1379342
-0.240973 -0.122760 0.682000 1248009
-0.240973 -0.118863 0.682000 1379346
-0.241680 -0.115303 0.684000 1182476
