# .PCD v.7 - Point Cloud Data file format
VERSION .7
FIELDS x y z rgb
SIZE 4 4 4 4
TYPE F F F I
COUNT 1 1 1 1
WIDTH 1281
HEIGHT 1
POINTS 1281
DATA ascii
-0.254734 -0.182597 0.789000 1445132
-0.257317 -0.179894 0.797000 1379600
-0.257640 -0.175560 0.798000 1706511
-0.260223 -0.172714 0.806000 1642253
-0.261514 -0.168943 0.810000 1969676
-0.262160 -0.164720 0.812000 1773074
-0.263129 -0.160671 0.815000 2035728
-0.264420 -0.156780 0.819000 1904654
-0.266357 -0.153214 0.825000 1446169
-0.266357 -0.148500 0.825000 1575707
-0.246491 -0.274286 0.768000 9570371
-0.243924 -0.267086 0.760000 9442868
-0.242319 -0.261014 0.755000 9443122
-0.240714 -0.255000 0.750000 9706801
-0.240072 -0.250046 0.748000 9901874
-0.237184 -0.242814 0.739000 10160684
-0.236542 -0.237946 0.737000 9502999
-0.237505 -0.234686 0.740000 9044239
-0.239110 -0.232014 0.745000 8585489
-0.241356 -0.229897 0.752000 8454927
-0.241677 -0.225900 0.753000 8323854
-0.242640 -0.222480 0.756000 8127504
-0.243924 -0.219314 0.760000 7014930
-0.244245 -0.215254 0.761000 723476
-0.247775 -0.213954 0.772000 985102
-0.247775 -0.209543 0.772000 985357
-0.248096 -0.205397 0.773000 985103
-0.248738 -0.201500 0.775000 1116684
-0.250343 -0.198343 0.780000 1116940
-0.250985 -0.194383 0.782000 1051408
-0.252269 -0.190886 0.786000 1116685
-0.252269 -0.186394 0.786000 1183246
-0.252910 -0.182366 0.788000 1707024
-0.254515 -0.178991 0.793000 1248785
-0.256120 -0.175560 0.798000 1707281
-0.258046 -0.172286 0.804000 1904145
-0.259971 -0.168943 0.810000 1904404
-0.261255 -0.165126 0.814000 1708566
-0.261576 -0.160671 0.815000 1970454
-0.262860 -0.156780 0.819000 1577494
-0.264786 -0.153214 0.825000 1577243
-0.265428 -0.148860 0.827000 2232344
-0.244710 -0.273929 0.767000 9570111
-0.242476 -0.267086 0.760000 9508660
-0.240881 -0.261014 0.755000 9574195
-0.239286 -0.255000 0.750000 9706287
-0.238329 -0.249711 0.747000 9966898
-0.236095 -0.243143 0.740000 10292782
-0.235138 -0.237946 0.737000 9634075
-0.236095 -0.234686 0.740000 9110034
-0.237690 -0.232014 0.745000 8651025
-0.239286 -0.229286 0.750000 8520463
-0.240243 -0.225900 0.753000 8389390
-0.241200 -0.222480 0.756000 8258574
-0.242476 -0.219314 0.760000 7146514
-0.242795 -0.215254 0.761000 657687
-0.245029 -0.212846 0.768000 985103
-0.246305 -0.209543 0.772000 985355
-0.246305 -0.205131 0.772000 985358
-0.247262 -0.201500 0.775000 1116428
-0.248538 -0.198089 0.779000 1116683
-0.248857 -0.193886 0.780000 1247763
-0.250771 -0.190886 0.786000 1444880
-0.250771 -0.186394 0.786000 1444879
-0.253005 -0.183523 0.793000 1837587
-0.252367 -0.178540 0.791000 1510930
-0.254281 -0.175340 0.797000 2100756
-0.256514 -0.172286 0.804000 1576212
-0.257790 -0.168526 0.808000 1577243
-0.258429 -0.164314 0.810000 1445146
-0.259705 -0.160474 0.814000 1446172
-0.260662 -0.156397 0.817000 1249309
-0.263214 -0.153214 0.825000 1839645
-0.263852 -0.148860 0.827000 2232341
-0.243249 -0.273929 0.767000 9571381
-0.241029 -0.267086 0.760000 9574704
-0.239443 -0.261014 0.755000 9704498
-0.237857 -0.255000 0.750000 9771567
-0.236906 -0.249711 0.747000 9967155
-0.234686 -0.243143 0.740000 10358323
-0.234369 -0.238591 0.739000 9699869
-0.235320 -0.235320 0.742000 9241109
-0.236906 -0.232637 0.747000 8716818
-0.237857 -0.229286 0.750000 8586001
-0.238809 -0.225900 0.753000 8389137
-0.239760 -0.222480 0.756000 8389391
-0.241029 -0.219314 0.760000 7276819
-0.241980 -0.215820 0.763000 658197
-0.243566 -0.212846 0.768000 985357
-0.244834 -0.209543 0.772000 985100
-0.245151 -0.205397 0.773000 919822
-0.245786 -0.201500 0.775000 1116432
-0.247054 -0.198089 0.779000 1116687
-0.247371 -0.193886 0.780000 1379089
-0.249274 -0.190886 0.786000 1706770
-0.249274 -0.186394 0.786000 1706771
-0.250860 -0.183060 0.791000 1903130
-0.251494 -0.178991 0.793000 1773343
-0.252763 -0.175340 0.797000 2428181
-0.254983 -0.172286 0.804000 1313298
-0.256886 -0.168943 0.810000 1183001
-0.257520 -0.164720 0.812000 1246482
-0.258471 -0.160671 0.815000 920848
-0.259740 -0.156780 0.819000 986130
-0.261643 -0.153214 0.825000 2101264
-0.262277 -0.148860 0.827000 2232589
-0.241157 -0.273214 0.765000 9637419
-0.239581 -0.267086 0.760000 9639724
-0.238005 -0.261014 0.755000 9703730
-0.237059 -0.255680 0.752000 9771567
-0.235483 -0.249711 0.747000 9900597
-0.233907 -0.243800 0.742000 10555447
-0.232961 -0.238591 0.739000 9896480
-0.233907 -0.235320 0.742000 9372183
-0.235483 -0.232637 0.747000 8913427
-0.235798 -0.228674 0.748000 8651539
-0.237374 -0.225900 0.753000 8519956
-0.238320 -0.222480 0.756000 8455183
-0.239581 -0.219314 0.760000 6949908
-0.240527 -0.215820 0.763000 723474
-0.241788 -0.212569 0.767000 1050636
-0.242733 -0.209000 0.770000 985612
-0.243364 -0.205131 0.772000 1050895
-0.244310 -0.201500 0.775000 1116692
-0.245570 -0.198089 0.779000 1378835
-0.245886 -0.193886 0.780000 1444878
-0.247147 -0.190400 0.784000 1838612
-0.247777 -0.186394 0.786000 1444375
-0.248723 -0.182597 0.789000 1378593
-0.249984 -0.178991 0.793000 1575212
-0.251560 -0.175560 0.798000 2754838
-0.254082 -0.172714 0.806000 3737103
-0.255343 -0.168943 0.810000 4197399
-0.255973 -0.164720 0.812000 4197129
-0.256919 -0.160671 0.815000 4065541
-0.258180 -0.156780 0.819000 3475974
-0.259441 -0.152843 0.823000 1706244
-0.260702 -0.148860 0.827000 1181956
-0.239700 -0.273214 0.765000 9636909
-0.238133 -0.267086 0.760000 9639729
-0.236880 -0.261360 0.756000 9703986
-0.235627 -0.255680 0.752000 9771567
-0.234373 -0.250046 0.748000 9769777
-0.232493 -0.243800 0.742000 10751043
-0.231867 -0.238914 0.740000 10093347
-0.232493 -0.235320 0.742000 9503003
-0.234060 -0.232637 0.747000 9044758
-0.234373 -0.228674 0.748000 8782360
-0.236567 -0.226500 0.755000 8651284
-0.237507 -0.223069 0.758000 8520465
-0.238133 -0.219314 0.760000 6620949
-0.239073 -0.215820 0.763000 789270
-0.240327 -0.212569 0.767000 1116683
-0.241267 -0.209000 0.770000 1051662
-0.241893 -0.205131 0.772000 1116945
-0.242833 -0.201500 0.775000 1116949
-0.244087 -0.198089 0.779000 1641236
-0.244400 -0.193886 0.780000 1576466
-0.245027 -0.189914 0.782000 1969181
-0.246907 -0.186869 0.788000 1181985
-0.247847 -0.183060 0.791000 854306
-0.248473 -0.178991 0.793000 1442072
-0.252547 -0.172714 0.806000 6160933
-0.253800 -0.168943 0.810000 7213858
-0.254427 -0.164720 0.812000 7145761
-0.255367 -0.160671 0.815000 7213855
-0.255993 -0.156397 0.817000 5966369
-0.257873 -0.152843 0.823000 1315868
-0.259127 -0.148860 0.827000 196915
-0.263513 -0.136963 0.841000 2101785
-0.237620 -0.272500 0.763000 9570607
-0.236686 -0.267086 0.760000 9640245
-0.235440 -0.261360 0.756000 9703730
-0.234194 -0.255680 0.752000 9771823
-0.232637 -0.249711 0.747000 10161710
-0.231080 -0.243800 0.742000 10817614
-0.230457 -0.238914 0.740000 10093350
-0.231080 -0.235320 0.742000 9634079
-0.232014 -0.232014 0.745000 9241369
-0.232949 -0.228674 0.748000 8979228
-0.235129 -0.226500 0.755000 8913428
-0.236063 -0.223069 0.758000 8717331
-0.236686 -0.219314 0.760000 6555927
-0.237620 -0.215820 0.763000 985882
-0.238866 -0.212569 0.767000 1182730
-0.240423 -0.209543 0.772000 1248271
-0.240423 -0.205131 0.772000 1313812
-0.241357 -0.201500 0.775000 1445397
-0.242603 -0.198089 0.779000 1772565
-0.242914 -0.193886 0.780000 1642261
-0.243537 -0.189914 0.782000 1902631
-0.245406 -0.186869 0.788000 3474731
-0.246963 -0.183523 0.793000 4461859
-0.246963 -0.178991 0.793000 5181956
-0.249766 -0.176440 0.802000 6367016
-0.251011 -0.172714 0.806000 7936315
-0.252257 -0.168943 0.810000 8598062
-0.253503 -0.165126 0.814000 8726841
-0.253814 -0.160671 0.815000 8796474
-0.254437 -0.156397 0.817000 8337468
-0.256929 -0.153214 0.825000 6504500
-0.257551 -0.148860 0.827000 5586785
-0.258797 -0.144831 0.831000 2229510
-0.261911 -0.136963 0.841000 2102302
-0.236167 -0.272500 0.763000 9505339
-0.235238 -0.267086 0.760000 9641271
-0.234000 -0.261360 0.756000 9639220
-0.232762 -0.255680 0.752000 9772336
-0.231214 -0.249711 0.747000 10489898
-0.229976 -0.244129 0.743000 10947644
-0.229048 -0.238914 0.740000 10093348
-0.229667 -0.235320 0.742000 9699615
-0.230595 -0.232014 0.745000 9372700
-0.232143 -0.229286 0.750000 9175836
-0.233690 -0.226500 0.755000 9110293
-0.234619 -0.223069 0.758000 8913684
-0.235238 -0.219314 0.760000 6424085
-0.236167 -0.215820 0.763000 1248794
-0.237714 -0.212846 0.768000 1248526
-0.238952 -0.209543 0.772000 1379859
-0.238952 -0.205131 0.772000 1511448
-0.239262 -0.200980 0.773000 1773850
-0.241119 -0.198089 0.779000 1839130
-0.242048 -0.194383 0.782000 1707287
-0.242048 -0.189914 0.782000 1772325
-0.243905 -0.186869 0.788000 5767459
-0.245452 -0.183523 0.793000 8064810
-0.247000 -0.180120 0.798000 8913447
-0.248238 -0.176440 0.802000 9705257
-0.249476 -0.172714 0.806000 9770803
-0.250714 -0.168943 0.810000 9904174
-0.251952 -0.165126 0.814000 10366770
-0.252262 -0.160671 0.815000 10302266
-0.253500 -0.156780 0.819000 10764596
-0.255357 -0.153214 0.825000 11621936
-0.255976 -0.148860 0.827000 11048292
-0.257214 -0.144831 0.831000 3623736
-0.260310 -0.136963 0.841000 2035474
-0.260929 -0.132471 0.843000 1906197
-0.233790 -0.267086 0.760000 9641272
-0.232560 -0.261360 0.756000 9639735
-0.231330 -0.255680 0.752000 9836081
-0.229791 -0.249711 0.747000 10620710
-0.228561 -0.244129 0.743000 10750506
-0.228253 -0.239560 0.742000 10224417
-0.228253 -0.235320 0.742000 10027806
-0.229791 -0.232637 0.747000 9504032
-0.230099 -0.228674 0.748000 9438492
-0.232560 -0.226800 0.756000 9307158
-0.233175 -0.223069 0.758000 9110805
-0.233790 -0.219314 0.760000 6227475
-0.234713 -0.215820 0.763000 1379866
-0.236251 -0.212846 0.768000 1511443
-0.237482 -0.209543 0.772000 1708567
-0.237482 -0.205131 0.772000 1840156
-0.237790 -0.200980 0.773000 1905439
-0.239635 -0.198089 0.779000 1905183
-0.239943 -0.193886 0.780000 2885657
-0.240558 -0.189914 0.782000 5774883
-0.242711 -0.187106 0.789000 7805210
-0.243942 -0.183523 0.793000 8719665
-0.245480 -0.180120 0.798000 10569289
-0.247326 -0.176880 0.804000 9505835
-0.247941 -0.172714 0.806000 9637674
-0.249171 -0.168943 0.810000 9702446
-0.249787 -0.164720 0.812000 10037035
-0.250710 -0.160671 0.815000 10168378
-0.251325 -0.156397 0.817000 10695211
-0.253786 -0.153214 0.825000 11753260
-0.254401 -0.148860 0.827000 12362854
-0.256247 -0.145180 0.833000 8955242
-0.258092 -0.141431 0.839000 4801636
-0.258708 -0.136963 0.841000 1114886
-0.259323 -0.132471 0.843000 1905424
-0.232343 -0.271429 0.760000 9111887
-0.232343 -0.267086 0.760000 9641530
-0.231120 -0.261360 0.756000 9574968
-0.230203 -0.256020 0.753000 9901105
-0.228369 -0.249711 0.747000 10686256
-0.227757 -0.244786 0.745000 10552617
-0.227146 -0.239883 0.743000 10355481
-0.227146 -0.235637 0.743000 10355486
-0.228369 -0.232637 0.747000 9635105
-0.229286 -0.229286 0.750000 9635109
-0.231120 -0.226800 0.756000 9438490
-0.232343 -0.223657 0.760000 9372698
-0.232343 -0.219314 0.760000 5966103
-0.233260 -0.215820 0.763000 1577504
-0.234789 -0.212846 0.768000 1708823
-0.236011 -0.209543 0.772000 2037277
-0.236317 -0.205397 0.773000 2103070
-0.236929 -0.201500 0.775000 2102814
-0.238151 -0.198089 0.779000 1903387
-0.238457 -0.193886 0.780000 3998239
-0.241820 -0.192100 0.791000 9771305
-0.241209 -0.187106 0.789000 9837092
-0.242431 -0.183523 0.793000 9376560
-0.243960 -0.180120 0.798000 12298344
-0.245794 -0.176880 0.804000 9248575
-0.247017 -0.173143 0.808000 9506603
-0.247629 -0.168943 0.810000 9506088
-0.248851 -0.165126 0.814000 9772320
-0.249769 -0.161066 0.817000 9969719
-0.250380 -0.156780 0.819000 10695738
-0.252214 -0.153214 0.825000 11891773
-0.252826 -0.148860 0.827000 13606493
-0.254660 -0.145180 0.833000 14266461
-0.256494 -0.141431 0.839000 9410920
-0.257106 -0.136963 0.841000 139319
-0.257717 -0.132471 0.843000 1969673
-0.259246 -0.128411 0.848000 1774615
-0.260469 -0.124149 0.852000 2887960
-0.230895 -0.271429 0.760000 9176407
-0.230895 -0.267086 0.760000 9707323
-0.230288 -0.262051 0.758000 9641016
-0.228769 -0.256020 0.753000 9965873
-0.226946 -0.249711 0.747000 11079994
-0.226338 -0.244786 0.745000 10552616
-0.226338 -0.240529 0.745000 10289680
-0.226338 -0.236271 0.745000 10158878
-0.227857 -0.233571 0.750000 9635107
-0.228465 -0.229897 0.752000 9569837
-0.229680 -0.226800 0.756000 9504287
-0.230895 -0.223657 0.760000 9439518
-0.231199 -0.219603 0.761000 5440538
-0.231807 -0.215820 0.763000 1774374
-0.233326 -0.212846 0.768000 1905947
-0.234541 -0.209543 0.772000 2233890
-0.234845 -0.205397 0.773000 2234657
-0.235452 -0.201500 0.775000 1971741
-0.236971 -0.198343 0.780000 3213080
-0.237579 -0.194383 0.782000 6756388
-0.240313 -0.192100 0.791000 9704752
-0.240313 -0.187580 0.791000 9769773
-0.241529 -0.183986 0.795000 9306416
-0.243048 -0.180571 0.800000 12301190
-0.244263 -0.176880 0.804000 9044308
-0.245478 -0.173143 0.808000 9506091
-0.246086 -0.168943 0.810000 9571362
-0.247301 -0.165126 0.814000 9704469
-0.248212 -0.161066 0.817000 9966644
-0.248820 -0.156780 0.819000 10565705
-0.250643 -0.153214 0.825000 12162126
-0.251250 -0.148860 0.827000 13474643
-0.253073 -0.145180 0.833000 13804881
-0.254896 -0.141431 0.839000 11907179
-0.255504 -0.136963 0.841000 5988969
-0.255504 -0.132157 0.841000 1051650
-0.257630 -0.128411 0.848000 1709852
-0.258846 -0.124149 0.852000 2364183
-0.258846 -0.119280 0.852000 3282205
-0.229448 -0.271429 0.760000 9181009
-0.229448 -0.267086 0.760000 9773366
-0.228240 -0.261360 0.756000 9706040
-0.227032 -0.255680 0.752000 10095913
-0.224919 -0.249043 0.745000 11406638
-0.224919 -0.244786 0.745000 10551587
-0.224919 -0.240529 0.745000 10224406
-0.225825 -0.237223 0.748000 9962528
-0.227334 -0.234506 0.753000 9635105
-0.227032 -0.229897 0.752000 9504038
-0.228844 -0.227400 0.758000 9570081
-0.229750 -0.223951 0.761000 9505056
-0.230353 -0.220180 0.763000 4852508
-0.230957 -0.216386 0.765000 1971496
-0.231863 -0.212846 0.768000 2102815
-0.233372 -0.209814 0.773000 2430243
-0.233372 -0.205397 0.773000 2365988
-0.233976 -0.201500 0.775000 1905959
-0.235486 -0.198343 0.780000 4458027
-0.237901 -0.195874 0.788000 9572160
-0.238807 -0.192100 0.791000 9638188
-0.238807 -0.187580 0.791000 9704494
-0.240014 -0.183986 0.795000 9253688
-0.241524 -0.180571 0.800000 12366439
-0.242731 -0.176880 0.804000 8850256
-0.243939 -0.173143 0.808000 9571631
-0.244543 -0.168943 0.810000 9571622
-0.245750 -0.165126 0.814000 9636896
-0.246656 -0.161066 0.817000 9966897
-0.247864 -0.157163 0.821000 10494776
-0.249071 -0.153214 0.825000 12415558
-0.249675 -0.148860 0.827000 13409335
-0.251487 -0.145180 0.833000 13344857
-0.253298 -0.141431 0.839000 14398825
-0.253298 -0.136637 0.839000 11837819
-0.254506 -0.132471 0.843000 197931
-0.256015 -0.128411 0.848000 1642518
-0.257223 -0.124149 0.852000 1906198
-0.257827 -0.119560 0.854000 2954776
-0.228000 -0.267086 0.760000 9641777
-0.226800 -0.261360 0.756000 9771321
-0.225600 -0.255680 0.752000 10161696
-0.223500 -0.249043 0.745000 11078435
-0.224100 -0.245443 0.747000 10486046
-0.224100 -0.241174 0.747000 10552348
-0.225000 -0.237857 0.750000 9896994
-0.225900 -0.234506 0.753000 9634847
-0.226500 -0.230814 0.755000 9504287
-0.228000 -0.228000 0.760000 9569827
-0.228900 -0.224540 0.763000 9440034
-0.228900 -0.220180 0.763000 3408670
-0.229500 -0.216386 0.765000 2168361
-0.231000 -0.213400 0.770000 2168611
-0.231900 -0.209814 0.773000 2430756
-0.232500 -0.205929 0.775000 2497319
-0.233100 -0.202020 0.777000 2886705
-0.234000 -0.198343 0.780000 8061247
-0.236700 -0.196123 0.789000 10237532
-0.237900 -0.192586 0.793000 9503784
-0.237900 -0.188054 0.793000 9637167
-0.238500 -0.183986 0.795000 10966592
-0.240000 -0.180571 0.800000 12098375
-0.241200 -0.176880 0.804000 9044300
-0.242400 -0.173143 0.808000 9506099
-0.243600 -0.169360 0.812000 9571626
-0.244500 -0.165329 0.815000 9571115
-0.245700 -0.161460 0.819000 9834541
-0.246900 -0.157546 0.823000 10297639
-0.248100 -0.153586 0.827000 11554623
-0.248700 -0.149220 0.829000 12351771
-0.249900 -0.145180 0.833000 13606498
-0.251700 -0.141431 0.839000 14268007
-0.251700 -0.136637 0.839000 13355661
-0.252900 -0.132471 0.843000 4348243
-0.254400 -0.128411 0.848000 1116689
-0.256200 -0.124440 0.854000 2037524
-0.256200 -0.119560 0.854000 2625812
-0.226552 -0.267086 0.760000 9509942
-0.225062 -0.261014 0.755000 9836853
-0.224168 -0.255680 0.752000 10292772
-0.222677 -0.249711 0.747000 10749736
-0.222677 -0.245443 0.747000 10420508
-0.222975 -0.241497 0.748000 10815269
-0.224168 -0.238491 0.752000 9896727
-0.224466 -0.234506 0.753000 9634845
-0.225062 -0.230814 0.755000 9569564
-0.226552 -0.228000 0.760000 9570080
-0.227447 -0.224540 0.763000 9439522
-0.227447 -0.220180 0.763000 1968926
-0.228043 -0.216386 0.765000 2430246
-0.229533 -0.213400 0.770000 2234659
-0.231024 -0.210357 0.775000 2431524
-0.231024 -0.205929 0.775000 2562599
-0.231620 -0.202020 0.777000 3867698
-0.232514 -0.198343 0.780000 11684952
-0.235793 -0.196620 0.791000 10979993
-0.236390 -0.192586 0.793000 9315683
-0.236390 -0.188054 0.793000 9507652
-0.236986 -0.183986 0.795000 12674620
-0.237880 -0.180120 0.798000 11836997
-0.239669 -0.176880 0.804000 9175872
-0.240861 -0.173143 0.808000 9440820
-0.242053 -0.169360 0.812000 9506346
-0.242948 -0.165329 0.815000 9570087
-0.244140 -0.161460 0.819000 9643063
-0.245929 -0.157929 0.825000 10099783
-0.247121 -0.153957 0.829000 10636358
-0.247121 -0.149220 0.829000 11295799
-0.248910 -0.145529 0.835000 13866056
-0.250102 -0.141431 0.839000 14201963
-0.250698 -0.136963 0.841000 14796438
-0.251294 -0.132471 0.843000 8498574
-0.252785 -0.128411 0.848000 592931
-0.255170 -0.124731 0.856000 2234395
-0.255170 -0.119840 0.856000 2233369
-0.225105 -0.267086 0.760000 9703738
-0.223624 -0.261014 0.755000 10032433
-0.223031 -0.256020 0.753000 10620712
-0.221254 -0.249711 0.747000 10748974
-0.221254 -0.245443 0.747000 10420505
-0.222143 -0.242143 0.750000 10488109
-0.223031 -0.238809 0.753000 9831180
-0.223624 -0.235129 0.755000 9700636
-0.223920 -0.231120 0.756000 9635097
-0.225401 -0.228300 0.761000 9570076
-0.225993 -0.224540 0.763000 8917026
-0.225993 -0.220180 0.763000 1574175
-0.226586 -0.216386 0.765000 2299938
-0.228659 -0.213954 0.772000 2169123
-0.229548 -0.210357 0.775000 2365988
-0.230140 -0.206460 0.777000 2759208
-0.230732 -0.202540 0.779000 5180211
-0.233694 -0.200631 0.789000 11501937
-0.234287 -0.196620 0.791000 12098774
-0.234879 -0.192586 0.793000 10969503
-0.234879 -0.188054 0.793000 9974361
-0.235471 -0.183986 0.795000 12682552
-0.236952 -0.180571 0.800000 11701059
-0.238730 -0.177320 0.806000 9306421
-0.239914 -0.173571 0.810000 9440052
-0.241099 -0.169777 0.814000 9637930
-0.241395 -0.165329 0.815000 9966626
-0.243172 -0.161854 0.821000 10965058
-0.244357 -0.157929 0.825000 11162726
-0.245542 -0.153957 0.829000 10571597
-0.246134 -0.149580 0.831000 10112850
-0.247319 -0.145529 0.835000 12550702
-0.248504 -0.141431 0.839000 14004334
-0.249096 -0.136963 0.841000 14599839
-0.250281 -0.132786 0.845000 11452105
-0.251762 -0.128714 0.850000 331316
-0.253539 -0.124731 0.856000 2167841
-0.253539 -0.119840 0.856000 2168094
-0.223657 -0.267086 0.760000 9897774
-0.222186 -0.261014 0.755000 10162226
-0.221303 -0.255680 0.752000 10948138
-0.219831 -0.249711 0.747000 10683176
-0.220126 -0.245771 0.748000 10486045
-0.221303 -0.242789 0.752000 10159650
-0.221597 -0.238809 0.753000 9765647
-0.222186 -0.235129 0.755000 9700375
-0.223069 -0.231731 0.758000 9700633
-0.223951 -0.228300 0.761000 9569566
-0.225129 -0.225129 0.765000 8459544
-0.225129 -0.220757 0.765000 1116708
-0.225717 -0.216951 0.767000 2234399
-0.227189 -0.213954 0.772000 2103584
-0.228071 -0.210357 0.775000 2234912
-0.228660 -0.206460 0.777000 2953507
-0.229249 -0.202540 0.779000 6557725
-0.232191 -0.200631 0.789000 11294828
-0.232780 -0.196620 0.791000 13284810
-0.233369 -0.192586 0.793000 12554669
-0.233369 -0.188054 0.793000 10438778
-0.234840 -0.184680 0.798000 12602434
-0.236017 -0.181023 0.802000 11507492
-0.237194 -0.177320 0.806000 9449529
-0.238371 -0.173571 0.810000 9440053
-0.239549 -0.169777 0.814000 9702953
-0.240431 -0.165734 0.817000 10365241
-0.242197 -0.162249 0.823000 12221284
-0.243374 -0.158311 0.827000 12222315
-0.244551 -0.154329 0.831000 10442836
-0.245140 -0.149940 0.833000 8933188
-0.246317 -0.145877 0.837000 11224356
-0.246906 -0.141431 0.839000 13804622
-0.248083 -0.137289 0.843000 14397844
-0.248671 -0.132786 0.845000 14402228
-0.250143 -0.128714 0.850000 86874
-0.251909 -0.124731 0.856000 2101271
-0.251909 -0.119840 0.856000 2102816
-0.220748 -0.261014 0.755000 10291762
-0.219870 -0.255680 0.752000 10751532
-0.218701 -0.250046 0.748000 10552098
-0.219286 -0.246429 0.750000 10356000
-0.219870 -0.242789 0.752000 10093591
-0.220163 -0.238809 0.753000 9766162
-0.221040 -0.235440 0.756000 9700371
-0.222210 -0.232343 0.760000 9700632
-0.223087 -0.228900 0.763000 9503776
-0.223671 -0.225129 0.765000 7082254
-0.223671 -0.220757 0.765000 1707306
-0.224256 -0.216951 0.767000 1971739
-0.225718 -0.213954 0.772000 2234652
-0.227765 -0.211443 0.779000 2234396
-0.227765 -0.206991 0.779000 1903390
-0.229811 -0.204360 0.786000 8263687
-0.230396 -0.200377 0.788000 11753831
-0.231273 -0.196620 0.791000 12686270
-0.231858 -0.192586 0.793000 12102076
-0.232443 -0.188529 0.795000 10568603
-0.233320 -0.184680 0.798000 11666764
-0.234490 -0.181023 0.802000 11691781
-0.236244 -0.177760 0.808000 11512893
-0.236829 -0.173571 0.810000 9903669
-0.238290 -0.169986 0.815000 9702440
-0.238875 -0.165734 0.817000 11361104
-0.240630 -0.162249 0.823000 12556935
-0.241799 -0.158311 0.827000 12354415
-0.242969 -0.154329 0.831000 10051676
-0.243553 -0.149940 0.833000 9391414
-0.244723 -0.145877 0.837000 10486043
-0.245892 -0.141769 0.841000 11953197
-0.247062 -0.137614 0.845000 13339017
-0.247939 -0.133257 0.848000 14467230
-0.248524 -0.128714 0.850000 6197887
-0.250278 -0.124731 0.856000 1641229
-0.250863 -0.120120 0.858000 2168354
-0.219310 -0.261014 0.755000 10358590
-0.218438 -0.255680 0.752000 10619947
-0.217857 -0.250714 0.750000 10355742
-0.218438 -0.247086 0.752000 10291753
-0.218729 -0.243111 0.753000 9962783
-0.219310 -0.239443 0.755000 9701143
-0.220181 -0.236063 0.758000 9635098
-0.220762 -0.232343 0.760000 9700633
-0.221633 -0.228900 0.763000 9373209
-0.222795 -0.225717 0.767000 5773838
-0.222214 -0.220757 0.765000 2231589
-0.225700 -0.219780 0.777000 1709336
-0.225700 -0.215340 0.777000 2299421
-0.225700 -0.210900 0.777000 2233886
-0.226571 -0.207257 0.780000 855078
-0.228314 -0.204360 0.786000 9972759
-0.228895 -0.200377 0.788000 12157578
-0.229767 -0.196620 0.791000 12086742
-0.230929 -0.193071 0.795000 11558575
-0.230929 -0.188529 0.795000 10771558
-0.232381 -0.185143 0.800000 10767438
-0.233543 -0.181474 0.804000 11888408
-0.234705 -0.177760 0.808000 13543733
-0.235867 -0.174000 0.812000 10355761
-0.236738 -0.169986 0.815000 9637679
-0.237319 -0.165734 0.817000 12421226
-0.239062 -0.162249 0.823000 12816506
-0.240805 -0.158694 0.829000 12418120
-0.241386 -0.154329 0.831000 9597264
-0.241967 -0.149940 0.833000 9851678
-0.243710 -0.146226 0.839000 9778751
-0.244871 -0.142106 0.843000 10036540
-0.245452 -0.137614 0.845000 12216675
-0.246324 -0.133257 0.848000 14530451
-0.247486 -0.129017 0.852000 12231297
-0.249229 -0.125023 0.858000 1246225
-0.249229 -0.120120 0.858000 2234403
-0.217871 -0.261014 0.755000 10624329
-0.217006 -0.255680 0.752000 10490410
-0.217006 -0.251383 0.752000 10355225
-0.217006 -0.247086 0.752000 10225458
-0.217294 -0.243111 0.753000 9897767
-0.217871 -0.239443 0.755000 9701403
-0.219314 -0.236686 0.760000 9635105
-0.220180 -0.233260 0.763000 9635097
-0.220757 -0.229500 0.765000 9636370
-0.221334 -0.225717 0.767000 4918542
-0.224220 -0.224220 0.777000 2035232
-0.224220 -0.219780 0.777000 1708821
-0.224220 -0.215340 0.777000 2036511
-0.224797 -0.211443 0.779000 2036768
-0.225086 -0.207257 0.780000 3541551
-0.227394 -0.204880 0.788000 10169895
-0.227394 -0.200377 0.788000 12034220
-0.228260 -0.196620 0.791000 12821229
-0.229414 -0.193071 0.795000 11748514
-0.230280 -0.189240 0.798000 10498865
-0.231434 -0.185606 0.802000 11240528
-0.232589 -0.181926 0.806000 11889962
-0.233166 -0.177760 0.808000 13144366
-0.234320 -0.174000 0.812000 10033197
-0.235186 -0.169986 0.815000 9637942
-0.236340 -0.166140 0.819000 12554883
-0.238071 -0.162643 0.825000 11828078
-0.239226 -0.158694 0.829000 11092257
-0.239803 -0.154329 0.831000 9536836
-0.240380 -0.149940 0.833000 10234373
-0.242689 -0.146574 0.841000 11831652
-0.243843 -0.142443 0.845000 10235466
-0.244709 -0.138103 0.848000 11427645
-0.245286 -0.133571 0.850000 14068360
-0.246440 -0.129320 0.854000 13750915
-0.247594 -0.125023 0.858000 2101269
-0.247594 -0.120120 0.858000 2234660
-0.215573 -0.255680 0.752000 10300764
-0.215573 -0.251383 0.752000 10362437
-0.215860 -0.247414 0.753000 10224444
-0.216433 -0.243757 0.755000 9766182
-0.216433 -0.239443 0.755000 9636632
-0.218727 -0.237620 0.763000 9570335
-0.219300 -0.233871 0.765000 9504285
-0.219300 -0.229500 0.765000 9834255
-0.219873 -0.225717 0.767000 4063514
-0.222740 -0.224220 0.777000 1773854
-0.223313 -0.220346 0.779000 1774357
-0.222740 -0.215340 0.777000 1774105
-0.223313 -0.211443 0.779000 1840925
-0.224747 -0.208320 0.784000 6230310
-0.226180 -0.205140 0.789000 10422065
-0.226180 -0.200631 0.789000 11898024
-0.227327 -0.197117 0.793000 13547202
-0.228473 -0.193557 0.797000 11893402
-0.229907 -0.190189 0.802000 10223938
-0.230480 -0.186069 0.804000 11698774
-0.231053 -0.181926 0.806000 11949873
-0.232773 -0.178640 0.812000 12754506
-0.232773 -0.174000 0.812000 9699625
-0.233633 -0.169986 0.815000 9578551
-0.234780 -0.166140 0.819000 12688747
-0.236500 -0.162643 0.825000 10766158
-0.238220 -0.159077 0.831000 9769746
-0.238793 -0.154700 0.833000 9472857
-0.239367 -0.150300 0.835000 10617135
-0.241087 -0.146574 0.841000 13869700
-0.242233 -0.142443 0.845000 10432076
-0.243093 -0.138103 0.848000 10635325
-0.243667 -0.133571 0.850000 13541232
-0.245387 -0.129623 0.856000 15188854
-0.245960 -0.125023 0.858000 2949436
-0.214141 -0.255680 0.752000 11038350
-0.214141 -0.251383 0.752000 10773617
-0.214426 -0.247414 0.753000 10302277
-0.214426 -0.243111 0.753000 9634598
-0.216419 -0.241029 0.760000 9373717
-0.217273 -0.237620 0.763000 9504541
-0.217843 -0.233871 0.765000 9571105
-0.218412 -0.230100 0.767000 8851981
-0.218412 -0.225717 0.767000 2820390
-0.221260 -0.224220 0.777000 1905949
-0.221830 -0.220346 0.779000 1905429
-0.221830 -0.215894 0.779000 1970195
-0.222114 -0.211714 0.780000 1642522
-0.223823 -0.208851 0.786000 8002076
-0.225247 -0.205660 0.791000 10236731
-0.225247 -0.201140 0.791000 12164515
-0.226386 -0.197614 0.795000 12819351
-0.227240 -0.193800 0.798000 11762834
-0.228379 -0.190189 0.802000 11024466
-0.229518 -0.186531 0.806000 12820317
-0.230088 -0.182377 0.808000 11696439
-0.230657 -0.178200 0.810000 12828774
-0.231796 -0.174429 0.814000 9115173
-0.232081 -0.169986 0.815000 9321528
-0.233790 -0.166546 0.821000 11297875
-0.234929 -0.162643 0.825000 10230318
-0.236637 -0.159077 0.831000 9903619
-0.237207 -0.154700 0.833000 9676655
-0.238346 -0.150660 0.837000 10960472
-0.240054 -0.146923 0.843000 14270628
-0.240624 -0.142443 0.845000 10767693
-0.241478 -0.138103 0.848000 10761021
-0.242617 -0.133886 0.852000 12680024
-0.243756 -0.129623 0.856000 14925929
-0.244326 -0.125023 0.858000 4143459
-0.212709 -0.251383 0.752000 11175553
-0.212991 -0.247414 0.753000 10386029
-0.212991 -0.243111 0.753000 9451605
-0.214971 -0.241029 0.760000 9112130
-0.215820 -0.237620 0.763000 9441581
-0.216386 -0.233871 0.765000 9572656
-0.216951 -0.230100 0.767000 7802905
-0.217234 -0.226011 0.768000 1642788
-0.219780 -0.224220 0.777000 1971741
-0.220346 -0.220346 0.779000 1970966
-0.220346 -0.215894 0.779000 2167318
-0.221194 -0.212257 0.782000 1446172
-0.222891 -0.209383 0.788000 9701918
-0.224306 -0.206180 0.793000 10056032
-0.224306 -0.201649 0.793000 12352679
-0.225720 -0.198360 0.798000 12097696
-0.226286 -0.194286 0.800000 11560572
-0.227417 -0.190663 0.804000 11881786
-0.227983 -0.186531 0.806000 13932102
-0.228549 -0.182377 0.808000 11498315
-0.230246 -0.179080 0.814000 12811087
-0.230529 -0.174643 0.815000 8527153
-0.231094 -0.170403 0.817000 9066819
-0.232226 -0.166546 0.821000 9979730
-0.233923 -0.163037 0.827000 9705271
-0.235054 -0.159077 0.831000 10030107
-0.236186 -0.155071 0.835000 9863015
-0.236751 -0.150660 0.837000 11293766
-0.238449 -0.146923 0.843000 14660764
-0.239014 -0.142443 0.845000 11094849
-0.239863 -0.138103 0.848000 10827585
-0.240994 -0.133886 0.852000 11753279
-0.242126 -0.129623 0.856000 14659434
-0.242691 -0.125023 0.858000 5391730
-0.211557 -0.247414 0.753000 11177876
-0.211557 -0.243111 0.753000 10712963
-0.214929 -0.238243 0.765000 8988990
-0.214929 -0.233871 0.765000 8393535
-0.215490 -0.230100 0.767000 4590374
-0.215771 -0.226011 0.768000 2037282
-0.218300 -0.224220 0.777000 2037534
-0.218862 -0.220346 0.779000 2036758
-0.219705 -0.216726 0.782000 2232346
-0.220267 -0.212800 0.784000 2493469
-0.221390 -0.209383 0.788000 9373729
-0.222795 -0.206180 0.793000 10904965
-0.223357 -0.202157 0.795000 12351916
-0.224200 -0.198360 0.798000 12289961
-0.225324 -0.194771 0.802000 10506598
-0.226448 -0.191137 0.806000 12151585
-0.227010 -0.186994 0.808000 12748080
-0.227571 -0.182829 0.810000 11961951
-0.228695 -0.179080 0.814000 11626039
-0.228976 -0.174643 0.815000 9378876
-0.230100 -0.170820 0.819000 9405518
-0.231224 -0.166951 0.823000 9590608
-0.232348 -0.163037 0.827000 9706304
-0.234033 -0.159460 0.833000 9056050
-0.235157 -0.155443 0.837000 8551776
-0.235719 -0.151020 0.839000 11289139
-0.237405 -0.147271 0.845000 14595476
-0.238248 -0.142949 0.848000 11027508
-0.238248 -0.138103 0.848000 10827334
-0.239371 -0.133886 0.852000 11553829
-0.240495 -0.129623 0.856000 13212011
-0.241057 -0.125023 0.858000 5985409
-0.213471 -0.238243 0.765000 8477037
-0.214030 -0.234483 0.767000 7212363
-0.214030 -0.230100 0.767000 1380899
-0.216820 -0.224220 0.777000 2103325
-0.217378 -0.220346 0.779000 2037014
-0.218773 -0.217280 0.784000 2233115
-0.219331 -0.213343 0.786000 3606817
-0.219890 -0.209383 0.788000 8981813
-0.221285 -0.206180 0.793000 11822213
-0.221843 -0.202157 0.795000 12291510
-0.222680 -0.198360 0.798000 12563875
-0.223796 -0.194771 0.802000 9383005
-0.224912 -0.191137 0.806000 12492582
-0.225470 -0.186994 0.808000 11493955
-0.226587 -0.183280 0.812000 12420189
-0.227982 -0.179740 0.817000 10370107
-0.227982 -0.175071 0.817000 10231355
-0.229656 -0.171654 0.823000 9657158
-0.229656 -0.166951 0.823000 9207652
-0.231330 -0.163431 0.829000 9710926
-0.232447 -0.159460 0.833000 8139338
-0.233563 -0.155443 0.837000 7171933
-0.234679 -0.151380 0.841000 11281450
-0.235795 -0.147271 0.845000 14463114
-0.236632 -0.142949 0.848000 10948155
-0.237190 -0.138429 0.850000 10829383
-0.238307 -0.134200 0.854000 11420212
-0.239423 -0.129926 0.858000 11756121
-0.239981 -0.125314 0.860000 6637690
-0.212014 -0.238243 0.765000 10324892
-0.212569 -0.234483 0.767000 7419735
-0.212569 -0.230100 0.767000 1381665
-0.215894 -0.224797 0.779000 2430749
-0.215894 -0.220346 0.779000 2168341
-0.217280 -0.217280 0.784000 2298653
-0.218389 -0.213886 0.788000 3804196
-0.219774 -0.210711 0.793000 10165066
-0.220329 -0.206700 0.795000 11961733
-0.221160 -0.202920 0.798000 12419777
-0.221714 -0.198857 0.800000 11499933
-0.222823 -0.195257 0.804000 9306451
-0.223931 -0.191611 0.808000 13017386
-0.224486 -0.187457 0.810000 10367575
-0.225040 -0.183280 0.812000 13080410
-0.226980 -0.180180 0.819000 10160447
-0.226426 -0.175071 0.817000 10296634
-0.228643 -0.172071 0.825000 9910334
-0.229197 -0.167763 0.827000 8947576
-0.230306 -0.163826 0.831000 8538205
-0.230860 -0.159460 0.833000 7754338
-0.231969 -0.155443 0.837000 6840153
-0.233077 -0.151380 0.841000 11219744
-0.234186 -0.147271 0.845000 14464128
-0.235017 -0.142949 0.848000 10690369
-0.235571 -0.138429 0.850000 10765384
-0.236680 -0.134200 0.854000 11027267
-0.237789 -0.129926 0.858000 10355014
-0.238343 -0.125314 0.860000 6441074
-0.211108 -0.234483 0.767000 7564666
-0.211108 -0.230100 0.767000 1387081
-0.216337 -0.217834 0.786000 2299167
-0.216888 -0.213886 0.788000 3933222
-0.218814 -0.211243 0.795000 11288137
-0.219365 -0.207220 0.797000 12091533
-0.219640 -0.202920 0.798000 12488113
-0.220190 -0.198857 0.800000 10420637
-0.221291 -0.195257 0.804000 9181751
-0.222392 -0.191611 0.808000 13615439
-0.222943 -0.187457 0.810000 9258048
-0.224044 -0.183731 0.814000 13742653
-0.224319 -0.179300 0.815000 9970235
-0.225970 -0.175929 0.821000 10427957
-0.227071 -0.172071 0.825000 10105659
-0.228172 -0.168169 0.829000 8749662
-0.228723 -0.163826 0.831000 7301723
-0.229824 -0.159843 0.835000 7433565
-0.230925 -0.155814 0.839000 6510924
-0.231475 -0.151380 0.841000 11150372
-0.232576 -0.147271 0.845000 14457957
-0.233402 -0.142949 0.848000 10420540
-0.233952 -0.138429 0.850000 10696004
-0.235604 -0.134514 0.856000 10633291
-0.236154 -0.129926 0.858000 8987215
-0.237255 -0.125606 0.862000 6311553
-0.214840 -0.217834 0.786000 2495776
-0.215387 -0.213886 0.788000 4131623
-0.218120 -0.212040 0.798000 11228233
-0.218120 -0.207480 0.798000 11555476
-0.218120 -0.202920 0.798000 12493986
-0.219213 -0.199354 0.802000 10236829
-0.220307 -0.195743 0.806000 11010586
-0.221400 -0.192086 0.810000 12224883
-0.221947 -0.187920 0.812000 10820137
-0.222767 -0.183957 0.815000 12951840
-0.222767 -0.179300 0.815000 9765176
-0.224407 -0.175929 0.821000 10494256
-0.225500 -0.172071 0.825000 10236728
-0.227140 -0.168574 0.831000 8998468
-0.227687 -0.164220 0.833000 6783833
-0.228233 -0.159843 0.835000 6583896
-0.229327 -0.155814 0.839000 6246464
-0.230420 -0.151740 0.843000 10891047
-0.231787 -0.147794 0.848000 12552779
-0.232333 -0.143286 0.850000 10361655
-0.232880 -0.138754 0.852000 10560577
-0.233973 -0.134514 0.856000 10562642
-0.235067 -0.130229 0.860000 9522519
-0.235613 -0.125606 0.862000 6442384
-0.216600 -0.212040 0.798000 11156783
-0.216600 -0.207480 0.798000 11080532
-0.216600 -0.202920 0.798000 12420981
-0.217686 -0.199354 0.802000 10053248
-0.219314 -0.196229 0.808000 12801066
-0.220400 -0.192560 0.812000 10895217
-0.220943 -0.188383 0.814000 12344373
-0.221757 -0.184409 0.817000 12098070
-0.222843 -0.180620 0.821000 9504028
-0.223386 -0.176357 0.823000 10560032
-0.224471 -0.172489 0.827000 10365489
-0.225557 -0.168574 0.831000 9185105
-0.226643 -0.164614 0.835000 6258774
-0.227186 -0.160226 0.837000 5800022
-0.228271 -0.156186 0.841000 5986633
-0.229357 -0.152100 0.845000 10624815
-0.230171 -0.147794 0.848000 10568242
-0.230714 -0.143286 0.850000 10299696
-0.231257 -0.138754 0.852000 10428481
-0.232886 -0.134829 0.858000 10494544
-0.233971 -0.130531 0.862000 9981014
-0.215619 -0.212571 0.800000 10294549
-0.215619 -0.208000 0.800000 10096148
-0.215619 -0.203429 0.800000 10973257
-0.217236 -0.200349 0.806000 10231138
-0.217775 -0.196229 0.808000 13208891
-0.218853 -0.192560 0.812000 10899822
-0.219392 -0.188383 0.814000 12495169
-0.219662 -0.183957 0.815000 11231500
-0.220740 -0.180180 0.819000 9502977
-0.221818 -0.176357 0.823000 10296592
-0.222896 -0.172489 0.827000 10167850
-0.223435 -0.168169 0.829000 8994398
-0.224513 -0.164220 0.833000 5865043
-0.225591 -0.160226 0.837000 5402708
-0.226130 -0.155814 0.839000 5724498
-0.227209 -0.151740 0.843000 9840951
-0.229095 -0.148143 0.850000 10489625
-0.229095 -0.143286 0.850000 10230057
-0.230173 -0.139080 0.854000 10361920
-0.231251 -0.134829 0.858000 10431053
-0.233138 -0.130986 0.865000 10112854
-0.214095 -0.212571 0.800000 9375004
-0.214095 -0.208000 0.800000 9176859
-0.214630 -0.203937 0.802000 9510697
-0.216236 -0.200846 0.808000 10355027
-0.216771 -0.196714 0.810000 13541193
-0.217307 -0.192560 0.812000 10961976
-0.218110 -0.188614 0.815000 12552761
-0.218645 -0.184409 0.817000 10374154
-0.219715 -0.180620 0.821000 9509924
-0.220250 -0.176357 0.823000 10099212
-0.221321 -0.172489 0.827000 9969441
-0.222391 -0.168574 0.831000 8872039
-0.223462 -0.164614 0.835000 5403993
-0.224532 -0.160609 0.839000 5007695
-0.225068 -0.156186 0.841000 5397838
-0.226138 -0.152100 0.845000 9064778
-0.226941 -0.147794 0.848000 10442587
-0.227476 -0.143286 0.850000 10166877
-0.228547 -0.139080 0.854000 10236238
-0.229617 -0.134829 0.858000 10366794
-0.230688 -0.130531 0.862000 10175830
-0.213103 -0.208520 0.802000 9442338
-0.214166 -0.204954 0.806000 9634057
-0.215229 -0.201343 0.810000 11354947
-0.215760 -0.197200 0.812000 12696919
-0.216291 -0.193034 0.814000 11493889
-0.216557 -0.188614 0.815000 12680242
-0.217620 -0.184860 0.819000 11421191
-0.218683 -0.181060 0.823000 11430982
-0.218683 -0.176357 0.823000 9637127
-0.220277 -0.172906 0.829000 9834265
-0.221340 -0.168980 0.833000 7762799
-0.221871 -0.164614 0.835000 5006176
-0.222934 -0.160609 0.839000 4016970
-0.223997 -0.156557 0.843000 5070923
-0.224529 -0.152100 0.845000 8289885
-0.225326 -0.147794 0.848000 11190685
-0.225857 -0.143286 0.850000 10125968
-0.226920 -0.139080 0.854000 9524061
-0.228514 -0.135143 0.860000 10170183
-0.229046 -0.130531 0.862000 10372183
-0.211575 -0.208520 0.802000 9643810
-0.212630 -0.204954 0.806000 9709592
-0.213686 -0.201343 0.810000 12423507
-0.214741 -0.197686 0.814000 11826496
-0.215005 -0.193271 0.815000 12089365
-0.215532 -0.189077 0.817000 12751429
-0.216588 -0.185311 0.821000 12549185
-0.217115 -0.181060 0.823000 13345390
-0.217643 -0.176786 0.825000 9176123
-0.218698 -0.172906 0.829000 9708581
-0.219753 -0.168980 0.833000 6722162
-0.220809 -0.165009 0.837000 4546392
-0.222391 -0.161374 0.843000 3030832
-0.222919 -0.156929 0.845000 4741190
-0.222919 -0.152100 0.845000 7570008
-0.224238 -0.148143 0.850000 11838832
-0.225293 -0.143960 0.854000 10066513
-0.225821 -0.139406 0.856000 8739409
-0.227404 -0.135457 0.862000 9972553
-0.228195 -0.130986 0.865000 10513749
-0.210048 -0.208520 0.802000 7543330
-0.211619 -0.205463 0.808000 10449703
-0.213190 -0.202337 0.814000 12422754
-0.213452 -0.197929 0.815000 10368553
-0.213976 -0.193746 0.817000 11227433
-0.214500 -0.189540 0.819000 12621912
-0.215548 -0.185763 0.823000 13548922
-0.216071 -0.181500 0.825000 13427607
-0.216595 -0.177214 0.827000 9779567
-0.217643 -0.173323 0.831000 9655346
-0.219214 -0.169791 0.837000 6522485
-0.219738 -0.165403 0.839000 4875857
-0.221310 -0.161757 0.845000 4145941
-0.221310 -0.156929 0.845000 6314562
-0.222095 -0.152640 0.848000 8285267
-0.223667 -0.148840 0.854000 10583874
-0.224190 -0.144297 0.856000 9586194
-0.224190 -0.139406 0.856000 9850437
-0.225762 -0.135457 0.862000 10570058
-0.226548 -0.130986 0.865000 11901780
-0.210080 -0.205463 0.808000 11096597
-0.211640 -0.202337 0.814000 12418118
-0.212420 -0.198414 0.817000 8923948
-0.212940 -0.194220 0.819000 10375242
-0.213460 -0.190003 0.821000 12422228
-0.213980 -0.185763 0.823000 14597987
-0.214500 -0.181500 0.825000 13412973
-0.215540 -0.177643 0.829000 10373226
-0.217100 -0.174157 0.835000 9528143
-0.218140 -0.170197 0.839000 6324565
-0.219180 -0.166191 0.843000 5204799
-0.219700 -0.161757 0.845000 5260065
-0.220480 -0.157486 0.848000 7812425
-0.220480 -0.152640 0.848000 9000530
-0.222040 -0.148840 0.854000 9254704
-0.222560 -0.144297 0.856000 9044258
-0.223600 -0.140057 0.860000 10959412
-0.224120 -0.135457 0.862000 11172179
-0.224900 -0.130986 0.865000 13279303
-0.208541 -0.205463 0.808000 7414276
-0.210090 -0.202337 0.814000 10829866
-0.211380 -0.198900 0.819000 10621488
-0.212412 -0.195169 0.823000 11500651
-0.212412 -0.190466 0.823000 12487504
-0.213445 -0.186666 0.827000 13080652
-0.213961 -0.182380 0.829000 11105603
-0.214993 -0.178500 0.833000 9527652
-0.216026 -0.174574 0.837000 9397356
-0.216542 -0.170197 0.839000 7746357
-0.218090 -0.166586 0.845000 4880174
-0.218090 -0.161757 0.845000 7153965
-0.219381 -0.157857 0.850000 10099281
-0.219897 -0.153360 0.852000 10183248
-0.220413 -0.148840 0.854000 9571870
-0.221446 -0.144634 0.858000 9504817
-0.222478 -0.140383 0.862000 11226148
-0.223252 -0.135929 0.865000 11899483
-0.223252 -0.130986 0.865000 13158202
-0.207002 -0.205463 0.808000 3674384
-0.208539 -0.202337 0.814000 9307957
-0.210332 -0.199386 0.821000 12282707
-0.211357 -0.195643 0.825000 12619105
-0.211870 -0.191391 0.827000 12555603
-0.212382 -0.187117 0.829000 11630670
-0.212894 -0.182820 0.831000 8802888
-0.213919 -0.178929 0.835000 8669499
-0.215456 -0.175409 0.841000 9258833
-0.215969 -0.171009 0.843000 9240887
-0.216481 -0.166586 0.845000 4549959
-0.217250 -0.162331 0.848000 9045820
-0.218274 -0.158229 0.852000 12413045
-0.218787 -0.153720 0.854000 11437686
-0.219299 -0.149189 0.856000 9900066
-0.220324 -0.144971 0.860000 10032435
-0.220836 -0.140383 0.862000 11419684
-0.221605 -0.135929 0.865000 12623683
-0.207243 -0.202586 0.815000 6955583
-0.208769 -0.199386 0.821000 12363895
-0.209786 -0.195643 0.825000 12684374
-0.210803 -0.191854 0.829000 11772759
-0.211311 -0.187569 0.831000 10313552
-0.211820 -0.183260 0.833000 8717390
-0.212837 -0.179357 0.837000 8922386
-0.213854 -0.175409 0.841000 9517366
-0.214363 -0.171009 0.843000 9520696
-0.214871 -0.166586 0.845000 7301216
-0.216143 -0.162714 0.850000 11364939
-0.216651 -0.158229 0.852000 13674138
-0.217160 -0.153720 0.854000 11367324
-0.218177 -0.149537 0.858000 9965863
-0.218686 -0.144971 0.860000 10097717
-0.219957 -0.140871 0.865000 11151652
-0.220466 -0.136243 0.867000 12226603
-0.205690 -0.202586 0.815000 4589890
-0.207205 -0.199386 0.821000 12415555
-0.209224 -0.196591 0.829000 12810296
-0.210233 -0.192780 0.833000 10973762
-0.210233 -0.188020 0.833000 9064262
-0.211748 -0.184580 0.839000 8656965
-0.212252 -0.180214 0.841000 9247260
-0.212757 -0.175826 0.843000 9778486
-0.213262 -0.171414 0.845000 9857888
-0.214019 -0.167177 0.848000 9988679
-0.214524 -0.162714 0.850000 13676658
-0.215533 -0.158600 0.854000 14855818
-0.216038 -0.154080 0.856000 11358799
-0.216543 -0.149537 0.858000 10032175
-0.217552 -0.145309 0.862000 10232111
-0.218814 -0.141197 0.867000 10831659
-0.219319 -0.136557 0.869000 11892810
-0.205641 -0.199386 0.821000 6816016
-0.208647 -0.197540 0.833000 9136666
-0.209148 -0.193243 0.835000 9649709
-0.210650 -0.189826 0.841000 9783868
-0.211151 -0.185460 0.843000 10239549
-0.210650 -0.180214 0.841000 9842982
-0.211652 -0.176243 0.845000 9712694
-0.212404 -0.172023 0.848000 9536904
-0.212905 -0.167571 0.850000 10246191
-0.212905 -0.162714 0.850000 12357785
-0.213907 -0.158600 0.854000 12490619
-0.214909 -0.154440 0.858000 10430466
-0.215910 -0.150234 0.862000 10098743
-0.217163 -0.146151 0.867000 10700329
-0.217664 -0.141523 0.869000 11499827
-0.217664 -0.136557 0.869000 10784361
-0.207060 -0.197540 0.833000 5520170
-0.208054 -0.193706 0.837000 8331557
-0.209546 -0.190277 0.843000 10571580
-0.209546 -0.185460 0.843000 11759185
-0.209546 -0.180643 0.843000 10510166
-0.210789 -0.176869 0.848000 9583435
-0.211286 -0.172429 0.850000 9210733
-0.211783 -0.167966 0.852000 10497573
-0.212280 -0.163480 0.854000 11096909
-0.213274 -0.159343 0.858000 10104642
-0.213771 -0.154800 0.860000 9568794
-0.214269 -0.150234 0.862000 10166063
-0.216009 -0.146489 0.869000 11228728
-0.216506 -0.141849 0.871000 12156732
-0.215014 -0.130986 0.865000 199698
-0.206460 -0.193706 0.837000 5636382
-0.207940 -0.190277 0.843000 8272956
-0.208433 -0.185900 0.845000 11511398
-0.209173 -0.181714 0.848000 12160389
-0.209173 -0.176869 0.848000 10766177
-0.210160 -0.172834 0.852000 9192786
-0.211147 -0.168754 0.856000 9371931
-0.211147 -0.163863 0.856000 10429185
-0.212133 -0.159714 0.860000 10551561
-0.212627 -0.155160 0.862000 9969970
-0.213860 -0.151106 0.867000 10429992
-0.214847 -0.146826 0.871000 11496775
-0.214847 -0.141849 0.871000 11960645
-0.206334 -0.190277 0.843000 5971526
-0.207558 -0.186560 0.848000 11232311
-0.207558 -0.181714 0.848000 13862514
-0.208048 -0.177286 0.850000 11957357
-0.209027 -0.173240 0.854000 9195371
-0.210006 -0.169149 0.858000 8272696
-0.210006 -0.164246 0.858000 9778754
-0.211719 -0.160643 0.865000 10977348
-0.211719 -0.155700 0.865000 10376824
-0.212698 -0.151454 0.869000 10705213
-0.213677 -0.147163 0.873000 11831626
-0.213677 -0.142174 0.873000 11695423
-0.204729 -0.190277 0.843000 7224911
-0.205943 -0.186560 0.848000 6619401
-0.205943 -0.181714 0.848000 8670815
-0.206914 -0.177703 0.852000 10920826
-0.207886 -0.173646 0.856000 10454148
-0.208371 -0.169149 0.858000 10851157
-0.209343 -0.165011 0.862000 11901315
-0.210071 -0.160643 0.865000 12838015
-0.210557 -0.156060 0.867000 11961021
-0.211043 -0.151454 0.869000 12033362
-0.212014 -0.147163 0.873000 10783564
-0.212014 -0.142174 0.873000 6048826
-0.204328 -0.181714 0.848000 3474031
-0.205773 -0.178120 0.854000 9851970
-0.206737 -0.174051 0.858000 11763780
-0.207219 -0.169543 0.860000 13337431
-0.207701 -0.165011 0.862000 14004298
-0.208424 -0.160643 0.865000 14657878
-0.209388 -0.156420 0.869000 13460589
-0.210351 -0.152151 0.873000 13272884
-0.210833 -0.147500 0.875000 9794092
-0.210351 -0.142174 0.873000 400682
-0.202712 -0.181714 0.848000 6571134
-0.204147 -0.178120 0.854000 7733515
-0.204625 -0.173646 0.856000 6434051
-0.205103 -0.169149 0.858000 7163482
-0.206059 -0.165011 0.862000 8805393
-0.207732 -0.161386 0.869000 10256941
-0.208210 -0.156780 0.871000 9065245
-0.209167 -0.152500 0.875000 7494167
-0.209167 -0.147500 0.875000 5580299
-0.202994 -0.173646 0.856000 1192525
-0.203943 -0.169543 0.860000 927319
-0.204417 -0.165011 0.862000 3604776
-0.206551 -0.161757 0.871000 5775640
-0.207026 -0.157140 0.873000 4662287
-0.208211 -0.153023 0.878000 1710870
-0.207500 -0.147500 0.875000 1380629
-0.202305 -0.169543 0.860000 4799573
-0.202775 -0.165011 0.862000 5118783
-0.204892 -0.161757 0.871000 4325635
-0.205833 -0.157500 0.875000 3542017
-0.207010 -0.153371 0.880000 2232341
-0.203233 -0.161757 0.871000 2895945
-0.205333 -0.153371 0.880000 2696518
-0.262842 -0.254248 0.752000 8850747
-0.262800 -0.259920 0.756000 9575475
-0.261410 -0.254248 0.752000 9312821
-0.260019 -0.248621 0.748000 8456465
-0.259671 -0.244020 0.747000 7079703
-0.262051 -0.264939 0.758000 9504056
-0.261014 -0.259576 0.755000 9639738
-0.259977 -0.254248 0.752000 9510958
-0.258249 -0.248289 0.747000 8785687
-0.258249 -0.244020 0.747000 7538977
-0.259920 -0.264240 0.756000 9571128
-0.259576 -0.259576 0.755000 9703992
-0.257857 -0.253571 0.750000 9707054
-0.256826 -0.248289 0.747000 9047580
-0.256826 -0.244020 0.747000 7931161
-0.257170 -0.240072 0.748000 7277062
-0.257170 -0.235798 0.748000 6425102
-0.258480 -0.264240 0.756000 9571641
-0.258138 -0.259576 0.755000 9639477
-0.257112 -0.254248 0.752000 9640239
-0.255403 -0.248289 0.747000 9311265
-0.255403 -0.244020 0.747000 8126993
-0.255403 -0.239751 0.747000 7407619
-0.255745 -0.235798 0.748000 6753304
-0.259164 -0.234619 0.758000 6621197
-0.257720 -0.264939 0.758000 9573171
-0.256700 -0.259576 0.755000 9639730
-0.255680 -0.254248 0.752000 9574189
-0.253300 -0.247624 0.745000 9574952
-0.253300 -0.243367 0.745000 8258069
-0.253980 -0.239751 0.747000 7538695
-0.254320 -0.235798 0.748000 7079956
-0.256700 -0.233690 0.755000 6884626
-0.257040 -0.229680 0.756000 6425614
-0.255600 -0.264240 0.756000 9443373
-0.255262 -0.259576 0.755000 9574447
-0.254248 -0.254248 0.752000 9573675
-0.251205 -0.246959 0.743000 9573678
-0.251205 -0.242713 0.743000 8454680
-0.251881 -0.239110 0.745000 7734795
-0.252557 -0.235483 0.747000 7144720
-0.255262 -0.233690 0.755000 6948886
-0.255600 -0.229680 0.756000 6687769
-0.262024 -0.213310 0.775000 1509634
-0.263376 -0.209959 0.779000 1771780
-0.254160 -0.264240 0.756000 9312817
-0.254160 -0.259920 0.756000 9508656
-0.252143 -0.253571 0.750000 9573935
-0.249790 -0.246959 0.743000 9572919
-0.249453 -0.242387 0.742000 8651292
-0.249790 -0.238468 0.743000 7995916
-0.251134 -0.235483 0.747000 7210509
-0.253151 -0.233071 0.753000 6948116
-0.254160 -0.229680 0.756000 6883090
-0.254832 -0.225956 0.758000 6556704
-0.255505 -0.222210 0.760000 5705758
-0.260548 -0.213310 0.775000 2363656
-0.261892 -0.209959 0.779000 2362124
-0.261220 -0.204980 0.777000 2101513
-0.262229 -0.201314 0.780000 1378826
-0.263573 -0.197867 0.784000 1116683
-0.264918 -0.194373 0.788000 789263
-0.252720 -0.264240 0.756000 9444918
-0.252386 -0.259576 0.755000 9508913
-0.251383 -0.254248 0.752000 9639218
-0.248374 -0.246959 0.743000 9705024
-0.248040 -0.242387 0.742000 8913440
-0.248040 -0.238147 0.742000 8258060
-0.249711 -0.235483 0.747000 7472650
-0.251383 -0.232762 0.752000 7144721
