# .PCD v.7 - Point Cloud Data file format
VERSION .7
FIELDS x y z rgb
SIZE 4 4 4 4
TYPE F F F I
COUNT 1 1 1 1
WIDTH 1291
HEIGHT 1
POINTS 1291
DATA ascii
-0.220471 -0.078603 0.671000 853768
-0.220800 -0.074880 0.672000 1378827
-0.221457 -0.071251 0.674000 1902859
-0.222114 -0.067600 0.676000 2231314
-0.223429 -0.064114 0.680000 2952222
-0.224743 -0.060583 0.684000 6432793
-0.225729 -0.056923 0.687000 7679527
-0.227043 -0.053306 0.691000 7022368
-0.228029 -0.049571 0.694000 7220013
-0.230000 -0.046000 0.700000 7613499
-0.230329 -0.042060 0.701000 7549238
-0.231314 -0.038217 0.704000 7483704
-0.232629 -0.034389 0.708000 6957873
-0.233614 -0.030471 0.711000 7480128
-0.235586 -0.026631 0.717000 7883846
-0.235257 -0.022503 0.716000 7887694
-0.235586 -0.018437 0.717000 7688527
-0.238543 -0.014520 0.726000 8216653
-0.238543 -0.010371 0.726000 7162432
-0.217233 -0.172900 0.665000 10762580
-0.214947 -0.167320 0.658000 10566487
-0.211027 -0.160577 0.646000 10166069
-0.210700 -0.156643 0.645000 8978717
-0.210700 -0.152957 0.645000 8519950
-0.211027 -0.149503 0.646000 7799055
-0.212333 -0.146714 0.650000 7602954
-0.212660 -0.143220 0.651000 7602701
-0.212660 -0.139500 0.651000 7275274
-0.212987 -0.135989 0.652000 7275273
-0.214293 -0.133074 0.656000 7078920
-0.214293 -0.129326 0.656000 6293261
-0.214947 -0.125960 0.658000 1117214
-0.214947 -0.122200 0.658000 1510414
-0.215600 -0.118800 0.660000 1182735
-0.215927 -0.115203 0.661000 1116690
-0.215927 -0.111426 0.661000 919825
-0.216253 -0.107811 0.662000 919307
-0.216253 -0.104029 0.662000 854026
-0.217233 -0.100700 0.665000 919815
-0.217560 -0.097046 0.666000 854025
-0.217560 -0.093240 0.666000 919821
-0.217887 -0.089569 0.667000 919562
-0.218540 -0.086014 0.669000 919308
-0.219193 -0.082437 0.671000 919562
-0.219193 -0.078603 0.671000 919301
-0.219520 -0.074880 0.672000 1050633
-0.220173 -0.071251 0.674000 1574410
-0.220827 -0.067600 0.676000 1837326
-0.221480 -0.063926 0.678000 2625298
-0.223113 -0.060494 0.683000 4264734
-0.223440 -0.056674 0.684000 5709350
-0.225400 -0.053229 0.690000 6693397
-0.226380 -0.049500 0.693000 7151911
-0.227687 -0.045803 0.697000 7549252
-0.228013 -0.041880 0.698000 7418420
-0.228667 -0.038000 0.700000 7483958
-0.230953 -0.034340 0.707000 7156786
-0.231933 -0.030429 0.710000 7479339
-0.232913 -0.026483 0.713000 7947564
-0.233240 -0.022440 0.714000 7882040
-0.234220 -0.018437 0.717000 7481914
-0.236833 -0.014500 0.725000 7422026
-0.236833 -0.010357 0.725000 6693928
-0.213693 -0.167320 0.658000 10697045
-0.211420 -0.161820 0.651000 10165301
-0.209471 -0.156643 0.645000 9044254
-0.209471 -0.152957 0.645000 8651028
-0.209796 -0.149503 0.646000 7864848
-0.211095 -0.146714 0.650000 7668496
-0.211420 -0.143220 0.651000 7668494
-0.211745 -0.139714 0.652000 7406603
-0.212070 -0.136197 0.653000 7275531
-0.213044 -0.133074 0.656000 7078667
-0.213044 -0.129326 0.656000 6031121
-0.213693 -0.125960 0.658000 1380124
-0.213369 -0.122014 0.657000 1903889
-0.214343 -0.118800 0.660000 1314067
-0.214668 -0.115203 0.661000 1248019
-0.214668 -0.111426 0.661000 985616
-0.214992 -0.107811 0.662000 985356
-0.215317 -0.104186 0.663000 919817
-0.216291 -0.100851 0.666000 919816
-0.216291 -0.097046 0.666000 919562
-0.216291 -0.093240 0.666000 919563
-0.216616 -0.089569 0.667000 919561
-0.217590 -0.086143 0.670000 853774
-0.217915 -0.082437 0.671000 919306
-0.217915 -0.078603 0.671000 919558
-0.218240 -0.074880 0.672000 787977
-0.218890 -0.071251 0.674000 1180938
-0.219539 -0.067600 0.676000 1508620
-0.220189 -0.063926 0.678000 2296846
-0.221488 -0.060406 0.682000 2100246
-0.221812 -0.056591 0.683000 3741469
-0.223111 -0.052997 0.687000 6364182
-0.224086 -0.049286 0.690000 7020317
-0.225385 -0.045606 0.694000 7484976
-0.225710 -0.041700 0.695000 7221289
-0.226684 -0.037891 0.698000 7483952
-0.228308 -0.034146 0.703000 7352878
-0.228957 -0.030214 0.705000 7476522
-0.229931 -0.026297 0.708000 7947304
-0.230906 -0.022346 0.711000 7880244
-0.232530 -0.018411 0.716000 7286335
-0.234478 -0.014440 0.722000 6692413
-0.234478 -0.010314 0.722000 6168871
-0.212440 -0.167320 0.658000 10893906
-0.210180 -0.161820 0.651000 10295093
-0.208566 -0.156886 0.646000 9306400
-0.208889 -0.153431 0.647000 8782105
-0.208889 -0.149734 0.647000 8127249
-0.209857 -0.146714 0.650000 7865109
-0.210180 -0.143220 0.651000 7799568
-0.210503 -0.139714 0.652000 7602956
-0.210826 -0.136197 0.653000 7341069
-0.211794 -0.133074 0.656000 7209998
-0.212440 -0.129720 0.658000 5114644
-0.213086 -0.126343 0.660000 1707546
-0.213086 -0.122571 0.660000 1642004
-0.213086 -0.118800 0.660000 1379606
-0.213409 -0.115203 0.661000 1248277
-0.213731 -0.111594 0.662000 986126
-0.214054 -0.107974 0.663000 1116686
-0.214054 -0.104186 0.663000 1051144
-0.214700 -0.100700 0.665000 1051146
-0.215023 -0.097046 0.666000 919562
-0.215346 -0.093380 0.667000 1050890
-0.215991 -0.089837 0.669000 853768
-0.216314 -0.086143 0.670000 919311
-0.216637 -0.082437 0.671000 853769
-0.216637 -0.078603 0.671000 853767
-0.216960 -0.074880 0.672000 787976
-0.217606 -0.071251 0.674000 1049610
-0.217929 -0.067500 0.675000 1181194
-0.218897 -0.063926 0.678000 1837577
-0.219543 -0.060229 0.680000 1903630
-0.220189 -0.056509 0.682000 3148820
-0.221480 -0.052920 0.686000 4264982
-0.221803 -0.049071 0.687000 5183763
-0.223740 -0.045540 0.693000 6694172
-0.224063 -0.041640 0.694000 7286046
-0.225031 -0.037837 0.697000 7681321
-0.226323 -0.034049 0.701000 7549738
-0.227614 -0.030214 0.705000 7084840
-0.228260 -0.026260 0.707000 7555109
-0.229229 -0.022314 0.710000 7616559
-0.230520 -0.018360 0.714000 7419460
-0.231489 -0.014340 0.717000 6626607
-0.233103 -0.010314 0.722000 5445413
-0.210866 -0.167066 0.657000 11023185
-0.208940 -0.161820 0.651000 10491191
-0.207335 -0.156886 0.646000 9503264
-0.207656 -0.153431 0.647000 8978714
-0.208619 -0.150429 0.650000 8323860
-0.208940 -0.146940 0.651000 8127253
-0.208940 -0.143220 0.651000 7930642
-0.209261 -0.139714 0.652000 7799314
-0.210224 -0.136614 0.655000 7406353
-0.210545 -0.133074 0.656000 7406352
-0.211187 -0.129720 0.658000 4131094
-0.211829 -0.126343 0.660000 2035227
-0.211829 -0.122571 0.660000 1314069
-0.211829 -0.118800 0.660000 1379350
-0.212150 -0.115203 0.661000 1248276
-0.212470 -0.111594 0.662000 921103
-0.212791 -0.107974 0.663000 1248270
-0.212791 -0.104186 0.663000 1182475
-0.213754 -0.100851 0.666000 1116940
-0.213754 -0.097046 0.666000 985356
-0.214075 -0.093380 0.667000 1116429
-0.214717 -0.089837 0.669000 853770
-0.215038 -0.086143 0.670000 919309
-0.215359 -0.082437 0.671000 788233
-0.215359 -0.078603 0.671000 788232
-0.215680 -0.074880 0.672000 787977
-0.216322 -0.071251 0.674000 853771
-0.216643 -0.067500 0.675000 919306
-0.216964 -0.063737 0.676000 1378825
-0.217927 -0.060140 0.679000 1706509
-0.218248 -0.056343 0.680000 2558736
-0.219531 -0.052766 0.684000 2100756
-0.220173 -0.049000 0.686000 3282194
-0.221457 -0.045343 0.690000 5970967
-0.222420 -0.041580 0.693000 7284508
-0.223704 -0.037837 0.697000 7879723
-0.224667 -0.034000 0.700000 7679012
-0.225630 -0.030129 0.703000 6758941
-0.226271 -0.026186 0.705000 7154976
-0.227234 -0.022251 0.708000 7414057
-0.229160 -0.018360 0.714000 7483956
-0.229802 -0.014320 0.716000 6560040
-0.231086 -0.010286 0.720000 4724509
-0.209614 -0.167066 0.657000 11087696
-0.208019 -0.162069 0.652000 10555448
-0.206424 -0.157129 0.647000 9765665
-0.206424 -0.153431 0.647000 9175834
-0.208019 -0.150891 0.652000 8651799
-0.207700 -0.146940 0.651000 8389653
-0.208019 -0.143440 0.652000 8193045
-0.208338 -0.139929 0.653000 7996184
-0.209295 -0.136823 0.656000 7799573
-0.209295 -0.133074 0.656000 7603474
-0.210571 -0.130114 0.660000 3607319
-0.210571 -0.126343 0.660000 1904155
-0.210890 -0.122757 0.661000 1444887
-0.210890 -0.118980 0.661000 1444886
-0.210890 -0.115203 0.661000 1313811
-0.211210 -0.111594 0.662000 1117455
-0.211529 -0.107974 0.663000 1313807
-0.212167 -0.104500 0.665000 1182734
-0.212486 -0.100851 0.666000 1182478
-0.212486 -0.097046 0.666000 1248013
-0.212805 -0.093380 0.667000 1181968
-0.213443 -0.089837 0.669000 919563
-0.213762 -0.086143 0.670000 919562
-0.214081 -0.082437 0.671000 853769
-0.214081 -0.078603 0.671000 853770
-0.214400 -0.074880 0.672000 853769
-0.215038 -0.071251 0.674000 919309
-0.215676 -0.067600 0.676000 919562
-0.215676 -0.063737 0.676000 1181960
-0.216633 -0.060140 0.679000 1312779
-0.216952 -0.056343 0.680000 1837324
-0.217910 -0.052689 0.683000 1903890
-0.218229 -0.048857 0.684000 2954001
-0.220143 -0.045343 0.690000 3871250
-0.221100 -0.041580 0.693000 4657179
-0.221738 -0.037729 0.695000 5577773
-0.222695 -0.033903 0.698000 6430751
-0.223652 -0.030043 0.701000 6429969
-0.224610 -0.026149 0.704000 6755612
-0.225886 -0.022251 0.708000 6823714
-0.227481 -0.018334 0.713000 6496291
-0.227800 -0.014280 0.714000 4986657
-0.228757 -0.010243 0.717000 3937558
-0.208046 -0.166811 0.656000 11087434
-0.206777 -0.162069 0.652000 10683703
-0.206460 -0.158100 0.651000 9962527
-0.206777 -0.154617 0.652000 9438493
-0.207094 -0.151123 0.653000 8914201
-0.207094 -0.147391 0.653000 8717850
-0.207094 -0.143660 0.653000 8455449
-0.207729 -0.140357 0.655000 8258841
-0.208680 -0.137240 0.658000 8127252
-0.208046 -0.133074 0.656000 7865364
-0.209631 -0.130311 0.661000 3083035
-0.209631 -0.126534 0.661000 1839135
-0.209631 -0.122757 0.661000 1576472
-0.209631 -0.118980 0.661000 1444888
-0.209949 -0.115377 0.662000 1379605
-0.210900 -0.112100 0.665000 1379859
-0.210900 -0.108300 0.665000 1314065
-0.210900 -0.104500 0.665000 1248273
-0.211217 -0.100851 0.666000 1248270
-0.211534 -0.097191 0.667000 1444366
-0.211534 -0.093380 0.667000 1181970
-0.212486 -0.089971 0.670000 985356
-0.212803 -0.086271 0.671000 919562
-0.212803 -0.082437 0.671000 919308
-0.212803 -0.078603 0.671000 919307
-0.213754 -0.075103 0.674000 919562
-0.213754 -0.071251 0.674000 919563
-0.214071 -0.067500 0.675000 919818
-0.214389 -0.063737 0.676000 985355
-0.215340 -0.060140 0.679000 919306
-0.215657 -0.056343 0.680000 1116682
-0.216609 -0.052689 0.683000 1707021
-0.216926 -0.048857 0.684000 2559757
-0.218511 -0.045277 0.689000 1838610
-0.219146 -0.041460 0.691000 1969687
-0.220414 -0.037729 0.695000 3214623
-0.221049 -0.033854 0.697000 5117468
-0.221366 -0.029914 0.698000 6100756
-0.222951 -0.026111 0.703000 6296345
-0.223269 -0.022126 0.704000 6168096
-0.225489 -0.018283 0.711000 5510175
-0.226123 -0.014260 0.713000 3413018
-0.227391 -0.010243 0.717000 3085587
-0.206796 -0.166811 0.656000 11415620
-0.205850 -0.162317 0.653000 10552374
-0.205535 -0.158343 0.652000 10028317
-0.205850 -0.154854 0.653000 9438240
-0.206481 -0.151586 0.655000 9045276
-0.206481 -0.147843 0.655000 8849438
-0.206481 -0.144100 0.655000 8652317
-0.206796 -0.140571 0.656000 8455706
-0.207427 -0.137240 0.658000 8324115
-0.208057 -0.133886 0.660000 8062997
-0.208372 -0.130311 0.661000 2690080
-0.208372 -0.126534 0.661000 1905186
-0.208688 -0.122943 0.662000 1576474
-0.208688 -0.119160 0.662000 1576473
-0.209003 -0.115551 0.663000 1510935
-0.209633 -0.112100 0.665000 1379606
-0.209633 -0.108300 0.665000 1379859
-0.209633 -0.104500 0.665000 1248275
-0.210264 -0.101003 0.667000 1248270
-0.210264 -0.097191 0.667000 1378830
-0.210894 -0.093660 0.669000 1051156
-0.211210 -0.089971 0.670000 985356
-0.211525 -0.086271 0.671000 984842
-0.211525 -0.082437 0.671000 919311
-0.211840 -0.078720 0.672000 919309
-0.212470 -0.075103 0.674000 919562
-0.212786 -0.071357 0.675000 919562
-0.213101 -0.067600 0.676000 919562
-0.213101 -0.063737 0.676000 985358
-0.214047 -0.060140 0.679000 919305
-0.214362 -0.056343 0.680000 985608
-0.214992 -0.052611 0.682000 1379080
-0.215623 -0.048857 0.684000 1968650
-0.216569 -0.045146 0.687000 1838097
-0.217514 -0.041400 0.690000 2100500
-0.218775 -0.037674 0.694000 2952465
-0.219090 -0.033757 0.695000 3543320
-0.220036 -0.029914 0.698000 3871255
-0.220982 -0.026037 0.701000 4002070
-0.220982 -0.022031 0.701000 4067869
-0.222873 -0.018180 0.707000 3739676
-0.223189 -0.014160 0.708000 3216402
-0.223189 -0.010114 0.708000 2888721
-0.226971 -0.002057 0.720000 2494738
-0.204607 -0.162317 0.653000 10486068
-0.204293 -0.158343 0.652000 10093857
-0.205233 -0.155329 0.655000 9438242
-0.205547 -0.151817 0.656000 9111072
-0.205547 -0.148069 0.656000 8980513
-0.206173 -0.144760 0.658000 8783901
-0.206173 -0.141000 0.658000 8653087
-0.207113 -0.137866 0.661000 8521751
-0.207113 -0.134089 0.661000 8324887
-0.207113 -0.130311 0.661000 2231843
-0.207113 -0.126534 0.661000 1905959
-0.207427 -0.122943 0.662000 1577247
-0.207740 -0.119340 0.663000 1642524
-0.208367 -0.115900 0.665000 1576731
-0.208367 -0.112100 0.665000 1445144
-0.208367 -0.108300 0.665000 1379604
-0.208680 -0.104657 0.666000 1247764
-0.208993 -0.101003 0.667000 1248271
-0.208993 -0.097191 0.667000 1248270
-0.209620 -0.093660 0.669000 920083
-0.209933 -0.089971 0.670000 1051152
-0.210247 -0.086271 0.671000 985357
-0.210247 -0.082437 0.671000 985102
-0.211187 -0.078954 0.674000 919566
-0.211187 -0.075103 0.674000 985355
-0.211500 -0.071357 0.675000 919820
-0.211813 -0.067600 0.676000 919306
-0.212440 -0.063926 0.678000 919563
-0.213067 -0.060229 0.680000 853770
-0.213067 -0.056343 0.680000 854277
-0.213693 -0.052611 0.682000 1050889
-0.214007 -0.048786 0.683000 1378313
-0.214947 -0.045080 0.686000 1903118
-0.215260 -0.041220 0.687000 2231313
-0.217140 -0.037620 0.693000 2690065
-0.217767 -0.033757 0.695000 1904401
-0.218393 -0.029871 0.697000 1707541
-0.219333 -0.026000 0.700000 1707795
-0.219333 -0.022000 0.700000 1969686
-0.220587 -0.018103 0.704000 1904405
-0.221527 -0.014140 0.707000 2953489
-0.221840 -0.010114 0.708000 2691855
-0.222467 -0.006086 0.710000 2691603
-0.225287 -0.002054 0.719000 2298385
-0.203363 -0.162317 0.653000 10420785
-0.203986 -0.159071 0.655000 10159654
-0.204297 -0.155566 0.656000 9504036
-0.204297 -0.151817 0.656000 9176355
-0.204609 -0.148294 0.657000 9045540
-0.204920 -0.144760 0.658000 8915741
-0.205543 -0.141429 0.660000 8784420
-0.205854 -0.137866 0.661000 8718620
-0.206166 -0.134291 0.662000 8391961
-0.205854 -0.130311 0.661000 2101031
-0.205854 -0.126534 0.661000 2168875
-0.206477 -0.123129 0.663000 1905444
-0.206477 -0.119340 0.663000 1774366
-0.207100 -0.115900 0.665000 1708318
-0.207100 -0.112100 0.665000 1510937
-0.207100 -0.108300 0.665000 1510678
-0.207411 -0.104657 0.666000 1444885
-0.208346 -0.101306 0.669000 1248272
-0.208346 -0.097483 0.669000 1248270
-0.208346 -0.093660 0.669000 1117203
-0.208657 -0.089971 0.670000 1116691
-0.208969 -0.086271 0.671000 1050895
-0.209280 -0.082560 0.672000 1050892
-0.209903 -0.078954 0.674000 985359
-0.209903 -0.075103 0.674000 985355
-0.210214 -0.071357 0.675000 1050893
-0.210526 -0.067600 0.676000 1181450
-0.211149 -0.063926 0.678000 1116424
-0.211460 -0.060140 0.679000 919562
-0.211771 -0.056343 0.680000 919811
-0.212394 -0.052611 0.682000 985354
-0.212706 -0.048786 0.683000 1246983
-0.213951 -0.045146 0.687000 1706251
-0.213951 -0.041220 0.687000 1903629
-0.214886 -0.037457 0.690000 2231312
-0.216443 -0.033757 0.695000 1904651
-0.216131 -0.029743 0.694000 1838611
-0.217066 -0.025889 0.697000 1970192
-0.217377 -0.021937 0.698000 2166799
-0.218934 -0.018077 0.703000 1970446
-0.219557 -0.014100 0.705000 2560015
-0.220491 -0.010114 0.708000 2560013
-0.221114 -0.006086 0.710000 2560017
-0.223917 -0.002054 0.719000 2232848
-0.202738 -0.162814 0.655000 10421033
-0.203048 -0.159314 0.656000 10159397
-0.203048 -0.155566 0.656000 9503788
-0.203048 -0.151817 0.656000 9242155
-0.203357 -0.148294 0.657000 9110568
-0.203667 -0.144760 0.658000 8980767
-0.204286 -0.141429 0.660000 8915238
-0.204905 -0.138074 0.662000 8849437
-0.204905 -0.134291 0.662000 8459546
-0.205214 -0.130706 0.663000 1971502
-0.205214 -0.126917 0.663000 2431794
-0.205833 -0.123500 0.665000 2168617
-0.205214 -0.119340 0.663000 1906720
-0.206143 -0.116074 0.666000 1773858
-0.206143 -0.112269 0.666000 1642523
-0.206143 -0.108463 0.666000 1576728
-0.206143 -0.104657 0.666000 1641752
-0.207381 -0.101457 0.670000 1248275
-0.207381 -0.097629 0.670000 1248274
-0.207381 -0.093800 0.670000 1248019
-0.207381 -0.089971 0.670000 1116945
-0.207690 -0.086271 0.671000 1116432
-0.208000 -0.082560 0.672000 1116431
-0.208619 -0.078954 0.674000 985360
-0.208619 -0.075103 0.674000 1050639
-0.209238 -0.071463 0.676000 1116428
-0.209857 -0.067800 0.678000 1377805
-0.209857 -0.063926 0.678000 1312777
-0.210167 -0.060140 0.679000 985353
-0.210476 -0.056343 0.680000 985606
-0.211095 -0.052611 0.682000 919817
-0.211714 -0.048857 0.684000 1116424
-0.212643 -0.045146 0.687000 1508875
-0.212643 -0.041220 0.687000 1509899
-0.213262 -0.037403 0.689000 1837583
-0.213881 -0.033563 0.691000 1904137
-0.214500 -0.029700 0.693000 1969169
-0.215119 -0.025814 0.695000 2231823
-0.215738 -0.021906 0.697000 2297357
-0.216976 -0.018026 0.701000 2035724
-0.217905 -0.014080 0.704000 2166798
-0.219143 -0.010114 0.708000 2428429
-0.219762 -0.006086 0.710000 2428685
-0.221619 -0.002046 0.716000 2101521
-0.201490 -0.162814 0.655000 10290464
-0.201798 -0.159314 0.656000 9962532
-0.202106 -0.155803 0.657000 9438003
-0.201490 -0.151586 0.655000 9504819
-0.202106 -0.148294 0.657000 9242667
-0.203029 -0.145200 0.660000 9111842
-0.203029 -0.141429 0.660000 8980519
-0.203644 -0.138074 0.662000 8914463
-0.204567 -0.134900 0.665000 7278874
-0.204567 -0.131100 0.665000 2693941
-0.204567 -0.127300 0.665000 2628920
-0.204567 -0.123500 0.665000 2300206
-0.204874 -0.119880 0.666000 2037538
-0.205182 -0.116249 0.667000 1905190
-0.205182 -0.112437 0.667000 1708317
-0.205182 -0.108626 0.667000 1511194
-0.205182 -0.104814 0.667000 1510938
-0.206105 -0.101457 0.670000 1182487
-0.206105 -0.097629 0.670000 1313814
-0.206105 -0.093800 0.670000 1313556
-0.206412 -0.090106 0.671000 1182479
-0.206720 -0.086400 0.672000 1182225
-0.207335 -0.082806 0.674000 1181970
-0.207643 -0.079071 0.675000 1116434
-0.207643 -0.075214 0.675000 1116435
-0.207950 -0.071463 0.676000 1116684
-0.208566 -0.067800 0.678000 1181712
-0.208566 -0.063926 0.678000 1247243
-0.209181 -0.060229 0.680000 985607
-0.209796 -0.056509 0.682000 985609
-0.210104 -0.052689 0.683000 985607
-0.210411 -0.048857 0.684000 1116682
-0.211027 -0.045080 0.686000 1378314
-0.211334 -0.041220 0.687000 1313033
-0.211334 -0.037294 0.687000 1510157
-0.212257 -0.033514 0.690000 1575944
-0.213180 -0.029700 0.693000 1837838
-0.213488 -0.025777 0.694000 2099726
-0.214410 -0.021906 0.697000 2035210
-0.215333 -0.018000 0.700000 1903883
-0.216564 -0.014080 0.704000 1969933
-0.217794 -0.010114 0.708000 2100237
-0.218410 -0.006086 0.710000 2166281
-0.219640 -0.002040 0.714000 1904145
-0.200243 -0.162814 0.655000 10160731
-0.200549 -0.159314 0.656000 9699896
-0.201771 -0.156514 0.660000 9437488
-0.202077 -0.152974 0.661000 9701671
-0.202077 -0.149197 0.661000 9374495
-0.201771 -0.145200 0.660000 9177633
-0.202077 -0.141643 0.661000 9111338
-0.202689 -0.138283 0.663000 8980769
-0.203606 -0.135103 0.666000 6163490
-0.203300 -0.131100 0.665000 3350585
-0.203300 -0.127300 0.665000 2826552
-0.203606 -0.123686 0.666000 2366254
-0.203606 -0.119880 0.666000 2168615
-0.204523 -0.116597 0.669000 2036518
-0.204523 -0.112774 0.669000 1774368
-0.204523 -0.108951 0.669000 1445917
-0.204523 -0.105129 0.669000 1380632
-0.204829 -0.101457 0.670000 1117465
-0.204829 -0.097629 0.670000 1379350
-0.205134 -0.093940 0.671000 1379349
-0.205440 -0.090240 0.672000 1248275
-0.206051 -0.086657 0.674000 1248016
-0.206357 -0.082929 0.675000 1247764
-0.206357 -0.079071 0.675000 1182227
-0.206357 -0.075214 0.675000 1116695
-0.206663 -0.071463 0.676000 1116687
-0.207274 -0.067800 0.678000 985105
-0.207580 -0.064020 0.679000 1116174
-0.207886 -0.060229 0.680000 985610
-0.208497 -0.056509 0.682000 985613
-0.208803 -0.052689 0.683000 985609
-0.209109 -0.048857 0.684000 1116682
-0.209720 -0.045080 0.686000 1247500
-0.210026 -0.041220 0.687000 1116683
-0.210026 -0.037294 0.687000 1182987
-0.210943 -0.033514 0.690000 1182985
-0.211860 -0.029700 0.693000 1640716
-0.212471 -0.025814 0.695000 1903115
-0.213389 -0.021937 0.698000 1772298
-0.214000 -0.018000 0.700000 1707018
-0.215223 -0.014080 0.704000 1838089
-0.216140 -0.010100 0.707000 1772556
-0.217057 -0.006086 0.710000 1969163
-0.218280 -0.002040 0.714000 1707282
-0.199299 -0.159314 0.656000 10486092
-0.200818 -0.156751 0.661000 9837869
-0.201122 -0.153206 0.662000 9503515
-0.200818 -0.149197 0.661000 9307923
-0.200818 -0.145420 0.661000 9374240
-0.200818 -0.141643 0.661000 9308716
-0.201426 -0.138283 0.663000 9047844
-0.202337 -0.135103 0.666000 5967914
-0.202337 -0.131297 0.666000 3220798
-0.202337 -0.127491 0.666000 2827063
-0.202641 -0.123871 0.667000 2366511
-0.203249 -0.120420 0.669000 2234667
-0.203552 -0.116771 0.670000 2168102
-0.203552 -0.112943 0.670000 1774882
-0.203249 -0.108951 0.669000 1643040
-0.203552 -0.105286 0.670000 1446422
-0.203856 -0.101609 0.671000 1380122
-0.203856 -0.097774 0.671000 1445142
-0.203856 -0.093940 0.671000 1379350
-0.204768 -0.090509 0.674000 1379607
-0.205071 -0.086786 0.675000 1314064
-0.205375 -0.083051 0.676000 1314069
-0.205071 -0.079071 0.675000 1313300
-0.205375 -0.075326 0.676000 1379098
-0.205983 -0.071674 0.678000 1248019
-0.206287 -0.067900 0.679000 1313042
-0.206287 -0.064020 0.679000 1378578
-0.207198 -0.060406 0.682000 1247757
-0.207198 -0.056509 0.682000 985618
-0.207806 -0.052766 0.684000 1247755
-0.207806 -0.048857 0.684000 1116427
-0.208413 -0.045080 0.686000 1313293
-0.208717 -0.041220 0.687000 1247757
-0.208717 -0.037294 0.687000 1379081
-0.209325 -0.033466 0.689000 1248521
-0.210540 -0.029700 0.693000 1510153
-0.211148 -0.025814 0.695000 1772041
-0.212059 -0.021937 0.698000 1575689
-0.212667 -0.018000 0.700000 1706761
-0.213882 -0.014080 0.704000 1772549
-0.215097 -0.010114 0.708000 1772554
-0.215705 -0.006086 0.710000 1903884
-0.216920 -0.002040 0.714000 1772562
-0.199559 -0.156751 0.661000 10317175
-0.199861 -0.153206 0.662000 9319778
-0.199257 -0.148971 0.660000 9177162
-0.199559 -0.145420 0.661000 9571132
-0.199559 -0.141643 0.661000 9507107
-0.202276 -0.139743 0.670000 9048095
-0.201974 -0.135711 0.669000 5835298
-0.201069 -0.131297 0.666000 3089207
-0.201069 -0.127491 0.666000 2892601
-0.201974 -0.124243 0.669000 2301746
-0.201974 -0.120420 0.669000 2365996
-0.202276 -0.116771 0.670000 2234150
-0.202276 -0.112943 0.670000 1776162
-0.202276 -0.109114 0.670000 1839906
-0.202578 -0.105443 0.671000 1577242
-0.202578 -0.101609 0.671000 1576990
-0.202578 -0.097774 0.671000 1445403
-0.202880 -0.094080 0.672000 1379866
-0.203484 -0.090509 0.674000 1511449
-0.204088 -0.086914 0.676000 1379862
-0.204088 -0.083051 0.676000 1380377
-0.204088 -0.079189 0.676000 1379607
-0.204088 -0.075326 0.676000 1707034
-0.204993 -0.071780 0.679000 1313815
-0.204993 -0.067900 0.679000 1640726
-0.204993 -0.064020 0.679000 1575446
-0.205295 -0.060229 0.680000 1575444
-0.206201 -0.056591 0.683000 985879
-0.206503 -0.052766 0.684000 1510415
-0.207107 -0.049000 0.686000 1116433
-0.207107 -0.045080 0.686000 1378833
-0.207409 -0.041220 0.687000 1313551
-0.207409 -0.037294 0.687000 1575180
-0.208314 -0.033514 0.690000 1248267
-0.209220 -0.029700 0.693000 1444364
-0.209824 -0.025814 0.695000 1575691
-0.210730 -0.021937 0.698000 1444361
-0.211333 -0.018000 0.700000 1707019
-0.212541 -0.014080 0.704000 1772808
-0.213749 -0.010114 0.708000 1772557
-0.214352 -0.006086 0.710000 1838604
-0.215560 -0.002040 0.714000 1772814
-0.198600 -0.153206 0.662000 10781097
-0.198000 -0.148971 0.660000 10179968
-0.198300 -0.145420 0.661000 10034265
-0.201000 -0.139743 0.670000 9308699
-0.200700 -0.135711 0.669000 4196634
-0.199800 -0.131297 0.666000 2367024
-0.199800 -0.127491 0.666000 2761019
-0.201300 -0.124614 0.671000 2695734
-0.201000 -0.120600 0.670000 2628908
-0.201300 -0.116946 0.671000 2431525
-0.201600 -0.113280 0.672000 2169122
-0.202200 -0.109766 0.674000 2233636
-0.201600 -0.105600 0.672000 2102045
-0.201600 -0.101760 0.672000 2167074
-0.202200 -0.098211 0.674000 2035232
-0.202200 -0.094360 0.674000 2035486
-0.202800 -0.090777 0.676000 1511451
-0.203400 -0.087171 0.678000 1379867
-0.203700 -0.083420 0.679000 1511452
-0.202800 -0.079189 0.676000 1576475
-0.203700 -0.075660 0.679000 1642010
-0.204000 -0.071886 0.680000 1511451
-0.204600 -0.068200 0.682000 1707546
-0.204000 -0.064114 0.680000 2296859
-0.204600 -0.060406 0.682000 2100762
-0.204900 -0.056591 0.683000 1640987
-0.205800 -0.052920 0.686000 1904146
-0.205800 -0.049000 0.686000 1640982
-0.206100 -0.045146 0.687000 1772309
-0.206100 -0.041220 0.687000 1575442
-0.206700 -0.037403 0.689000 1641230
-0.207000 -0.033514 0.690000 1509900
-0.207900 -0.029700 0.693000 1575439
-0.208500 -0.025814 0.695000 1641484
-0.209400 -0.021937 0.698000 1510153
-0.210000 -0.018000 0.700000 1707021
-0.211200 -0.014080 0.704000 1576715
-0.212400 -0.010114 0.708000 1772816
-0.213000 -0.006086 0.710000 1773068
-0.214200 -0.002040 0.714000 2034954
-0.199724 -0.139743 0.670000 9514319
-0.198531 -0.131297 0.666000 1643575
-0.200022 -0.124614 0.671000 3087401
-0.199724 -0.120600 0.670000 2956837
-0.200320 -0.117120 0.672000 2563110
-0.200320 -0.113280 0.672000 2562860
-0.200320 -0.109440 0.672000 2561311
-0.200916 -0.105914 0.674000 2626836
-0.200916 -0.102063 0.674000 2691352
-0.202109 -0.098794 0.678000 2691352
-0.202109 -0.094920 0.678000 2690847
-0.201512 -0.090777 0.676000 1511718
-0.202407 -0.087300 0.679000 1380118
-0.202407 -0.083420 0.679000 1642773
-0.202705 -0.079657 0.680000 1774112
-0.202705 -0.075771 0.680000 1642785
-0.203599 -0.072203 0.683000 1708066
-0.203599 -0.068300 0.683000 1839909
-0.203301 -0.064303 0.682000 2953765
-0.203599 -0.060494 0.683000 2691619
-0.204493 -0.056840 0.686000 2297891
-0.204791 -0.052997 0.687000 2298397
-0.204791 -0.049071 0.687000 2166816
-0.204791 -0.045146 0.687000 2100767
-0.204791 -0.041220 0.687000 1773082
-0.205388 -0.037403 0.689000 1707538
-0.205686 -0.033514 0.690000 1706770
-0.206580 -0.029700 0.693000 1706259
-0.207772 -0.025889 0.697000 1707023
-0.208070 -0.021937 0.698000 1575946
-0.208667 -0.018000 0.700000 1707024
-0.210157 -0.014100 0.705000 1380367
-0.211648 -0.010143 0.710000 1772817
-0.211648 -0.006086 0.710000 1708045
-0.212840 -0.002040 0.714000 2231565
-0.198744 -0.124614 0.671000 2953244
-0.198448 -0.120600 0.670000 2496029
-0.199929 -0.117643 0.675000 2365990
-0.199632 -0.113617 0.674000 2298934
-0.199632 -0.109766 0.674000 1970458
-0.199632 -0.105914 0.674000 2166027
-0.200225 -0.102366 0.676000 2232591
-0.201410 -0.099086 0.680000 2755344
-0.202298 -0.095620 0.683000 3149087
-0.202002 -0.091583 0.682000 3083056
-0.201410 -0.087429 0.680000 2756369
-0.202002 -0.083789 0.682000 2886413
-0.202002 -0.079891 0.682000 3412774
-0.204371 -0.076886 0.690000 3345703
-0.203187 -0.072520 0.686000 3411753
-0.204075 -0.068900 0.689000 3412271
-0.202002 -0.064303 0.682000 3281199
-0.202298 -0.060494 0.683000 2756140
-0.204668 -0.057254 0.691000 2167082
-0.204668 -0.053306 0.691000 2100776
-0.204371 -0.049286 0.690000 1971243
-0.204075 -0.045277 0.689000 1904937
-0.203483 -0.041220 0.687000 2233123
-0.204075 -0.037403 0.689000 2036246
-0.204371 -0.033514 0.690000 1969432
-0.205260 -0.029700 0.693000 1903382
-0.206445 -0.025889 0.697000 1641490
-0.207333 -0.022000 0.700000 1510666
-0.207630 -0.018026 0.701000 1772308
-0.208814 -0.014100 0.705000 1510930
-0.210295 -0.010143 0.710000 1838098
-0.210591 -0.006094 0.711000 1773837
-0.211480 -0.002040 0.714000 2100240
-0.197171 -0.120600 0.670000 2098234
-0.198643 -0.117643 0.675000 2166827
-0.198349 -0.113617 0.674000 2099504
-0.198937 -0.110091 0.676000 1312558
-0.198349 -0.105914 0.674000 1704229
-0.199526 -0.102669 0.678000 1706534
-0.200997 -0.099523 0.683000 2818597
-0.201291 -0.095760 0.684000 3543336
-0.201291 -0.091851 0.684000 4719918
-0.200703 -0.087686 0.682000 4067871
-0.200997 -0.083911 0.683000 4063528
-0.202174 -0.080477 0.687000 4984864
-0.203351 -0.076997 0.691000 5047587
-0.203351 -0.073049 0.691000 5051171
-0.203351 -0.069100 0.691000 4917797
-0.205117 -0.065717 0.697000 3609893
-0.205117 -0.061734 0.697000 2819109
-0.204529 -0.057586 0.695000 2037027
-0.204234 -0.053537 0.694000 1836073
-0.203351 -0.049357 0.691000 1708573
-0.202763 -0.045277 0.689000 1642010
-0.202174 -0.041220 0.687000 2626067
-0.202763 -0.037403 0.689000 2431252
-0.203057 -0.033514 0.690000 2167327
-0.203940 -0.029700 0.693000 2035228
-0.205411 -0.025926 0.698000 1511188
-0.206000 -0.022000 0.700000 1445393
-0.206883 -0.018077 0.703000 1772562
-0.208060 -0.014140 0.707000 1641489
-0.208943 -0.010143 0.710000 1904144
-0.209237 -0.006094 0.711000 1839374
-0.210709 -0.002046 0.716000 1969680
-0.197357 -0.117643 0.675000 4592943
-0.197650 -0.110091 0.676000 5375299
-0.198234 -0.102669 0.678000 5772349
-0.199989 -0.099669 0.684000 6300985
-0.200866 -0.096180 0.687000 6762546
-0.200866 -0.092254 0.687000 7085100
-0.200573 -0.088200 0.686000 7877165
-0.200573 -0.084280 0.686000 7619395
-0.202035 -0.080946 0.691000 7282970
-0.202035 -0.076997 0.691000 7347742
-0.202620 -0.073260 0.693000 7482140
-0.202620 -0.069300 0.693000 7481370
-0.203790 -0.065717 0.697000 7092251
-0.203790 -0.061734 0.697000 6499614
-0.204082 -0.057834 0.698000 6110237
-0.204082 -0.053846 0.698000 5515049
-0.202620 -0.049500 0.693000 4792079
-0.205544 -0.046197 0.703000 3609611
-0.206713 -0.042420 0.707000 1771268
-0.207006 -0.038434 0.708000 1576977
-0.201743 -0.033514 0.690000 2169638
-0.202620 -0.029700 0.693000 2429985
-0.204082 -0.025926 0.698000 1970454
-0.204667 -0.022000 0.700000 1707543
-0.205836 -0.018103 0.704000 1772561
-0.207006 -0.014160 0.708000 1641744
-0.207590 -0.010143 0.710000 1838607
-0.208468 -0.006111 0.713000 1904654
-0.209345 -0.002046 0.716000 1969681
-0.196071 -0.109929 0.675000 9391982
-0.196943 -0.102669 0.678000 9848939
-0.199557 -0.100106 0.687000 9779031
-0.200138 -0.096460 0.689000 9905984
-0.200138 -0.092523 0.689000 9511192
-0.200138 -0.088586 0.689000 11691843
-0.200138 -0.084649 0.689000 11110987
-0.201300 -0.081180 0.693000 9575193
-0.201300 -0.077220 0.693000 9641765
-0.201300 -0.073260 0.693000 9905186
-0.201300 -0.069300 0.693000 10103842
-0.202462 -0.065717 0.697000 10563366
-0.202752 -0.061823 0.698000 10237471
-0.203624 -0.058083 0.701000 10106405
-0.203624 -0.054077 0.701000 9123373
-0.203624 -0.050071 0.701000 7879976
-0.204205 -0.046197 0.703000 5585444
-0.205367 -0.042420 0.707000 860715
-0.205657 -0.038434 0.708000 721198
-0.205367 -0.034340 0.707000 2167581
-0.204786 -0.030214 0.705000 2890266
-0.202752 -0.025926 0.698000 2364957
-0.203624 -0.022031 0.701000 1969689
-0.205367 -0.018180 0.707000 1772821
-0.206238 -0.014200 0.710000 1576210
-0.206529 -0.010157 0.711000 1772816
-0.207110 -0.006111 0.713000 1970190
-0.207981 -0.002046 0.716000 1969935
-0.198826 -0.100397 0.689000 10442869
-0.199114 -0.096600 0.690000 9708111
-0.199403 -0.092791 0.691000 10241027
-0.199403 -0.088843 0.691000 12362072
-0.199403 -0.084894 0.691000 10646099
-0.199980 -0.081180 0.693000 9240856
-0.199980 -0.077220 0.693000 9508139
-0.199980 -0.073260 0.693000 9705768
-0.199980 -0.069300 0.693000 9904681
-0.201134 -0.065717 0.697000 9968434
-0.201423 -0.061823 0.698000 9839647
-0.202866 -0.058249 0.703000 9840941
-0.202866 -0.054231 0.703000 9913393
-0.202866 -0.050214 0.703000 9858369
-0.203443 -0.046329 0.705000 9730620
-0.204020 -0.042420 0.707000 7173202
-0.204309 -0.038434 0.708000 5322570
-0.204020 -0.034340 0.707000 2098196
-0.203443 -0.030214 0.705000 1839122
-0.203443 -0.026186 0.705000 2628644
-0.203154 -0.022126 0.704000 2298907
-0.204020 -0.018180 0.707000 1969688
-0.204309 -0.014160 0.708000 1773587
-0.204886 -0.010143 0.710000 1904145
-0.205751 -0.006111 0.713000 1969934
-0.206617 -0.002046 0.716000 2101006
-0.197513 -0.100397 0.689000 11167631
-0.197800 -0.096600 0.690000 9519452
-0.198087 -0.092791 0.691000 11033397
-0.198087 -0.088843 0.691000 12949327
-0.198087 -0.084894 0.691000 10241868
-0.198660 -0.081180 0.693000 8922924
-0.198660 -0.077220 0.693000 9376297
-0.198660 -0.073260 0.693000 9510190
-0.198660 -0.069300 0.693000 9707563
-0.200667 -0.066000 0.700000 9314345
-0.200667 -0.062000 0.700000 9378099
-0.201527 -0.058249 0.703000 9516338
-0.201527 -0.054231 0.703000 10699573
-0.201813 -0.050286 0.704000 11757368
-0.202673 -0.046460 0.707000 13929785
-0.202960 -0.042480 0.708000 13473872
-0.202960 -0.038434 0.708000 9931090
-0.202960 -0.034389 0.708000 1980739
-0.202673 -0.030300 0.707000 852282
-0.202100 -0.026186 0.705000 2824216
-0.201813 -0.022126 0.704000 2628388
-0.202960 -0.018206 0.708000 2168349
-0.203533 -0.014200 0.710000 1905431
-0.203820 -0.010157 0.711000 1969939
-0.204680 -0.006120 0.714000 2035730
-0.205540 -0.002049 0.717000 2167055
-0.196201 -0.100397 0.689000 11761832
-0.196486 -0.096600 0.690000 10902378
-0.196770 -0.092791 0.691000 11432294
-0.196770 -0.088843 0.691000 12158534
-0.196770 -0.084894 0.691000 11034692
-0.197340 -0.081180 0.693000 10979648
-0.197340 -0.077220 0.693000 9446183
-0.200757 -0.074529 0.705000 9510452
-0.197340 -0.069300 0.693000 9969453
-0.199333 -0.066000 0.700000 10636063
-0.199333 -0.062000 0.700000 10968135
-0.200472 -0.058331 0.704000 10838838
-0.200472 -0.054309 0.704000 10966328
-0.200757 -0.050357 0.705000 11359280
-0.201611 -0.046526 0.708000 12547637
-0.202181 -0.042600 0.710000 13409103
-0.202181 -0.038543 0.710000 12101210
-0.201611 -0.034389 0.708000 8358001
-0.202181 -0.030429 0.710000 5127266
-0.202181 -0.026371 0.710000 1772555
-0.200472 -0.022126 0.704000 2431789
-0.201611 -0.018206 0.708000 2629153
-0.202181 -0.014200 0.710000 2299162
-0.202466 -0.010157 0.711000 2100757
-0.203320 -0.006120 0.714000 1905173
-0.204744 -0.002054 0.719000 2363920
-0.195171 -0.096600 0.690000 12289415
-0.195454 -0.092791 0.691000 11833213
-0.195454 -0.088843 0.691000 11303266
-0.196020 -0.081180 0.693000 12943427
-0.196020 -0.077220 0.693000 9575211
-0.200263 -0.074846 0.708000 9512759
-0.200263 -0.070800 0.708000 10234167
-0.200263 -0.066754 0.708000 11953738
-0.200263 -0.062709 0.708000 12548685
-0.199414 -0.058414 0.705000 12085571
-0.199414 -0.054386 0.705000 11299140
-0.199980 -0.050500 0.707000 10966585
-0.200829 -0.046657 0.710000 11165486
-0.200829 -0.042600 0.710000 13265706
-0.200829 -0.038543 0.710000 14327392
-0.200829 -0.034486 0.710000 14659959
-0.201677 -0.030557 0.713000 9476473
-0.201960 -0.026520 0.714000 666427
-0.203374 -0.022597 0.719000 2298395
-0.200263 -0.018206 0.708000 3022626
-0.201111 -0.014220 0.711000 2693152
-0.201677 -0.010186 0.713000 2167321
-0.202526 -0.006137 0.716000 1840406
-0.203374 -0.002054 0.719000 2560531
-0.198914 -0.078891 0.708000 9380910
-0.198633 -0.074740 0.707000 9123386
-0.198633 -0.070700 0.707000 9981248
-0.198914 -0.066754 0.708000 11501428
-0.199476 -0.062886 0.710000 11494227
-0.198633 -0.058580 0.707000 11296848
-0.198914 -0.054617 0.708000 11167312
-0.198914 -0.050571 0.708000 9656386
-0.199476 -0.046657 0.710000 10172198
-0.199476 -0.042600 0.710000 11403525
-0.199757 -0.038597 0.711000 13077862
-0.199476 -0.034486 0.710000 14731133
-0.200600 -0.030600 0.714000 12434576
-0.201443 -0.026631 0.717000 6910315
-0.202005 -0.022597 0.719000 2626569
-0.199476 -0.018257 0.710000 3088675
-0.199757 -0.014220 0.711000 2891045
-0.200319 -0.010186 0.713000 2430238
-0.201162 -0.006137 0.716000 2036758
-0.202005 -0.002054 0.719000 2429462
-0.197566 -0.078891 0.708000 9252695
-0.197287 -0.074740 0.707000 8667466
-0.197566 -0.070800 0.708000 9789756
-0.198124 -0.066943 0.710000 10970440
-0.198403 -0.062974 0.711000 10434347
-0.197566 -0.058663 0.708000 10436405
-0.198961 -0.055003 0.713000 11100248
-0.198403 -0.050786 0.711000 8348232
-0.199798 -0.047051 0.716000 9188907
-0.199240 -0.042840 0.714000 9582657
-0.199798 -0.038869 0.716000 11889226
-0.199798 -0.034777 0.716000 14721119
-0.200077 -0.030729 0.717000 15382930
-0.200077 -0.026631 0.717000 13086090
-0.200635 -0.022597 0.719000 3024715
-0.200077 -0.018437 0.717000 3086881
-0.198403 -0.014220 0.711000 3088939
-0.199240 -0.010200 0.714000 2628385
-0.199798 -0.006137 0.716000 2298908
-0.200635 -0.002054 0.719000 2233112
-0.195940 -0.074740 0.707000 10047578
-0.196217 -0.070800 0.708000 9788983
-0.197049 -0.067037 0.711000 8670492
-0.197049 -0.062974 0.711000 9183235
-0.198711 -0.059409 0.717000 9373723
-0.197880 -0.055080 0.714000 9468000
-0.198434 -0.051143 0.716000 8541518
-0.199266 -0.047249 0.719000 10307375
-0.198711 -0.043020 0.717000 11895676
-0.198434 -0.038869 0.716000 11489582
-0.198711 -0.034826 0.717000 12348738
-0.199266 -0.030814 0.719000 13998228
-0.199266 -0.026706 0.719000 14015656
-0.199543 -0.022629 0.720000 7896973
-0.200097 -0.018566 0.722000 1577760
-0.197880 -0.014280 0.714000 3220272
-0.198434 -0.010229 0.716000 2957603
-0.198711 -0.006146 0.717000 2628130
-0.194593 -0.074740 0.707000 11369856
-0.194869 -0.070800 0.708000 9724524
-0.195694 -0.067037 0.711000 6380884
-0.196520 -0.063240 0.714000 7946040
-0.197346 -0.059409 0.717000 8268595
-0.197896 -0.055466 0.719000 7832148
-0.198171 -0.051429 0.720000 8666426
-0.198171 -0.047314 0.720000 11486776
-0.197896 -0.043140 0.719000 14196098
-0.197346 -0.038923 0.717000 11096126
-0.197346 -0.034826 0.717000 9912385
-0.198171 -0.030857 0.720000 12610659
-0.198171 -0.026743 0.720000 14857615
-0.198722 -0.022691 0.722000 12699784
-0.198722 -0.018566 0.722000 80181
-0.197896 -0.014380 0.719000 3416626
-0.197070 -0.010229 0.716000 3220263
-0.197346 -0.006146 0.717000 2957612
-0.193247 -0.074740 0.707000 12295590
-0.193520 -0.070800 0.708000 11438240
-0.194340 -0.067037 0.711000 9469324
-0.195160 -0.063240 0.714000 9004908
-0.195980 -0.059409 0.717000 8147530
-0.196800 -0.055543 0.720000 6970440
-0.197620 -0.051643 0.723000 8919078
-0.197620 -0.047511 0.723000 11292481
-0.196800 -0.043200 0.720000 14062727
-0.195980 -0.038923 0.717000 11163981
-0.196527 -0.034923 0.719000 10241089
-0.196800 -0.030857 0.720000 11423026
-0.196800 -0.026743 0.720000 13670005
-0.197347 -0.022691 0.722000 13878403
-0.197620 -0.018591 0.723000 5267787
-0.197347 -0.014440 0.722000 3021108
-0.196527 -0.006163 0.719000 3220534
-0.192171 -0.070800 0.708000 13150366
-0.194614 -0.059409 0.717000 7961205
-0.195971 -0.055697 0.722000 6120042
-0.196786 -0.051786 0.725000 9121614
-0.196786 -0.047643 0.725000 11156042
-0.195971 -0.043320 0.722000 13861486
-0.195157 -0.039031 0.719000 11221575
-0.195157 -0.034923 0.719000 10503224
-0.195429 -0.030857 0.720000 10303809
-0.197057 -0.026966 0.726000 12414037
-0.197057 -0.022817 0.726000 15054169
-0.197057 -0.018669 0.726000 10456670
-0.196786 -0.014500 0.725000 2691880
-0.194596 -0.055697 0.722000 9339531
-0.195405 -0.051786 0.725000 10380407
-0.195405 -0.047643 0.725000 10900051
-0.194596 -0.043320 0.722000 11941461
-0.193788 -0.039031 0.719000 10433601
-0.193788 -0.034923 0.719000 10238511
-0.194596 -0.030943 0.722000 10369104
-0.196483 -0.027077 0.729000 11486517
-0.196483 -0.022911 0.729000 13075758
-0.196213 -0.018720 0.728000 12503666
-0.195405 -0.014500 0.725000 2954780
-0.193221 -0.043320 0.722000 10054519
-0.192418 -0.039031 0.719000 9718882
-0.192418 -0.034923 0.719000 9911634
-0.193221 -0.030943 0.722000 10434642
-0.195094 -0.027077 0.729000 10498873
-0.195630 -0.022974 0.731000 11089953
-0.195094 -0.018746 0.729000 14521680
-0.194024 -0.014500 0.725000 3281702
-0.191049 -0.034923 0.719000 10705526
-0.191846 -0.030943 0.722000 10700883
-0.194237 -0.027151 0.731000 10359870
-0.194503 -0.023006 0.732000 10365716
-0.194503 -0.018823 0.732000 13406510
-0.193440 -0.014560 0.728000 3416112
-0.192845 -0.027151 0.731000 10245228
-0.193109 -0.023006 0.732000 9721676
-0.193109 -0.018823 0.732000 12284226
-0.194428 -0.014740 0.737000 3546920
-0.193024 -0.014740 0.737000 5189151
-0.241414 -0.155414 0.645000 7537420
-0.241789 -0.151964 0.646000 6427418
-0.240186 -0.155414 0.645000 7406358
-0.239813 -0.151493 0.644000 6750478
-0.239069 -0.147354 0.642000 8071171
-0.244514 -0.166571 0.660000 10631249
-0.237105 -0.157867 0.640000 8851496
-0.238587 -0.155173 0.644000 7275282
-0.238587 -0.151493 0.644000 7078413
-0.237846 -0.147354 0.642000 5505301
-0.243257 -0.166571 0.660000 10631502
-0.236254 -0.158113 0.641000 8979497
-0.236623 -0.154691 0.642000 7406350
-0.236623 -0.151023 0.642000 7144204
-0.236623 -0.147354 0.642000 5964327
-0.241783 -0.135573 0.656000 7346947
-0.242367 -0.166824 0.661000 10565710
-0.236133 -0.158853 0.644000 9113900
-0.235400 -0.154691 0.642000 7537168
-0.235400 -0.151023 0.642000 7144204
-0.235400 -0.147354 0.642000 6357787
-0.237233 -0.144805 0.647000 6292486
-0.239067 -0.142198 0.652000 6227464
-0.239067 -0.138472 0.652000 6358025
-0.240900 -0.135780 0.657000 5964559
-0.241267 -0.132227 0.658000 5510172
-0.240013 -0.166067 0.658000 10565966
-0.234177 -0.158360 0.642000 9307183
-0.234177 -0.154691 0.642000 7537169
-0.233812 -0.150788 0.641000 7144204
-0.234177 -0.147354 0.642000 6423566
-0.235271 -0.144357 0.645000 6227206
-0.237825 -0.142198 0.652000 6161677
-0.237825 -0.138472 0.652000 6161423
-0.239284 -0.135573 0.656000 6030618
-0.239649 -0.132026 0.657000 5704982
-0.240013 -0.128467 0.658000 3736580
-0.241300 -0.171633 0.665000 10430533
-0.238760 -0.166067 0.658000 10631247
-0.232954 -0.158360 0.642000 9507379
-0.232591 -0.154450 0.641000 7537168
-0.232591 -0.150788 0.641000 7144204
-0.232954 -0.147354 0.642000 6423566
-0.234043 -0.144357 0.645000 6161671
-0.236220 -0.141980 0.651000 6096652
-0.236583 -0.138472 0.652000 5899276
-0.237671 -0.135367 0.655000 6095891
-0.238397 -0.132026 0.657000 5835281
-0.238760 -0.128467 0.658000 3344138
-0.240033 -0.171633 0.665000 10499655
-0.238590 -0.166824 0.661000 10697039
-0.231370 -0.158113 0.641000 9832247
-0.231370 -0.154450 0.641000 7537166
-0.231370 -0.150788 0.641000 7209484
-0.231731 -0.147354 0.642000 6554638
-0.232814 -0.144357 0.645000 6227465
-0.233897 -0.141326 0.648000 6030602
-0.235341 -0.138472 0.652000 5964810
-0.236424 -0.135367 0.655000 6030347
-0.236424 -0.131624 0.655000 5834765
-0.236785 -0.128076 0.656000 3278864
-0.238590 -0.117721 0.661000 2098954
-0.238590 -0.113944 0.661000 4593922
-0.238767 -0.171633 0.665000 10564171
-0.237330 -0.166824 0.661000 10762320
-0.230150 -0.158113 0.641000 10162740
-0.230150 -0.154450 0.641000 7602450
-0.230150 -0.150788 0.641000 7275019
-0.230509 -0.147354 0.642000 6619915
-0.232304 -0.144805 0.647000 6227208
-0.233381 -0.141762 0.650000 6030350
-0.234099 -0.138472 0.652000 6030350
-0.234458 -0.134953 0.653000 6030349
-0.235176 -0.131624 0.655000 5834507
-0.235535 -0.128076 0.656000 3278095
-0.236253 -0.124707 0.658000 1509654
-0.237330 -0.117721 0.661000 1248014
-0.237330 -0.113944 0.661000 1839883
-0.238049 -0.110500 0.663000 2166554
-0.236786 -0.171117 0.663000 10565455
-0.236071 -0.166824 0.661000 10631505
-0.228929 -0.158113 0.641000 10094386
-0.228929 -0.154450 0.641000 7667989
-0.228929 -0.150788 0.641000 7340553
-0.229286 -0.147354 0.642000 6619912
-0.231071 -0.144805 0.647000 6292487
-0.231429 -0.141326 0.648000 6161425
-0.232857 -0.138472 0.652000 6095633
-0.233214 -0.134953 0.653000 6030351
-0.233929 -0.131624 0.655000 5834506
-0.233929 -0.127881 0.655000 3278606
-0.235000 -0.124707 0.658000 1378829
-0.235714 -0.121314 0.660000 1574923
-0.236071 -0.117721 0.661000 1378577
-0.236071 -0.113944 0.661000 1773332
-0.236429 -0.110333 0.662000 2426650
-0.235168 -0.170859 0.662000 10499662
-0.234812 -0.166824 0.661000 10499921
-0.227708 -0.158113 0.641000 10031921
-0.227708 -0.154450 0.641000 7733522
-0.227708 -0.150788 0.641000 7406087
-0.228063 -0.147354 0.642000 6685192
-0.229484 -0.144581 0.646000 6357767
-0.230194 -0.141326 0.648000 6226699
-0.231260 -0.138260 0.651000 6161420
-0.231970 -0.134953 0.653000 6030349
-0.231970 -0.131222 0.653000 5834508
-0.231970 -0.127490 0.653000 3343375
-0.233391 -0.124517 0.657000 1182477
-0.234457 -0.121314 0.660000 1116941
-0.234812 -0.117721 0.661000 1509645
-0.234812 -0.113944 0.661000 1771793
-0.235523 -0.110500 0.663000 2689558
-0.236589 -0.107194 0.666000 2102289
-0.234260 -0.171117 0.663000 10500172
-0.233907 -0.167076 0.662000 10500432
-0.227900 -0.159100 0.645000 10029617
-0.226487 -0.154450 0.641000 7733518
-0.226133 -0.150552 0.640000 7406085
-0.226840 -0.147354 0.642000 6685447
-0.227900 -0.144357 0.645000 6423303
-0.228253 -0.140890 0.646000 6292229
-0.230020 -0.138260 0.651000 6226695
-0.230727 -0.134953 0.653000 6095626
-0.230727 -0.131222 0.653000 5900046
-0.230727 -0.127490 0.653000 3606288
-0.232493 -0.124707 0.658000 1182734
-0.233200 -0.121314 0.660000 1116942
-0.233907 -0.117899 0.662000 1313546
-0.233907 -0.114116 0.662000 1378318
-0.234260 -0.110500 0.663000 1968402
-0.235320 -0.107194 0.666000 1969939
-0.235320 -0.103389 0.666000 2493207
-0.235457 -0.172924 0.670000 10433873
-0.229131 -0.164552 0.652000 10499919
-0.226671 -0.159100 0.645000 9966640
-0.225266 -0.154450 0.641000 7733518
-0.225266 -0.150788 0.641000 7406086
-0.225617 -0.147354 0.642000 6750985
-0.226671 -0.144357 0.645000 6423303
-0.227023 -0.140890 0.646000 6357509
-0.228429 -0.138048 0.650000 6292232
-0.229131 -0.134747 0.652000 6226698
-0.229483 -0.131222 0.653000 5965066
-0.230186 -0.127881 0.655000 3802893
-0.230889 -0.124517 0.657000 1116686
-0.231240 -0.120947 0.658000 1116685
-0.232646 -0.117899 0.662000 1116941
-0.232646 -0.114116 0.662000 1050892
-0.233700 -0.110833 0.665000 1247757
-0.233700 -0.107033 0.665000 1771791
-0.234403 -0.103544 0.667000 2755858
-0.243540 -0.071940 0.693000 12886160
-0.242837 -0.067784 0.691000 12885147
-0.231385 -0.170859 0.662000 10498901
-0.227890 -0.164552 0.652000 10565709
-0.225792 -0.159347 0.646000 9964335
-0.224045 -0.154450 0.641000 7733518
-0.224045 -0.150788 0.641000 7406088
-0.224394 -0.147354 0.642000 6619914
-0.225443 -0.144357 0.645000 6423303
-0.225792 -0.140890 0.646000 6292228
-0.226491 -0.137623 0.648000 6226698
-0.227890 -0.134747 0.652000 6226697
-0.228239 -0.131222 0.653000 5965063
-0.229288 -0.128076 0.656000 3868426
-0.229637 -0.124517 0.657000 1116174
-0.229987 -0.120947 0.658000 1051148
-0.231385 -0.117899 0.662000 1116944
-0.231734 -0.114289 0.663000 985354
-0.232433 -0.110833 0.665000 1182473
-0.232783 -0.107194 0.666000 1378571
-0.232433 -0.103233 0.665000 2034701
-0.232783 -0.099583 0.666000 2494746
-0.235579 -0.096928 0.674000 4131860
-0.238725 -0.086513 0.683000 8601905
-0.241521 -0.071732 0.691000 11635328
-0.242220 -0.067980 0.693000 12295577
-0.241521 -0.063835 0.691000 12491937
-0.230124 -0.170859 0.662000 10499410
-0.226300 -0.164300 0.651000 10630990
-0.224910 -0.159593 0.647000 9965616
-0.222824 -0.154450 0.641000 7733520
-0.222824 -0.150788 0.641000 7406088
-0.223171 -0.147354 0.642000 6488587
-0.224214 -0.144357 0.645000 6423302
-0.224910 -0.141108 0.647000 6226436
-0.225257 -0.137623 0.648000 6095626
-0.226648 -0.134747 0.652000 6161160
-0.226995 -0.131222 0.653000 5964807
-0.227690 -0.127881 0.655000 3933194
-0.228386 -0.124517 0.657000 1115915
-0.228733 -0.120947 0.658000 985610
-0.230124 -0.117899 0.662000 1116684
-0.230471 -0.114289 0.663000 985355
-0.230471 -0.110500 0.663000 1116681
-0.231167 -0.107033 0.665000 985353
-0.231167 -0.103233 0.665000 1247500
-0.231862 -0.099732 0.667000 2034966
-0.234295 -0.096928 0.674000 2231568
-0.234990 -0.089490 0.676000 7090222
-0.237076 -0.086387 0.682000 7948083
-0.239510 -0.075462 0.689000 8997970
-0.240205 -0.071732 0.691000 10380888
-0.240900 -0.067980 0.693000 11631725
-0.240205 -0.063835 0.691000 12558726
-0.231974 -0.173182 0.671000 10564431
-0.224714 -0.164048 0.650000 10565967
-0.223331 -0.159347 0.646000 10028081
-0.221603 -0.154450 0.641000 7799057
-0.221603 -0.150788 0.641000 7471368
-0.221949 -0.147354 0.642000 6619659
-0.222986 -0.144357 0.645000 6423301
-0.223677 -0.141108 0.647000 6292228
-0.224023 -0.137623 0.648000 6095626
-0.225406 -0.134747 0.652000 6095623
-0.226443 -0.131624 0.655000 6030087
-0.226443 -0.127881 0.655000 3933705
-0.227134 -0.124517 0.657000 1180680
-0.227480 -0.120947 0.658000 985351
-0.228863 -0.117899 0.662000 1050888
-0.228863 -0.114116 0.662000 985612
-0.229209 -0.110500 0.663000 1050890
-0.229209 -0.106711 0.663000 919814
-0.229900 -0.103233 0.665000 1050636
-0.230246 -0.099583 0.666000 1509649
-0.230591 -0.095921 0.667000 1772045
-0.231629 -0.092524 0.670000 3017754
-0.233011 -0.089225 0.674000 4852780
