# .PCD v.7 - Point Cloud Data file format
VERSION .7
FIELDS x y z rgb
SIZE 4 4 4 4
TYPE F F F I
COUNT 1 1 1 1
WIDTH 1284
HEIGHT 1
POINTS 1284
DATA ascii
-0.220514 -0.196301 0.908000 9461107
-0.221729 -0.192165 0.913000 8527676
-0.222700 -0.187767 0.917000 9200930
-0.223429 -0.183124 0.920000 9258281
-0.225129 -0.179220 0.927000 8742964
-0.225857 -0.174486 0.930000 7015973
-0.227071 -0.170081 0.935000 8738606
-0.227557 -0.165090 0.937000 8936537
-0.228771 -0.160589 0.942000 8276009
-0.230229 -0.156194 0.948000 7094306
-0.230714 -0.151095 0.950000 8127245
-0.232657 -0.146893 0.958000 8862737
-0.233386 -0.141862 0.961000 9391436
-0.233386 -0.136370 0.961000 9339495
-0.214207 -0.273473 0.889000 9973827
-0.208906 -0.261751 0.867000 10693187
-0.208424 -0.256205 0.865000 10686769
-0.208906 -0.251843 0.867000 9896481
-0.209388 -0.247458 0.869000 9569052
-0.209870 -0.243050 0.871000 9306646
-0.210351 -0.238620 0.873000 8913426
-0.210833 -0.234167 0.875000 8717077
-0.212520 -0.231000 0.882000 8587788
-0.212520 -0.225960 0.882000 2098202
-0.213725 -0.222172 0.887000 1116942
-0.213725 -0.217104 0.887000 1182478
-0.214207 -0.212513 0.889000 1379345
-0.215893 -0.209067 0.896000 4260892
-0.217098 -0.205085 0.901000 9584440
-0.217580 -0.200380 0.903000 9529479
-0.218785 -0.196301 0.908000 9791867
-0.219267 -0.191533 0.910000 8789576
-0.220471 -0.187357 0.915000 9530647
-0.221676 -0.183124 0.920000 9516055
-0.223363 -0.179220 0.927000 9199411
-0.224086 -0.174486 0.930000 6754329
-0.225290 -0.170081 0.935000 9061674
-0.225772 -0.165090 0.937000 8739127
-0.226495 -0.160248 0.940000 8075056
-0.227700 -0.155700 0.945000 7294265
-0.228905 -0.151095 0.950000 7744549
-0.230110 -0.146433 0.955000 7622205
-0.231555 -0.141862 0.961000 7615285
-0.231555 -0.136370 0.961000 10776910
-0.231555 -0.130879 0.961000 9727293
-0.212513 -0.278553 0.889000 10101299
-0.212513 -0.273473 0.889000 10103878
-0.207254 -0.261751 0.867000 10825283
-0.206776 -0.256205 0.865000 10884145
-0.206776 -0.251262 0.865000 10158890
-0.207732 -0.247458 0.869000 9765667
-0.208689 -0.243609 0.873000 9503514
-0.208689 -0.238620 0.873000 9175826
-0.209884 -0.234970 0.878000 8913683
-0.210840 -0.231000 0.882000 8849931
-0.210840 -0.225960 0.882000 1771034
-0.211318 -0.221421 0.884000 1116945
-0.212035 -0.217104 0.887000 1182734
-0.212513 -0.212513 0.889000 1379346
-0.214187 -0.209067 0.896000 4064540
-0.214665 -0.204402 0.898000 9860922
-0.215382 -0.199936 0.901000 9790600
-0.217055 -0.196301 0.908000 10191747
-0.217533 -0.191533 0.910000 8462932
-0.218250 -0.186948 0.913000 10124045
-0.219207 -0.182527 0.917000 9258500
-0.221119 -0.178833 0.925000 9072433
-0.221597 -0.173923 0.927000 6819341
-0.222792 -0.169535 0.932000 7681830
-0.223510 -0.164738 0.935000 7746836
-0.224705 -0.160248 0.940000 7475767
-0.225900 -0.155700 0.945000 6901584
-0.226617 -0.150777 0.948000 8013374
-0.227812 -0.146127 0.953000 8742761
-0.229008 -0.141419 0.958000 7937311
-0.229725 -0.136370 0.961000 9257524
-0.229725 -0.130879 0.961000 9933383
-0.230920 -0.126040 0.966000 3948868
-0.210820 -0.278553 0.889000 10095155
-0.209160 -0.271320 0.882000 10169929
-0.208211 -0.265072 0.878000 10956871
-0.205129 -0.256205 0.865000 11081015
-0.205129 -0.251262 0.865000 10487083
-0.206077 -0.247458 0.869000 9962530
-0.206551 -0.243050 0.871000 9700129
-0.207026 -0.238620 0.873000 9438230
-0.208686 -0.235505 0.880000 9110295
-0.209160 -0.231000 0.882000 9112076
-0.209160 -0.225960 0.882000 1443614
-0.209634 -0.221421 0.884000 1116945
-0.210346 -0.217104 0.887000 1248270
-0.210820 -0.212513 0.889000 1379344
-0.212480 -0.209067 0.896000 3867162
-0.212954 -0.204402 0.898000 10043962
-0.213666 -0.199936 0.901000 10061706
-0.215326 -0.196301 0.908000 10580615
-0.215800 -0.191533 0.910000 8207193
-0.216511 -0.186948 0.913000 10710556
-0.217460 -0.182527 0.917000 8996367
-0.218646 -0.178253 0.922000 8934965
-0.219831 -0.173923 0.927000 6949902
-0.220543 -0.169171 0.930000 6238751
-0.221729 -0.164738 0.935000 6828567
-0.222914 -0.160248 0.940000 6887205
-0.223389 -0.155206 0.942000 6510133
-0.224100 -0.150300 0.945000 8206631
-0.225286 -0.145667 0.950000 9927004
-0.227183 -0.141419 0.958000 8270125
-0.227183 -0.135945 0.958000 7674411
-0.227894 -0.130879 0.961000 10051892
-0.229080 -0.126040 0.966000 6514739
-0.207480 -0.271320 0.882000 10234957
-0.206539 -0.265072 0.878000 11087434
-0.203951 -0.256797 0.867000 11145278
-0.203951 -0.251843 0.867000 10618923
-0.204892 -0.248028 0.871000 10159905
-0.205363 -0.243609 0.873000 9897511
-0.205363 -0.238620 0.873000 9700634
-0.207010 -0.235505 0.880000 9372698
-0.207480 -0.231000 0.882000 9243917
-0.207480 -0.225960 0.882000 1247009
-0.208656 -0.222172 0.887000 1182226
-0.208656 -0.217104 0.887000 1248270
-0.209597 -0.212991 0.891000 1313807
-0.210773 -0.209067 0.896000 3736343
-0.211244 -0.204402 0.898000 10124090
-0.211950 -0.199936 0.901000 10450315
-0.212890 -0.195652 0.905000 10781323
-0.214067 -0.191533 0.910000 8399965
-0.214772 -0.186948 0.913000 11434796
-0.215713 -0.182527 0.917000 9324057
-0.216890 -0.178253 0.922000 9855034
-0.217595 -0.173548 0.925000 7277582
-0.218771 -0.169171 0.930000 6893337
-0.219948 -0.164738 0.935000 6765338
-0.220418 -0.159736 0.937000 6562323
-0.221594 -0.155206 0.942000 6048025
-0.222300 -0.150300 0.945000 7019281
-0.223476 -0.145667 0.950000 9792335
-0.225358 -0.141419 0.958000 8140347
-0.225358 -0.135945 0.958000 7806242
-0.226064 -0.130879 0.961000 8929314
-0.227240 -0.126040 0.966000 7163170
-0.205333 -0.270705 0.880000 10301260
-0.204867 -0.265072 0.878000 11283015
-0.202300 -0.256797 0.867000 11209786
-0.202300 -0.251843 0.867000 10816046
-0.203233 -0.248028 0.871000 10357030
-0.203700 -0.243609 0.873000 10094890
-0.203700 -0.238620 0.873000 9897758
-0.205333 -0.235505 0.880000 9635099
-0.205800 -0.231000 0.882000 9374995
-0.205800 -0.225960 0.882000 1050922
-0.206967 -0.222172 0.887000 1182485
-0.206967 -0.217104 0.887000 1248270
-0.207433 -0.212513 0.889000 1248271
-0.207900 -0.207900 0.891000 3539475
-0.209533 -0.204402 0.898000 10111027
-0.210233 -0.199936 0.901000 10846598
-0.210700 -0.195220 0.903000 10910606
-0.212333 -0.191533 0.910000 8604255
-0.212333 -0.186333 0.910000 12092967
-0.213967 -0.182527 0.917000 9640717
-0.214667 -0.177867 0.920000 10779698
-0.215833 -0.173548 0.925000 7603467
-0.216300 -0.168626 0.927000 7545624
-0.217467 -0.164210 0.932000 6697492
-0.218633 -0.159736 0.937000 6175774
-0.219333 -0.154876 0.940000 5589027
-0.219800 -0.149823 0.942000 5778199
-0.221200 -0.145360 0.948000 9655081
-0.222833 -0.140976 0.955000 7945008
-0.223533 -0.135945 0.958000 7936547
-0.224233 -0.130879 0.961000 7809827
-0.224700 -0.125649 0.963000 7876906
-0.204120 -0.271320 0.882000 10366540
-0.203194 -0.265072 0.878000 11216451
-0.200649 -0.256797 0.867000 11208759
-0.200649 -0.251843 0.867000 10750256
-0.201574 -0.248028 0.871000 10488108
-0.202037 -0.243609 0.873000 10225965
-0.202037 -0.238620 0.873000 10029346
-0.203657 -0.235505 0.880000 9898267
-0.204120 -0.231000 0.882000 9507096
-0.204120 -0.225960 0.882000 1182259
-0.205277 -0.222172 0.887000 1379352
-0.205277 -0.217104 0.887000 1313806
-0.205740 -0.212513 0.889000 1314063
-0.206203 -0.207900 0.891000 2688014
-0.207823 -0.204402 0.898000 10452780
-0.208517 -0.199936 0.901000 10579072
-0.208980 -0.195220 0.903000 10655633
-0.210137 -0.191112 0.908000 8793440
-0.210600 -0.186333 0.910000 11899171
-0.211757 -0.182129 0.915000 9511937
-0.212914 -0.177867 0.920000 11049258
-0.214071 -0.173548 0.925000 7670279
-0.214534 -0.168626 0.927000 7871512
-0.215691 -0.164210 0.932000 7283982
-0.216849 -0.159736 0.937000 5786408
-0.217543 -0.154876 0.940000 4999981
-0.218006 -0.149823 0.942000 4470045
-0.219394 -0.145360 0.948000 8597763
-0.221014 -0.140976 0.955000 7877156
-0.221709 -0.135945 0.958000 7739171
-0.222403 -0.130879 0.961000 7739173
-0.222866 -0.125649 0.963000 7743281
-0.202440 -0.276360 0.882000 10158411
-0.201981 -0.270705 0.880000 10432334
-0.201522 -0.265072 0.878000 11215168
-0.199456 -0.257390 0.869000 11143476
-0.199915 -0.253005 0.871000 10684205
-0.199915 -0.248028 0.871000 10618665
-0.200374 -0.243609 0.873000 10290989
-0.200374 -0.238620 0.873000 10160420
-0.201981 -0.235505 0.880000 10160672
-0.202440 -0.231000 0.882000 9572651
-0.202899 -0.226472 0.884000 1314617
-0.203588 -0.222172 0.887000 1510689
-0.203588 -0.217104 0.887000 1379346
-0.204047 -0.212513 0.889000 1379602
-0.204506 -0.207900 0.891000 1836814
-0.206112 -0.204402 0.898000 10698785
-0.206801 -0.199936 0.901000 10309488
-0.207719 -0.195652 0.905000 10378371
-0.208867 -0.191533 0.910000 9062752
-0.208867 -0.186333 0.910000 11697708
-0.210014 -0.182129 0.915000 9379847
-0.211162 -0.177867 0.920000 11239466
-0.211621 -0.172985 0.922000 7800586
-0.212769 -0.168626 0.927000 8131861
-0.213916 -0.164210 0.932000 7935509
-0.214605 -0.159395 0.935000 5390637
-0.215064 -0.154382 0.937000 4411439
-0.215752 -0.149505 0.940000 3094815
-0.216900 -0.144900 0.945000 7541782
-0.218736 -0.140681 0.953000 7810086
-0.219884 -0.135945 0.958000 7605279
-0.219884 -0.130470 0.958000 7607330
-0.220572 -0.125388 0.961000 7610405
-0.201215 -0.276987 0.884000 10232156
-0.200760 -0.271320 0.882000 10432336
-0.199167 -0.264167 0.875000 11215164
-0.197801 -0.257390 0.869000 11143217
-0.198256 -0.253005 0.871000 10683945
-0.198711 -0.248597 0.873000 10552615
-0.198711 -0.243609 0.873000 10357037
-0.199850 -0.239987 0.878000 10225959
-0.200305 -0.235505 0.880000 10161445
-0.200760 -0.231000 0.882000 7935294
-0.201215 -0.226472 0.884000 2237247
-0.201898 -0.222172 0.887000 1576489
-0.202353 -0.217593 0.889000 1444885
-0.202809 -0.212991 0.891000 1379606
-0.202809 -0.207900 0.891000 1508877
-0.205085 -0.205085 0.901000 8918295
-0.205085 -0.199936 0.901000 9715039
-0.205995 -0.195652 0.905000 10117493
-0.207133 -0.191533 0.910000 9188191
-0.207133 -0.186333 0.910000 11446581
-0.208727 -0.182527 0.917000 9783308
-0.209410 -0.177867 0.920000 11566379
-0.209865 -0.172985 0.922000 7800076
-0.211003 -0.168626 0.927000 8065298
-0.211686 -0.163857 0.930000 8131867
-0.212824 -0.159395 0.935000 5523762
-0.213279 -0.154382 0.937000 4149297
-0.213962 -0.149505 0.940000 3160096
-0.214417 -0.144440 0.942000 6235689
-0.216921 -0.140681 0.953000 7612201
-0.217376 -0.135519 0.955000 7545370
-0.218059 -0.130470 0.958000 7279903
-0.218742 -0.125388 0.961000 7348248
-0.199080 -0.276360 0.882000 10289772
-0.198629 -0.270705 0.880000 10431817
-0.197500 -0.264167 0.875000 11215417
-0.196146 -0.257390 0.869000 11142702
-0.197049 -0.253586 0.873000 10683684
-0.197049 -0.248597 0.873000 10487077
-0.197500 -0.244167 0.875000 10357032
-0.197500 -0.239167 0.875000 10291493
-0.198629 -0.235505 0.880000 10160420
-0.199080 -0.231000 0.882000 6297655
-0.199531 -0.226472 0.884000 3161677
-0.200209 -0.222172 0.887000 1642545
-0.200660 -0.217593 0.889000 1510430
-0.201111 -0.212991 0.891000 1379350
-0.201111 -0.207900 0.891000 1182222
-0.202691 -0.204402 0.898000 7145233
-0.203369 -0.199936 0.901000 9175344
-0.204271 -0.195652 0.905000 9846337
-0.205400 -0.191533 0.910000 9319476
-0.205400 -0.186333 0.910000 11171895
-0.206529 -0.182129 0.915000 10246663
-0.206980 -0.177287 0.917000 11898148
-0.207657 -0.172610 0.920000 7799047
-0.209237 -0.168626 0.927000 8000806
-0.209914 -0.163857 0.930000 8327957
-0.210366 -0.158884 0.932000 5590073
-0.211043 -0.154052 0.935000 3886646
-0.211494 -0.149028 0.937000 3224603
-0.212623 -0.144440 0.942000 4930092
-0.214429 -0.140238 0.950000 7425849
-0.214429 -0.134810 0.950000 7493966
-0.216234 -0.130470 0.958000 6957356
-0.216911 -0.125388 0.961000 7085853
-0.197400 -0.276360 0.882000 10566523
-0.196952 -0.270705 0.880000 10693954
-0.195386 -0.263563 0.873000 11212085
-0.194938 -0.257982 0.871000 11077164
-0.195386 -0.253586 0.873000 10618143
-0.195833 -0.249167 0.875000 10552611
-0.195833 -0.244167 0.875000 10422306
-0.196505 -0.239987 0.878000 10226212
-0.196952 -0.235505 0.880000 10095906
-0.197848 -0.231524 0.884000 5510960
-0.197848 -0.226472 0.884000 4013146
-0.198519 -0.222172 0.887000 2298168
-0.198967 -0.217593 0.889000 1576486
-0.199414 -0.212991 0.891000 1379351
-0.200086 -0.208600 0.894000 1247758
-0.200981 -0.204402 0.898000 3670282
-0.202100 -0.200380 0.903000 9110273
-0.202548 -0.195652 0.905000 9437452
-0.203219 -0.191112 0.908000 9244681
-0.203667 -0.186333 0.910000 12023866
-0.205233 -0.182527 0.917000 10634753
-0.205905 -0.177867 0.920000 11775773
-0.205905 -0.172610 0.920000 9251841
-0.207471 -0.168626 0.927000 8663866
-0.208143 -0.163857 0.930000 8063758
-0.208590 -0.158884 0.932000 6644801
-0.209262 -0.154052 0.935000 3885114
-0.209710 -0.149028 0.937000 2436119
-0.210829 -0.144440 0.942000 4539183
-0.212171 -0.139943 0.948000 6978378
-0.212619 -0.134810 0.950000 7104897
-0.213738 -0.130062 0.955000 7224122
-0.214410 -0.124996 0.958000 7478561
-0.195720 -0.276360 0.882000 10769820
-0.195276 -0.270705 0.880000 10886973
-0.192835 -0.262355 0.869000 11274798
-0.193279 -0.257982 0.871000 11011632
-0.193723 -0.253586 0.873000 10617879
-0.194167 -0.249167 0.875000 10618146
-0.194832 -0.245004 0.878000 10422052
-0.195276 -0.240533 0.880000 10160417
-0.195720 -0.236040 0.882000 10029600
-0.196830 -0.232310 0.887000 4725038
-0.196164 -0.226472 0.884000 4863822
-0.196830 -0.222172 0.887000 2893634
-0.197273 -0.217593 0.889000 1707566
-0.197717 -0.212991 0.891000 1379614
-0.198827 -0.209067 0.896000 1313812
-0.199936 -0.205085 0.901000 198157
-0.200380 -0.200380 0.903000 9046534
-0.200824 -0.195652 0.905000 8978960
-0.201490 -0.191112 0.908000 9175307
-0.201933 -0.186333 0.910000 12879921
-0.203043 -0.182129 0.915000 11023110
-0.203487 -0.177287 0.917000 11636268
-0.204152 -0.172610 0.920000 10704688
-0.205706 -0.168626 0.927000 9333078
-0.206371 -0.163857 0.930000 7865390
-0.206371 -0.158543 0.930000 7625539
-0.206815 -0.153558 0.932000 3951933
-0.207925 -0.149028 0.937000 1651754
-0.209034 -0.144440 0.942000 4145197
-0.210366 -0.139943 0.948000 6511659
-0.210810 -0.134810 0.950000 6703183
-0.211475 -0.129790 0.953000 7417133
-0.212585 -0.124996 0.958000 7871016
-0.213250 -0.119896 0.961000 8015661
-0.193600 -0.275733 0.880000 10973628
-0.193160 -0.270090 0.878000 10949431
-0.191620 -0.262959 0.871000 11011367
-0.191180 -0.257390 0.869000 10815285
-0.192060 -0.253586 0.873000 10422030
-0.192500 -0.249167 0.875000 10486817
-0.192500 -0.244167 0.875000 10356518
-0.192500 -0.239167 0.875000 10159903
-0.194040 -0.236040 0.882000 10031646
-0.195140 -0.232310 0.887000 3673901
-0.194480 -0.226472 0.884000 4207169
-0.195140 -0.222172 0.887000 3027275
-0.195140 -0.217104 0.887000 2038070
-0.196020 -0.212991 0.891000 1642020
-0.197120 -0.209067 0.896000 1445145
-0.197120 -0.203947 0.896000 1246481
-0.198220 -0.199936 0.901000 7145227
-0.198660 -0.195220 0.903000 8913940
-0.199100 -0.190481 0.905000 9638668
-0.200200 -0.186333 0.910000 12353064
-0.200860 -0.181730 0.913000 10963210
-0.201740 -0.177287 0.917000 11308091
-0.202400 -0.172610 0.920000 12163935
-0.203500 -0.168262 0.925000 11582067
-0.204600 -0.163857 0.930000 8794189
-0.204600 -0.158543 0.930000 8028742
-0.205040 -0.153558 0.932000 4415551
-0.205700 -0.148710 0.935000 2897981
-0.206800 -0.144133 0.940000 5908267
-0.208560 -0.139943 0.948000 7615756
-0.209000 -0.134810 0.950000 7414813
-0.209660 -0.129790 0.953000 7805215
-0.210100 -0.124605 0.955000 8792623
-0.211420 -0.119896 0.961000 8546347
-0.191924 -0.275733 0.880000 11178933
-0.190833 -0.269167 0.875000 10958699
-0.189525 -0.262355 0.869000 10748766
-0.189961 -0.257982 0.871000 10553402
-0.190833 -0.254167 0.875000 10291226
-0.191488 -0.250021 0.878000 10290975
-0.191488 -0.245004 0.878000 10290734
-0.191488 -0.239987 0.878000 10160164
-0.191924 -0.235505 0.880000 10099733
-0.193450 -0.232310 0.887000 2561837
-0.192796 -0.226472 0.884000 3550779
-0.193450 -0.222172 0.887000 3091521
-0.193887 -0.217593 0.889000 2367795
-0.194977 -0.213709 0.894000 1840164
-0.195413 -0.209067 0.896000 1642523
-0.195413 -0.203947 0.896000 2231058
-0.195850 -0.199270 0.898000 5243664
-0.196940 -0.195220 0.903000 8849682
-0.197376 -0.190481 0.905000 10158603
-0.198467 -0.186333 0.910000 11760425
-0.199557 -0.182129 0.915000 10944787
-0.199557 -0.176900 0.915000 10971184
-0.199993 -0.172047 0.917000 13618004
-0.200648 -0.167352 0.920000 13739870
-0.201738 -0.162976 0.925000 9723467
-0.202174 -0.158031 0.927000 8354631
-0.202829 -0.153229 0.930000 4807494
-0.203919 -0.148710 0.935000 4082733
-0.204355 -0.143673 0.937000 7669528
-0.206100 -0.139500 0.945000 8731698
-0.206100 -0.134100 0.945000 8194844
-0.206754 -0.129109 0.948000 8131104
-0.207845 -0.124344 0.953000 9709605
-0.208935 -0.119522 0.958000 9006628
-0.190248 -0.275733 0.880000 11244973
-0.189167 -0.269167 0.875000 11105183
-0.187870 -0.262355 0.869000 10831764
-0.188302 -0.257982 0.871000 10488384
-0.189167 -0.254167 0.875000 10227750
-0.189167 -0.249167 0.875000 10159902
-0.189815 -0.245004 0.878000 10094901
-0.189815 -0.239987 0.878000 10095400
-0.191112 -0.236575 0.884000 8590347
-0.192193 -0.232833 0.889000 2758701
-0.191112 -0.226472 0.884000 3156277
-0.191761 -0.222172 0.887000 2959414
-0.192193 -0.217593 0.889000 2630447
-0.193274 -0.213709 0.894000 2037541
-0.193707 -0.209067 0.896000 1642781
-0.193707 -0.203947 0.896000 1969428
-0.194139 -0.199270 0.898000 3606036
-0.195220 -0.195220 0.903000 9112593
-0.195652 -0.190481 0.905000 10230538
-0.196733 -0.186333 0.910000 11747114
-0.197382 -0.181730 0.913000 10166812
-0.198247 -0.177287 0.917000 11476261
-0.198247 -0.172047 0.917000 13084744
-0.198895 -0.167352 0.920000 12158026
-0.199976 -0.162976 0.925000 9662024
-0.200409 -0.158031 0.927000 8225353
-0.201057 -0.153229 0.930000 6699084
-0.202138 -0.148710 0.935000 4546846
-0.202570 -0.143673 0.937000 8587781
-0.203651 -0.139057 0.942000 10646617
-0.204300 -0.134100 0.945000 8658458
-0.205381 -0.129381 0.950000 8391714
-0.206462 -0.124605 0.955000 9710362
-0.207110 -0.119522 0.958000 9594397
-0.186643 -0.257982 0.871000 10443638
-0.187500 -0.254167 0.875000 10235997
-0.187500 -0.249167 0.875000 10035271
-0.188143 -0.245004 0.878000 9965115
-0.188571 -0.240533 0.880000 9964833
-0.189429 -0.236575 0.884000 7083298
-0.190500 -0.232833 0.889000 2955054
-0.190071 -0.227241 0.887000 2761265
-0.190071 -0.222172 0.887000 2761266
-0.190500 -0.217593 0.889000 2957868
-0.192000 -0.214187 0.896000 2234920
-0.192000 -0.209067 0.896000 1708580
-0.192000 -0.203947 0.896000 1708057
-0.192429 -0.199270 0.898000 1969429
-0.193500 -0.195220 0.903000 9374230
-0.193929 -0.190481 0.905000 10291978
-0.194571 -0.185924 0.908000 11763276
-0.195643 -0.181730 0.913000 9371920
-0.196071 -0.176900 0.915000 11951154
-0.197143 -0.172610 0.920000 12611888
-0.197571 -0.167716 0.922000 10585415
-0.198214 -0.162976 0.925000 9584702
-0.198643 -0.158031 0.927000 8078913
-0.199286 -0.153229 0.930000 8590126
-0.200357 -0.148710 0.935000 5006654
-0.200786 -0.143673 0.937000 9437977
-0.201857 -0.139057 0.942000 12488572
-0.202500 -0.134100 0.945000 9123635
-0.203143 -0.129109 0.948000 8588839
-0.204214 -0.124344 0.953000 9768483
-0.205286 -0.119522 0.958000 10115624
-0.186470 -0.255038 0.878000 10184595
-0.186470 -0.250021 0.878000 10048112
-0.186470 -0.245004 0.878000 10103361
-0.187745 -0.241627 0.884000 9767195
-0.189231 -0.238449 0.891000 5705016
-0.189231 -0.233357 0.891000 2890032
-0.188382 -0.227241 0.887000 2629164
-0.188382 -0.222172 0.887000 2498094
-0.188807 -0.217593 0.889000 2628905
-0.189869 -0.213709 0.894000 2300460
-0.190293 -0.209067 0.896000 1840427
-0.190293 -0.203947 0.896000 1905181
-0.190718 -0.199270 0.898000 2035221
-0.191780 -0.195220 0.903000 4849947
-0.192205 -0.190481 0.905000 10170378
-0.192842 -0.185924 0.908000 12554350
-0.193904 -0.181730 0.913000 9637379
-0.194753 -0.177287 0.917000 12223296
-0.195390 -0.172610 0.920000 12222487
-0.196452 -0.168262 0.925000 11299396
-0.196452 -0.162976 0.925000 8737076
-0.196877 -0.158031 0.927000 8720698
-0.197939 -0.153558 0.932000 8789775
-0.198576 -0.148710 0.935000 6784863
-0.199001 -0.143673 0.937000 10633516
-0.200063 -0.139057 0.942000 12957344
-0.200700 -0.134100 0.945000 9518155
-0.201337 -0.129109 0.948000 8850733
-0.201762 -0.123952 0.950000 9309228
-0.203461 -0.119522 0.958000 8585780
-0.184167 -0.254167 0.875000 10128023
-0.184798 -0.250021 0.878000 10055298
-0.186061 -0.246678 0.884000 10185320
-0.186061 -0.241627 0.884000 9582162
-0.187534 -0.238449 0.891000 4391997
-0.187534 -0.233357 0.891000 2758957
-0.187113 -0.227753 0.889000 2497581
-0.187113 -0.222673 0.889000 2235181
-0.187113 -0.217593 0.889000 2299682
-0.188587 -0.214187 0.896000 2365991
-0.188587 -0.209067 0.896000 2037543
-0.188587 -0.203947 0.896000 2037022
-0.189008 -0.199270 0.898000 2101530
-0.190060 -0.195220 0.903000 329755
-0.190481 -0.190481 0.905000 9969423
-0.191112 -0.185924 0.908000 13269064
-0.192165 -0.181730 0.913000 9830661
-0.193007 -0.177287 0.917000 12489304
-0.193638 -0.172610 0.920000 11829320
-0.194690 -0.168262 0.925000 11958846
-0.194690 -0.162976 0.925000 7884079
-0.195111 -0.158031 0.927000 9377576
-0.196164 -0.153558 0.932000 9048855
-0.196795 -0.148710 0.935000 8551777
-0.197216 -0.143673 0.937000 11764814
-0.198269 -0.139057 0.942000 13413279
-0.198900 -0.134100 0.945000 9903680
-0.199531 -0.129109 0.948000 9048880
-0.199952 -0.123952 0.950000 8853794
-0.201005 -0.119148 0.955000 7093299
-0.182500 -0.254167 0.875000 10128539
-0.183126 -0.250021 0.878000 10125204
-0.185003 -0.247515 0.887000 10584206
-0.185420 -0.242993 0.889000 10514313
-0.185420 -0.237913 0.889000 4991297
-0.186463 -0.234143 0.894000 2363946
-0.185837 -0.228266 0.891000 2432045
-0.185837 -0.223174 0.891000 2365739
-0.185837 -0.218083 0.891000 2103066
-0.186463 -0.213709 0.894000 2300195
-0.186880 -0.209067 0.896000 2169122
-0.187297 -0.204402 0.898000 2168863
-0.187297 -0.199270 0.898000 2102302
-0.188757 -0.195652 0.905000 1445660
-0.188757 -0.190481 0.905000 6491668
-0.189383 -0.185924 0.908000 11615779
-0.190426 -0.181730 0.913000 10428167
-0.190843 -0.176900 0.915000 12693360
-0.191886 -0.172610 0.920000 12031097
-0.192929 -0.168262 0.925000 11307065
-0.193346 -0.163329 0.927000 8269865
-0.193346 -0.158031 0.927000 9641494
-0.195014 -0.154052 0.935000 9709598
-0.195014 -0.148710 0.935000 9346660
-0.195431 -0.143673 0.937000 12225648
-0.196474 -0.139057 0.942000 13281439
-0.197100 -0.134100 0.945000 9774901
-0.197726 -0.129109 0.948000 9312050
-0.198143 -0.123952 0.950000 9783575
-0.199186 -0.119148 0.955000 8941106
-0.183313 -0.247515 0.887000 11045003
-0.183727 -0.242993 0.889000 11438219
-0.183727 -0.237913 0.889000 5661807
-0.185173 -0.234667 0.896000 1976141
-0.184140 -0.228266 0.891000 2366002
-0.184760 -0.223926 0.894000 2432046
-0.184760 -0.218817 0.894000 1906468
-0.184760 -0.213709 0.894000 2168868
-0.185173 -0.209067 0.896000 2365982
-0.185587 -0.204402 0.898000 2234657
-0.186207 -0.199936 0.901000 2169374
-0.187653 -0.196301 0.908000 2495519
-0.187653 -0.191112 0.908000 3015445
-0.187653 -0.185924 0.908000 9966106
-0.188687 -0.181730 0.913000 11080992
-0.189100 -0.176900 0.915000 12820589
-0.190547 -0.172985 0.922000 12299356
-0.191167 -0.168262 0.925000 10576207
-0.191580 -0.163329 0.927000 8659247
-0.191580 -0.158031 0.927000 9837085
-0.193233 -0.154052 0.935000 10369060
-0.193647 -0.149028 0.937000 10062192
-0.193647 -0.143673 0.937000 12752735
-0.194680 -0.139057 0.942000 13077093
-0.195300 -0.134100 0.945000 9634102
-0.195920 -0.129109 0.948000 9576239
-0.196333 -0.123952 0.950000 10769950
-0.197367 -0.119148 0.955000 10713139
-0.182033 -0.237913 0.889000 8882588
-0.183467 -0.234667 0.896000 5327472
-0.183057 -0.223926 0.894000 2170417
-0.183057 -0.218817 0.894000 2300718
-0.183057 -0.213709 0.894000 2168869
-0.183876 -0.209533 0.898000 2168857
-0.183876 -0.204402 0.898000 2234660
-0.184490 -0.199936 0.901000 2234910
-0.185310 -0.195652 0.905000 2365475
-0.185924 -0.191112 0.908000 2624533
-0.185924 -0.185924 0.908000 5832977
-0.186948 -0.181730 0.913000 12019001
-0.187357 -0.176900 0.915000 12621674
-0.188790 -0.172985 0.922000 12557119
-0.189405 -0.168262 0.925000 10447461
-0.189814 -0.163329 0.927000 9311540
-0.189814 -0.158031 0.927000 9767717
-0.191452 -0.154052 0.935000 10633258
-0.191862 -0.149028 0.937000 9870460
-0.191862 -0.143673 0.937000 11430477
-0.192886 -0.139057 0.942000 11230508
-0.193500 -0.134100 0.945000 9769526
-0.194114 -0.129109 0.948000 9773612
-0.195138 -0.124344 0.953000 10767141
-0.195548 -0.119148 0.955000 10382389
-0.181760 -0.234667 0.896000 8681612
-0.181354 -0.218817 0.894000 2694697
-0.181760 -0.214187 0.896000 2104106
-0.182774 -0.210233 0.901000 1905953
-0.182774 -0.205085 0.901000 2168867
-0.183586 -0.200824 0.905000 2366239
-0.183586 -0.195652 0.905000 2234661
-0.183586 -0.190481 0.905000 2234910
-0.184194 -0.185924 0.908000 1706005
-0.185209 -0.181730 0.913000 12945949
-0.185614 -0.176900 0.915000 12363648
-0.187034 -0.172985 0.922000 12887073
-0.187643 -0.168262 0.925000 10309208
-0.188049 -0.163329 0.927000 9967401
-0.188049 -0.158031 0.927000 9639475
-0.189671 -0.154052 0.935000 10889001
-0.190077 -0.149028 0.937000 9664097
-0.190077 -0.143673 0.937000 10178351
-0.191091 -0.139057 0.942000 9380125
-0.192309 -0.134526 0.948000 9901345
-0.192309 -0.129109 0.948000 9972512
-0.192714 -0.123952 0.950000 10834473
-0.193323 -0.118898 0.953000 9995577
-0.180053 -0.214187 0.896000 2498096
-0.181058 -0.210233 0.901000 2168873
-0.181460 -0.205540 0.903000 2037538
-0.181862 -0.200824 0.905000 2366239
-0.181862 -0.195652 0.905000 2431527
-0.182465 -0.191112 0.908000 2431783
-0.182867 -0.186333 0.910000 1707034
-0.183871 -0.182129 0.915000 9130497
-0.183871 -0.176900 0.915000 13622167
-0.185278 -0.172985 0.922000 12489219
-0.185881 -0.168262 0.925000 10238283
-0.186283 -0.163329 0.927000 10499102
-0.186886 -0.158543 0.930000 10370114
-0.187890 -0.154052 0.935000 10494759
-0.188292 -0.149028 0.937000 9206342
-0.188292 -0.143673 0.937000 9968145
-0.189297 -0.139057 0.942000 8913167
-0.190503 -0.134526 0.948000 9837324
-0.190503 -0.129109 0.948000 9842965
-0.190905 -0.123952 0.950000 10773292
-0.191508 -0.118898 0.953000 11509565
-0.178347 -0.214187 0.896000 2890282
-0.179740 -0.210700 0.903000 2498096
-0.179740 -0.205540 0.903000 1841702
-0.180138 -0.200824 0.905000 2431517
-0.180735 -0.196301 0.908000 2562341
-0.180735 -0.191112 0.908000 2563624
-0.182129 -0.187357 0.915000 1709344
-0.182129 -0.182129 0.915000 5309953
-0.182527 -0.177287 0.917000 14858582
-0.183522 -0.172985 0.922000 12086605
-0.184119 -0.168262 0.925000 10105932
-0.184517 -0.163329 0.927000 11092002
-0.185114 -0.158543 0.930000 11098944
-0.186110 -0.154052 0.935000 10104126
-0.186508 -0.149028 0.937000 8671557
-0.187105 -0.144133 0.940000 9765932
-0.188100 -0.139500 0.945000 8454924
-0.188697 -0.134526 0.948000 9849669
-0.188697 -0.129109 0.948000 9719113
-0.189692 -0.124344 0.953000 10779214
-0.190090 -0.119148 0.955000 13015614
-0.178020 -0.210700 0.903000 2235702
-0.178020 -0.205540 0.903000 2235947
-0.178414 -0.200824 0.905000 2234650
-0.179006 -0.196301 0.908000 2365476
-0.179991 -0.192165 0.913000 2629161
-0.180386 -0.187357 0.915000 2235174
-0.180386 -0.182129 0.915000 3344897
-0.180780 -0.177287 0.917000 9667605
-0.181766 -0.172985 0.922000 12362390
-0.182357 -0.168262 0.925000 10424910
-0.182751 -0.163329 0.927000 11158821
-0.183343 -0.158543 0.930000 12221758
-0.184329 -0.154052 0.935000 10965077
-0.184723 -0.149028 0.937000 8930117
-0.184723 -0.143673 0.937000 9904199
-0.186300 -0.139500 0.945000 8126729
-0.186891 -0.134526 0.948000 12229501
-0.186891 -0.129109 0.948000 11900284
-0.187877 -0.124344 0.953000 11895663
-0.188271 -0.119148 0.955000 11120448
-0.176300 -0.205540 0.903000 2563112
-0.176690 -0.200824 0.905000 1972773
-0.177667 -0.196733 0.910000 2168611
-0.178252 -0.192165 0.913000 2694691
-0.178643 -0.187357 0.915000 2694694
-0.179033 -0.182527 0.917000 1447445
-0.179033 -0.177287 0.917000 4405012
-0.180595 -0.173548 0.925000 12563791
-0.180595 -0.168262 0.925000 10752567
-0.181571 -0.163857 0.930000 11289391
-0.181962 -0.158884 0.932000 13340481
-0.182548 -0.154052 0.935000 11894623
-0.182938 -0.149028 0.937000 9127511
-0.183524 -0.144133 0.940000 10040129
-0.184500 -0.139500 0.945000 7746086
-0.185086 -0.134526 0.948000 14597978
-0.185476 -0.129381 0.950000 14004356
-0.186452 -0.124605 0.955000 13079389
-0.186452 -0.119148 0.955000 9200693
-0.174580 -0.205540 0.903000 1709349
-0.174967 -0.200824 0.905000 2038832
-0.176513 -0.197382 0.913000 2299169
-0.176513 -0.192165 0.913000 2497820
-0.176900 -0.187357 0.915000 2629414
-0.177287 -0.182527 0.917000 2103849
-0.177867 -0.177867 0.920000 3080466
-0.178253 -0.172985 0.922000 7355144
-0.179220 -0.168626 0.927000 9701664
-0.179800 -0.163857 0.930000 11685945
-0.180187 -0.158884 0.932000 13672259
-0.180767 -0.154052 0.935000 13081961
-0.181153 -0.149028 0.937000 10902633
-0.181733 -0.144133 0.940000 10370362
-0.182700 -0.139500 0.945000 10238276
-0.183280 -0.134526 0.948000 14467127
-0.183667 -0.129381 0.950000 13345677
-0.184633 -0.124605 0.955000 12557130
-0.173243 -0.200824 0.905000 2104617
-0.174774 -0.197382 0.913000 2431015
-0.174774 -0.192165 0.913000 2366752
-0.175157 -0.187357 0.915000 2563620
-0.175540 -0.182527 0.917000 2761258
-0.176114 -0.177867 0.920000 1774623
-0.176497 -0.172985 0.922000 2097439
-0.177454 -0.168626 0.927000 8654617
-0.178029 -0.163857 0.930000 12012829
-0.178411 -0.158884 0.932000 13936205
-0.178986 -0.154052 0.935000 14269821
-0.179369 -0.149028 0.937000 12621449
-0.179943 -0.144133 0.940000 10764098
-0.180900 -0.139500 0.945000 12681558
-0.181474 -0.134526 0.948000 14400080
-0.181857 -0.129381 0.950000 12694154
-0.182814 -0.124605 0.955000 12098365
-0.173035 -0.197382 0.913000 2038316
-0.173414 -0.192586 0.915000 2432292
-0.173414 -0.187357 0.915000 2234914
-0.174362 -0.183124 0.920000 2761259
-0.174741 -0.178253 0.922000 2302508
-0.174741 -0.172985 0.922000 2430005
-0.175689 -0.168626 0.927000 5308947
-0.176636 -0.164210 0.932000 8336641
-0.177205 -0.159395 0.935000 13152087
-0.177205 -0.154052 0.935000 15060624
-0.178152 -0.149505 0.940000 14145449
-0.178152 -0.144133 0.940000 12748618
-0.179100 -0.139500 0.945000 13341545
-0.179669 -0.134526 0.948000 14201960
-0.180616 -0.129790 0.953000 13287048
-0.181564 -0.124996 0.958000 8017200
-0.171671 -0.192586 0.915000 2563615
-0.171671 -0.187357 0.915000 1907754
-0.172610 -0.183124 0.920000 2761253
-0.172985 -0.178253 0.922000 2761259
-0.172985 -0.172985 0.922000 2761265
-0.173923 -0.168626 0.927000 1970978
-0.174861 -0.164210 0.932000 4656649
-0.175424 -0.159395 0.935000 12349998
-0.175424 -0.154052 0.935000 15847774
-0.176362 -0.149505 0.940000 15582602
-0.176362 -0.144133 0.940000 14792816
-0.177300 -0.139500 0.945000 14003327
-0.177863 -0.134526 0.948000 13999452
-0.178801 -0.129790 0.953000 13862745
-0.179739 -0.124996 0.958000 3932442
-0.169929 -0.192586 0.915000 1576985
-0.170300 -0.187767 0.917000 1777203
-0.170857 -0.183124 0.920000 2760223
-0.171229 -0.178253 0.922000 2761259
-0.171786 -0.173548 0.925000 2761517
-0.173086 -0.169535 0.932000 2563888
-0.173643 -0.164738 0.935000 3412497
-0.173643 -0.159395 0.935000 6292228
-0.173643 -0.154052 0.935000 9532460
-0.174571 -0.149505 0.940000 12825451
-0.174943 -0.144440 0.942000 12824469
-0.175500 -0.139500 0.945000 12567702
-0.176057 -0.134526 0.948000 10643791
-0.176986 -0.129790 0.953000 7025451
-0.177914 -0.124996 0.958000 2623235
-0.168553 -0.187767 0.917000 1577762
-0.169472 -0.183522 0.922000 2759198
-0.169472 -0.178253 0.922000 2695465
-0.170024 -0.173548 0.925000 2827053
-0.171310 -0.169535 0.932000 3088686
-0.171862 -0.164738 0.935000 2169375
-0.172230 -0.159736 0.937000 199451
-0.172230 -0.154382 0.937000 3277082
-0.172781 -0.149505 0.940000 9984312
-0.173700 -0.144900 0.945000 10907211
-0.173700 -0.139500 0.945000 11035468
-0.174251 -0.134526 0.948000 7275816
-0.175538 -0.130062 0.955000 200739
-0.176641 -0.125388 0.961000 1381653
-0.168262 -0.184119 0.925000 1774108
-0.167716 -0.178253 0.922000 2236455
-0.168626 -0.173923 0.927000 2826796
-0.169535 -0.169535 0.932000 3088941
-0.170081 -0.164738 0.935000 2564141
-0.170081 -0.159395 0.935000 1580594
-0.170445 -0.154382 0.937000 2886152
-0.170990 -0.149505 0.940000 5177605
-0.171900 -0.144900 0.945000 5577729
-0.172446 -0.139943 0.948000 5636353
-0.172446 -0.134526 0.948000 4130049
-0.173719 -0.130062 0.955000 1444891
-0.174810 -0.125388 0.961000 1972775
-0.166500 -0.184119 0.925000 788556
-0.166860 -0.179220 0.927000 1709596
-0.166860 -0.173923 0.927000 2825763
-0.167760 -0.169535 0.932000 3023143
-0.168300 -0.164738 0.935000 3024173
-0.168300 -0.159395 0.935000 2892336
-0.168660 -0.154382 0.937000 2564632
-0.169200 -0.149505 0.940000 330778
-0.170100 -0.144900 0.945000 262425
-0.170640 -0.139943 0.948000 198934
-0.171540 -0.135235 0.953000 1051671
-0.171900 -0.130062 0.955000 2693665
-0.172440 -0.124996 0.958000 2563111
-0.165094 -0.184517 0.927000 4865916
-0.165094 -0.179220 0.927000 1181458
-0.165094 -0.173923 0.927000 1773593
-0.165985 -0.169535 0.932000 2498082
-0.166875 -0.165090 0.937000 2892333
-0.166519 -0.159395 0.935000 2892591
-0.166875 -0.154382 0.937000 2761512
-0.167766 -0.149823 0.942000 1646896
-0.168300 -0.144900 0.945000 1579057
-0.168834 -0.139943 0.948000 1646379
-0.170081 -0.135519 0.955000 1973292
-0.170615 -0.130470 0.958000 2761000
-0.171150 -0.125388 0.961000 2629159
-0.163329 -0.184517 0.927000 8948368
-0.163329 -0.179220 0.927000 669526
-0.163329 -0.173923 0.927000 655687
-0.164210 -0.169535 0.932000 1970710
-0.165090 -0.165090 0.937000 2760479
-0.165090 -0.159736 0.937000 2892339
-0.165090 -0.154382 0.937000 2958635
-0.165971 -0.149823 0.942000 2892847
-0.167029 -0.145360 0.948000 2958383
-0.167910 -0.140681 0.953000 3088428
-0.168262 -0.135519 0.955000 2892332
-0.168790 -0.130470 0.958000 2761257
-0.168790 -0.124996 0.958000 2694952
-0.163306 -0.165090 0.937000 1576976
-0.163306 -0.159736 0.937000 2105143
-0.163306 -0.154382 0.937000 3023405
-0.164177 -0.149823 0.942000 2958638
-0.165223 -0.145360 0.948000 3023661
-0.166094 -0.140681 0.953000 3088429
-0.166443 -0.135519 0.955000 2827052
-0.166966 -0.130470 0.958000 2826795
-0.166966 -0.124996 0.958000 2760489
-0.161521 -0.165090 0.937000 459076
-0.161521 -0.159736 0.937000 1314601
-0.162038 -0.154876 0.940000 3087900
-0.162900 -0.150300 0.945000 3022367
-0.163417 -0.145360 0.948000 3023153
-0.163762 -0.140238 0.950000 3088687
-0.165141 -0.135945 0.958000 2827311
-0.165141 -0.130470 0.958000 2826797
-0.165141 -0.124996 0.958000 2892334
-0.159736 -0.165090 0.937000 4865912
-0.159736 -0.159736 0.937000 2687771
-0.160589 -0.155206 0.942000 1903626
-0.161100 -0.150300 0.945000 1839376
-0.161611 -0.145360 0.948000 2300981
-0.162464 -0.140681 0.953000 2564657
-0.163316 -0.135945 0.958000 3023154
-0.163316 -0.130470 0.958000 3219504
-0.163316 -0.124996 0.958000 2693427
-0.159300 -0.155700 0.945000 721211
-0.159300 -0.150300 0.945000 592695
-0.159300 -0.144900 0.945000 1578027
-0.160649 -0.140681 0.953000 2038816
-0.160986 -0.135519 0.955000 3218976
-0.161491 -0.130470 0.958000 3546146
-0.161491 -0.124996 0.958000 2559527
-0.157500 -0.155700 0.945000 5791340
-0.157500 -0.150300 0.945000 4790622
-0.157500 -0.144900 0.945000 3546657
-0.158833 -0.140681 0.953000 2362382
-0.159167 -0.135519 0.955000 2823949
-0.159667 -0.130470 0.958000 3283221
-0.159667 -0.124996 0.958000 4269594
-0.155700 -0.155700 0.945000 10855302
-0.155700 -0.150300 0.945000 8940670
-0.155700 -0.144900 0.945000 5461343
-0.156524 -0.140238 0.950000 2699596
-0.157348 -0.135519 0.955000 2432068
-0.157842 -0.130470 0.958000 3027274
-0.157842 -0.124996 0.958000 6045519
-0.153900 -0.155700 0.945000 11246751
-0.153900 -0.144900 0.945000 8750492
-0.154714 -0.140238 0.950000 7240075
-0.155203 -0.135235 0.953000 6840442
-0.156017 -0.130470 0.958000 7104895
-0.233096 -0.261300 0.871000 9903420
-0.233096 -0.256323 0.871000 7995920
-0.231969 -0.261900 0.873000 10170426
-0.230906 -0.255734 0.869000 8192538
-0.231969 -0.251923 0.873000 7406355
-0.230306 -0.266889 0.873000 10234439
-0.229778 -0.261300 0.871000 10365757
-0.229778 -0.256323 0.871000 8388894
-0.229778 -0.251346 0.871000 8127503
-0.230306 -0.246934 0.873000 7145226
-0.229952 -0.268417 0.878000 10169665
-0.228643 -0.261900 0.873000 10497344
-0.228119 -0.256323 0.871000 8716578
-0.228119 -0.251346 0.871000 8324364
-0.229167 -0.247500 0.875000 7341329
-0.228643 -0.241946 0.873000 6489364
-0.228280 -0.268417 0.878000 10170952
-0.226980 -0.261900 0.873000 10563396
-0.226460 -0.256323 0.871000 9044261
-0.226460 -0.251346 0.871000 8520718
-0.226980 -0.246934 0.873000 7602963
-0.226980 -0.241946 0.873000 6554895
-0.227500 -0.237500 0.875000 7014149
-0.239720 -0.192303 0.922000 3086859
-0.241020 -0.188049 0.927000 2425108
-0.226608 -0.268417 0.878000 10170959
-0.225317 -0.261900 0.873000 10629704
-0.224285 -0.255734 0.869000 9240871
-0.224801 -0.251346 0.871000 8651535
-0.225317 -0.246934 0.873000 7799828
-0.225317 -0.241946 0.873000 7013386
-0.225833 -0.237500 0.875000 7144456
-0.227640 -0.234360 0.882000 6752784
-0.228156 -0.229840 0.884000 3475221
-0.237448 -0.197143 0.920000 5248284
-0.237964 -0.192303 0.922000 6180373
-0.240029 -0.188657 0.930000 5117478
-0.241835 -0.184723 0.937000 4267560
-0.241835 -0.179369 0.937000 3937586
-0.224935 -0.268417 0.878000 10171726
-0.223654 -0.261900 0.873000 10628422
-0.222630 -0.255734 0.869000 9437480
-0.222630 -0.250769 0.869000 8717081
-0.223142 -0.246369 0.871000 7996182
-0.223654 -0.241946 0.873000 7471883
-0.224167 -0.237500 0.875000 7275276
-0.225448 -0.233829 0.880000 7014158
-0.226472 -0.229840 0.884000 3998733
-0.226472 -0.224789 0.884000 919315
-0.234927 -0.201740 0.917000 7278111
-0.235695 -0.197143 0.920000 7214360
-0.236208 -0.192303 0.922000 9261855
-0.237489 -0.188049 0.927000 7872051
-0.238770 -0.183737 0.932000 7412261
-0.240050 -0.179369 0.937000 7545384
-0.240819 -0.174571 0.940000 7216918
-0.222500 -0.267500 0.875000 10171468
-0.221991 -0.261900 0.873000 10563140
-0.221483 -0.256323 0.871000 9634857
-0.220974 -0.250769 0.869000 8978979
-0.221991 -0.246934 0.873000 8193047
-0.221991 -0.241946 0.873000 7734028
-0.222500 -0.237500 0.875000 7471887
-0.223771 -0.233829 0.880000 7276300
-0.224280 -0.229320 0.882000 4261893
-0.224789 -0.224789 0.884000 1246480
-0.227840 -0.212480 0.896000 1510673
-0.228349 -0.207823 0.898000 4261899
-0.230129 -0.204271 0.905000 7746138
-0.233180 -0.201740 0.917000 7340832
-0.233943 -0.197143 0.920000 7015188
-0.234451 -0.192303 0.922000 9140522
-0.235214 -0.187643 0.925000 7942720
-0.236994 -0.183737 0.932000 7345442
-0.238266 -0.179369 0.937000 7346462
-0.239029 -0.174571 0.940000 7282977
-0.239537 -0.169560 0.942000 6430748
-0.220833 -0.267500 0.875000 10171722
-0.220329 -0.261900 0.873000 10431041
-0.219319 -0.255734 0.869000 9830948
-0.218310 -0.249614 0.865000 9241370
-0.219824 -0.246369 0.871000 8389400
-0.220329 -0.241946 0.873000 7996175
-0.220833 -0.237500 0.875000 7733776
-0.221590 -0.233297 0.878000 7472396
-0.223105 -0.229840 0.884000 4524806
-0.223862 -0.225551 0.887000 1509136
-0.224367 -0.220980 0.889000 1575435
-0.225629 -0.217114 0.894000 1182734
-0.226133 -0.212480 0.896000 1183761
-0.227395 -0.208517 0.901000 6819852
-0.228405 -0.204271 0.905000 8213333
-0.230929 -0.201300 0.915000 7355732
-0.231433 -0.196500 0.917000 6883637
-0.232190 -0.191886 0.920000 9002019
-0.233452 -0.187643 0.925000 7943735
-0.234714 -0.183343 0.930000 7213608
-0.235976 -0.178986 0.935000 7214115
-0.236481 -0.174014 0.937000 7281438
-0.237743 -0.169560 0.942000 7741218
-0.239762 -0.165571 0.950000 8995110
-0.220419 -0.269029 0.880000 10105928
-0.218165 -0.261300 0.871000 10497342
-0.217664 -0.255734 0.869000 9962270
-0.217664 -0.250769 0.869000 9437714
-0.218165 -0.246369 0.871000 8586008
-0.218666 -0.241946 0.873000 8192786
-0.218666 -0.236957 0.873000 7996177
-0.219167 -0.232500 0.875000 7734540
-0.221421 -0.229840 0.884000 4852998
-0.221421 -0.224789 0.884000 1509649
-0.222172 -0.220483 0.887000 1575438
-0.223174 -0.216386 0.891000 1248271
-0.223926 -0.212006 0.894000 1117201
-0.225679 -0.208517 0.901000 7280654
-0.226681 -0.204271 0.905000 8671823
-0.228685 -0.200860 0.913000 8684169
-0.229687 -0.196500 0.917000 7679829
-0.230438 -0.191886 0.920000 8543261
-0.230939 -0.187034 0.922000 8342062
-0.232943 -0.183343 0.930000 7081005
-0.233444 -0.178411 0.932000 7213351
-0.234696 -0.174014 0.937000 7280412
-0.235448 -0.169200 0.940000 7542823
-0.236700 -0.164700 0.945000 8664874
-0.238704 -0.160649 0.953000 9658888
-0.219240 -0.269640 0.882000 10105928
-0.216506 -0.261300 0.871000 10496062
-0.215511 -0.255146 0.867000 10092835
-0.215511 -0.250191 0.867000 9568786
-0.216506 -0.246369 0.871000 8782359
-0.216506 -0.241391 0.871000 8323856
-0.216506 -0.236414 0.871000 8192784
-0.217500 -0.232500 0.875000 7930894
-0.219240 -0.229320 0.882000 5248264
-0.219240 -0.224280 0.882000 1509393
-0.219737 -0.219737 0.884000 1640972
-0.221477 -0.216386 0.891000 1248269
-0.221477 -0.211294 0.891000 1052176
-0.223217 -0.207823 0.898000 7671055
-0.224460 -0.203820 0.903000 9127756
-0.226200 -0.200200 0.910000 9992584
-0.227443 -0.196071 0.915000 8477778
-0.227940 -0.191260 0.917000 8008494
-0.228686 -0.186629 0.920000 8745755
-0.230426 -0.182751 0.927000 6954269
-0.231669 -0.178411 0.932000 7277601
-0.232911 -0.174014 0.937000 7279133
-0.233657 -0.169200 0.940000 7411240
-0.234154 -0.164177 0.942000 8269865
-0.236143 -0.160143 0.950000 9261337
-0.236143 -0.154714 0.950000 10248502
-0.218793 -0.276237 0.887000 10102864
-0.217560 -0.269640 0.882000 10171207
-0.214353 -0.260700 0.869000 10693183
-0.213367 -0.254557 0.865000 10159143
-0.213860 -0.250191 0.867000 9700115
-0.214353 -0.245803 0.869000 8978965
-0.214847 -0.241391 0.871000 8520463
-0.215340 -0.236957 0.873000 8389391
-0.217067 -0.233829 0.880000 8127503
-0.217560 -0.229320 0.882000 5442825
-0.217067 -0.223771 0.880000 1509137
-0.218053 -0.219737 0.884000 1510153
-0.219780 -0.216386 0.891000 1444876
-0.219780 -0.211294 0.891000 1181967
-0.221507 -0.207823 0.898000 7866897
-0.222740 -0.203820 0.903000 9192777
-0.224467 -0.200200 0.910000 10188167
-0.225207 -0.195643 0.913000 8603982
-0.226193 -0.191260 0.917000 8067136
-0.226933 -0.186629 0.920000 8609031
-0.228660 -0.182751 0.927000 8412173
-0.229400 -0.178029 0.930000 7479578
-0.231127 -0.174014 0.937000 7344158
-0.231867 -0.169200 0.940000 8206121
-0.232360 -0.164177 0.942000 8470825
-0.233840 -0.159806 0.948000 8601898
-0.234333 -0.154714 0.950000 8404533
-0.217593 -0.276860 0.889000 10101326
-0.215880 -0.269640 0.882000 10236735
-0.212209 -0.260100 0.867000 10823486
-0.211719 -0.254557 0.865000 10289962
-0.211719 -0.249614 0.865000 9831189
-0.213188 -0.246369 0.871000 9175571
-0.213188 -0.241391 0.871000 8716816
-0.213677 -0.236957 0.873000 8520464
-0.215390 -0.233829 0.880000 8258321
-0.215880 -0.229320 0.882000 5705994
-0.215880 -0.224280 0.882000 1509138
-0.216370 -0.219737 0.884000 1379593
-0.218083 -0.216386 0.891000 1641740
-0.218083 -0.211294 0.891000 1247506
-0.219796 -0.207823 0.898000 8062995
-0.220530 -0.203369 0.901000 9243732
-0.222733 -0.200200 0.910000 10319745
-0.223468 -0.195643 0.913000 8797536
-0.224447 -0.191260 0.917000 8067130
-0.225181 -0.186629 0.920000 8480016
-0.226405 -0.182357 0.925000 9854493
-0.227629 -0.178029 0.930000 7744808
-0.228852 -0.173643 0.935000 7411228
-0.229342 -0.168660 0.937000 9000507
-0.230566 -0.164177 0.942000 8671287
-0.232034 -0.159806 0.948000 7879718
-0.232034 -0.154389 0.948000 6502182
-0.234482 -0.150543 0.958000 9062940
-0.235216 -0.145523 0.961000 10711106
-0.235216 -0.140031 0.961000 10782042
-0.215900 -0.276860 0.889000 10103371
-0.214686 -0.270251 0.884000 10236215
-0.210557 -0.260100 0.867000 10954813
-0.210071 -0.254557 0.865000 10225452
-0.210557 -0.250191 0.867000 9896728
-0.211529 -0.246369 0.871000 9306897
-0.211529 -0.241391 0.871000 8978961
-0.212014 -0.236957 0.873000 8717073
-0.213229 -0.233297 0.878000 8454931
-0.213714 -0.228800 0.880000 5704715
-0.214200 -0.224280 0.882000 1509140
-0.214686 -0.219737 0.884000 1248264
-0.216386 -0.216386 0.891000 1444876
-0.216386 -0.211294 0.891000 1116437
-0.218086 -0.207823 0.898000 7931156
-0.218814 -0.203369 0.901000 9318751
-0.219300 -0.198660 0.903000 9989756
-0.221000 -0.195000 0.910000 9063538
-0.222214 -0.190843 0.915000 8394292
-0.223429 -0.186629 0.920000 8870936
-0.223914 -0.181766 0.922000 9987886
-0.225129 -0.177454 0.927000 7811894
-0.226343 -0.173086 0.932000 7083034
-0.227557 -0.168660 0.937000 9067341
-0.228286 -0.163829 0.940000 8477253
-0.229500 -0.159300 0.945000 7815969
-0.230229 -0.154389 0.948000 6764311
-0.231929 -0.150071 0.955000 8528654
-0.232657 -0.145069 0.958000 8794918
-0.233386 -0.140031 0.961000 9857116
-0.233386 -0.134540 0.961000 8363623
-0.214207 -0.276860 0.889000 10101317
-0.210833 -0.267500 0.875000 10170940
-0.208424 -0.259500 0.865000 11019581
-0.208424 -0.254557 0.865000 10224940
-0.208906 -0.250191 0.867000 9962272
-0.209870 -0.246369 0.871000 9503512
-0.209870 -0.241391 0.871000 9175573
-0.210351 -0.236957 0.873000 8847887
-0.211556 -0.233297 0.878000 8651538
-0.212520 -0.229320 0.882000 5639689
-0.212520 -0.224280 0.882000 1509398
-0.213725 -0.220483 0.887000 1116939
-0.214207 -0.215900 0.889000 1182733
-0.214689 -0.211294 0.891000 1051413
-0.216375 -0.207823 0.898000 7801109
-0.217098 -0.203369 0.901000 9437539
-0.218062 -0.199100 0.905000 9660286
-0.218785 -0.194571 0.908000 9395840
-0.219990 -0.190426 0.913000 8661807
-0.220953 -0.186020 0.917000 9266968
-0.222158 -0.181766 0.922000 10050593
-0.223363 -0.177454 0.927000 7942970
-0.224086 -0.172714 0.930000 6756886
-0.225290 -0.168300 0.935000 9132608
-0.226495 -0.163829 0.940000 8274483
-0.226977 -0.158794 0.942000 7816240
-0.227700 -0.153900 0.945000 7028270
-0.229628 -0.149757 0.953000 8011304
-0.230832 -0.145069 0.958000 6895923
-0.231555 -0.140031 0.961000 8932417
-0.231555 -0.134540 0.961000 11368776
-0.231555 -0.129049 0.961000 5268792
-0.212513 -0.276860 0.889000 10169151
-0.210362 -0.269029 0.880000 10170689
-0.207254 -0.260100 0.867000 11348285
-0.206776 -0.254557 0.865000 10553387
-0.207254 -0.250191 0.867000 10093097
-0.208210 -0.246369 0.871000 9700127
-0.208210 -0.241391 0.871000 9372441
-0.209167 -0.237500 0.875000 9110285
-0.210362 -0.233829 0.880000 8848145
-0.210840 -0.229320 0.882000 5507847
-0.210840 -0.224280 0.882000 1378327
-0.212035 -0.220483 0.887000 1182734
-0.212513 -0.215900 0.889000 1248271
-0.212991 -0.211294 0.891000 985620
-0.214665 -0.207823 0.898000 7539477
-0.215382 -0.203369 0.901000 9711206
-0.215382 -0.198220 0.901000 9921152
-0.217055 -0.194571 0.908000 9458573
-0.217533 -0.189800 0.910000 8260395
-0.218729 -0.185614 0.915000 9462552
-0.219924 -0.181371 0.920000 9724948
-0.221597 -0.177454 0.927000 7942974
-0.221597 -0.172157 0.927000 6821907
-0.222792 -0.167760 0.932000 7814963
-0.223988 -0.163306 0.937000 7608098
-0.224705 -0.158457 0.940000 7352382
-0.225900 -0.153900 0.945000 6572102
-0.226617 -0.148971 0.948000 8673089
-0.228290 -0.144614 0.955000 8211521
-0.229008 -0.139594 0.958000 8400677
-0.229725 -0.134540 0.961000 9655338
-0.230203 -0.129317 0.963000 7764846
-0.210820 -0.276860 0.889000 10232639
-0.208686 -0.269029 0.880000 10236487
-0.206551 -0.261300 0.871000 11676484
-0.205129 -0.254557 0.865000 10880557
-0.205603 -0.250191 0.867000 10224680
-0.206551 -0.246369 0.871000 9896735
-0.206551 -0.241391 0.871000 9569309
-0.207500 -0.237500 0.875000 9372691
-0.208686 -0.233829 0.880000 8979219
-0.209160 -0.229320 0.882000 5378056
-0.209160 -0.224280 0.882000 1181977
-0.210346 -0.220483 0.887000 1182734
-0.210820 -0.215900 0.889000 1248527
-0.211294 -0.211294 0.891000 985873
-0.212954 -0.207823 0.898000 7211283
-0.213666 -0.203369 0.901000 9961831
-0.213666 -0.198220 0.901000 10188420
-0.215326 -0.194571 0.908000 9521807
-0.215800 -0.189800 0.910000 7874349
-0.216986 -0.185614 0.915000 9662263
-0.218171 -0.181371 0.920000 9394460
-0.218646 -0.176497 0.922000 7939393
-0.219831 -0.172157 0.927000 6887441
-0.221017 -0.167760 0.932000 6437418
-0.222203 -0.163306 0.937000 6957085
-0.222914 -0.158457 0.940000 6887464
-0.224100 -0.153900 0.945000 6113329
