# .PCD v.7 - Point Cloud Data file format
VERSION .7
FIELDS x y z rgb
SIZE 4 4 4 4
TYPE F F F I
COUNT 1 1 1 1
WIDTH 1283
HEIGHT 1
POINTS 1283
DATA ascii
-0.279334 -0.173443 0.639000 9765925
-0.279771 -0.170057 0.640000 9306643
-0.280209 -0.166660 0.641000 8782612
-0.280646 -0.163251 0.642000 8520464
-0.282394 -0.160577 0.646000 8323854
-0.283269 -0.157371 0.648000 8127504
-0.285017 -0.154617 0.652000 7996434
-0.286329 -0.151586 0.655000 7734540
-0.287203 -0.148294 0.657000 4393987
-0.287640 -0.144760 0.658000 985615
-0.290700 -0.142500 0.665000 985611
-0.291574 -0.139117 0.667000 919818
-0.291137 -0.135103 0.666000 985606
-0.291574 -0.131494 0.667000 985098
-0.292886 -0.128257 0.670000 919813
-0.293760 -0.124800 0.672000 919818
-0.294634 -0.121320 0.674000 985104
-0.295509 -0.117817 0.676000 1051151
-0.296820 -0.114460 0.679000 1115914
-0.298131 -0.111069 0.682000 1117190
-0.299006 -0.107486 0.684000 1117191
-0.299880 -0.103880 0.686000 1182475
-0.301629 -0.100543 0.690000 1444874
-0.302066 -0.096740 0.691000 1509900
-0.302066 -0.092791 0.691000 1378828
-0.303377 -0.089229 0.694000 1377820
-0.288128 -0.202383 0.662000 9438501
-0.287692 -0.198300 0.661000 9510456
-0.285081 -0.192757 0.655000 9640500
-0.283775 -0.188149 0.652000 9640500
-0.281599 -0.183009 0.647000 9966894
-0.278988 -0.177649 0.641000 10818612
-0.278552 -0.173714 0.640000 9765414
-0.278988 -0.170323 0.641000 9372182
-0.279423 -0.166920 0.642000 8847895
-0.281164 -0.164269 0.646000 8586002
-0.281599 -0.160826 0.647000 8389136
-0.282034 -0.157371 0.648000 8193044
-0.283775 -0.154617 0.652000 8192791
-0.285081 -0.151586 0.655000 7996686
-0.285951 -0.148294 0.657000 4397059
-0.287257 -0.145200 0.660000 1116433
-0.288563 -0.142071 0.663000 985868
-0.289869 -0.138909 0.666000 985611
-0.289869 -0.135103 0.666000 1050887
-0.291174 -0.131889 0.669000 985100
-0.291610 -0.128257 0.670000 985609
-0.292480 -0.124800 0.672000 919819
-0.294221 -0.121680 0.676000 919822
-0.295091 -0.118166 0.678000 985613
-0.295527 -0.114460 0.679000 1378059
-0.297268 -0.111231 0.683000 1116937
-0.298573 -0.107800 0.686000 1051658
-0.298573 -0.103880 0.686000 1116684
-0.300314 -0.100543 0.690000 1182985
-0.300750 -0.096740 0.691000 1313805
-0.300750 -0.092791 0.691000 1379341
-0.302055 -0.089229 0.694000 1772051
-0.304667 -0.086000 0.700000 854281
-0.286867 -0.202383 0.662000 9507378
-0.286433 -0.198300 0.661000 9575991
-0.284267 -0.193051 0.656000 9706547
-0.282533 -0.188149 0.652000 9705265
-0.280367 -0.183009 0.647000 10096940
-0.278200 -0.177926 0.642000 10754615
-0.277767 -0.173986 0.641000 9831462
-0.277767 -0.170323 0.641000 9503258
-0.279067 -0.167440 0.644000 8913434
-0.279933 -0.164269 0.646000 8651541
-0.280800 -0.161074 0.648000 8389393
-0.281667 -0.157857 0.650000 8193049
-0.282967 -0.154854 0.653000 8127516
-0.284267 -0.151817 0.656000 8128273
-0.284700 -0.148294 0.657000 4132098
-0.286000 -0.145200 0.660000 1182227
-0.287300 -0.142071 0.663000 1051405
-0.288600 -0.138909 0.666000 1051149
-0.288600 -0.135103 0.666000 1116936
-0.289900 -0.131889 0.669000 1050639
-0.290333 -0.128257 0.670000 1116428
-0.290767 -0.124614 0.671000 1050892
-0.292500 -0.121500 0.675000 920076
-0.293800 -0.118166 0.678000 985355
-0.294233 -0.114460 0.679000 1181707
-0.295533 -0.111069 0.682000 1116429
-0.297267 -0.107800 0.686000 1051404
-0.297700 -0.104031 0.687000 1116684
-0.298567 -0.100397 0.689000 1182727
-0.299433 -0.096740 0.691000 1248270
-0.300300 -0.093060 0.693000 1248270
-0.300733 -0.089229 0.694000 1706506
-0.303767 -0.086123 0.701000 1247503
-0.304633 -0.082351 0.703000 1507853
-0.285606 -0.202383 0.662000 9569091
-0.284743 -0.198000 0.660000 9641270
-0.282586 -0.192757 0.655000 9706544
-0.281291 -0.188149 0.652000 9704491
-0.279134 -0.183009 0.647000 10293292
-0.276977 -0.177926 0.642000 10621753
-0.276977 -0.174257 0.642000 9962277
-0.277840 -0.171120 0.644000 9568791
-0.277840 -0.167440 0.644000 8978967
-0.279566 -0.164777 0.648000 8651542
-0.279566 -0.161074 0.648000 8454929
-0.280429 -0.157857 0.650000 8192789
-0.283017 -0.155566 0.656000 8127768
-0.283449 -0.152049 0.657000 8193808
-0.283449 -0.148294 0.657000 3868427
-0.285174 -0.145420 0.661000 1248019
-0.286037 -0.142071 0.663000 1117198
-0.287331 -0.138909 0.666000 1116941
-0.287331 -0.135103 0.666000 1117195
-0.287763 -0.131494 0.667000 1116431
-0.288626 -0.128066 0.669000 1247497
-0.289920 -0.124800 0.672000 1116684
-0.291214 -0.121500 0.675000 985869
-0.292509 -0.118166 0.678000 985611
-0.292940 -0.114460 0.679000 1050895
-0.294234 -0.111069 0.682000 1116941
-0.295960 -0.107800 0.686000 1051405
-0.296391 -0.104031 0.687000 1116942
-0.297254 -0.100397 0.689000 1117194
-0.298117 -0.096740 0.691000 1116940
-0.298980 -0.093060 0.693000 1117198
-0.299843 -0.089357 0.695000 1575692
-0.302000 -0.086000 0.700000 1640719
-0.303294 -0.082351 0.703000 1575180
-0.303726 -0.078446 0.704000 1051403
-0.282627 -0.197400 0.658000 9641013
-0.281768 -0.193051 0.656000 9640493
-0.280479 -0.188437 0.653000 9834789
-0.277472 -0.182726 0.646000 10490156
-0.275754 -0.177926 0.642000 10621756
-0.275754 -0.174257 0.642000 9962532
-0.277043 -0.171386 0.645000 9634581
-0.277472 -0.167960 0.646000 9110292
-0.279190 -0.165286 0.650000 8782615
-0.279190 -0.161571 0.650000 8520465
-0.280050 -0.158343 0.652000 8323857
-0.281768 -0.155566 0.656000 8193300
-0.282197 -0.152049 0.657000 8194576
-0.282627 -0.148520 0.658000 3409940
-0.284345 -0.145640 0.662000 1313555
-0.284774 -0.142071 0.663000 1182734
-0.286063 -0.138909 0.666000 1116941
-0.286063 -0.135103 0.666000 1116941
-0.286492 -0.131494 0.667000 1116687
-0.287351 -0.128066 0.669000 1182214
-0.288640 -0.124800 0.672000 1116941
-0.290358 -0.121680 0.676000 1051405
-0.291217 -0.118166 0.678000 1051147
-0.291647 -0.114460 0.679000 1051154
-0.293365 -0.111231 0.683000 1182478
-0.294653 -0.107800 0.686000 1182478
-0.295083 -0.104031 0.687000 1116944
-0.295942 -0.100397 0.689000 1182733
-0.296801 -0.096740 0.691000 1116939
-0.297660 -0.093060 0.693000 1182478
-0.298090 -0.089229 0.694000 1444110
-0.300667 -0.086000 0.700000 1575439
-0.301955 -0.082351 0.703000 1510411
-0.302385 -0.078446 0.704000 1314065
-0.302814 -0.074529 0.705000 2360076
-0.281373 -0.197400 0.658000 9640244
-0.280518 -0.193051 0.656000 9639981
-0.278808 -0.188149 0.652000 9966121
-0.276242 -0.182726 0.646000 10753582
-0.274531 -0.177926 0.642000 10554415
-0.275387 -0.174800 0.644000 10028064
-0.276242 -0.171651 0.646000 9699858
-0.276670 -0.168220 0.647000 9175828
-0.277097 -0.164777 0.648000 8848407
-0.277952 -0.161571 0.650000 8586004
-0.279235 -0.158586 0.653000 8454931
-0.280518 -0.155566 0.656000 8259089
-0.280946 -0.152049 0.657000 8128783
-0.282229 -0.148971 0.660000 2884635
-0.283084 -0.145640 0.662000 1313812
-0.283511 -0.142071 0.663000 1314063
-0.284794 -0.138909 0.666000 1116944
-0.285222 -0.135306 0.667000 1116944
-0.286077 -0.131889 0.669000 1116945
-0.286932 -0.128449 0.671000 1182218
-0.288215 -0.125171 0.674000 1116940
-0.289070 -0.121680 0.676000 1116941
-0.289926 -0.118166 0.678000 1116432
-0.290353 -0.114460 0.679000 1051154
-0.292064 -0.111231 0.683000 1182737
-0.293774 -0.107957 0.687000 1248274
-0.294630 -0.104334 0.689000 1116943
-0.294630 -0.100397 0.689000 1248270
-0.295485 -0.096740 0.691000 1116686
-0.296340 -0.093060 0.693000 1182478
-0.296768 -0.089229 0.694000 1248016
-0.299333 -0.086000 0.700000 1445135
-0.300616 -0.082351 0.703000 1379596
-0.301471 -0.078557 0.705000 1576976
-0.302754 -0.074846 0.708000 2034189
-0.278843 -0.196500 0.655000 9443635
-0.277991 -0.192169 0.653000 9770028
-0.277566 -0.188149 0.652000 10162477
-0.275863 -0.183291 0.648000 10687279
-0.274160 -0.178480 0.644000 10421538
-0.274160 -0.174800 0.644000 10028060
-0.275437 -0.171917 0.647000 9699600
-0.276714 -0.169000 0.650000 9437972
-0.277140 -0.165540 0.651000 9045016
-0.277566 -0.162069 0.652000 8782871
-0.277991 -0.158586 0.653000 8651540
-0.279694 -0.155803 0.657000 8389901
-0.280120 -0.152280 0.658000 8129551
-0.280971 -0.148971 0.660000 2492193
-0.281823 -0.145640 0.662000 1313814
-0.282249 -0.142071 0.663000 1248527
-0.283100 -0.138700 0.665000 1116691
-0.284803 -0.135711 0.669000 1116691
-0.285229 -0.132086 0.670000 1116947
-0.286080 -0.128640 0.672000 1182478
-0.286931 -0.125171 0.674000 1116683
-0.288634 -0.122040 0.678000 1116685
-0.288634 -0.118166 0.678000 1182229
-0.289486 -0.114629 0.680000 1116690
-0.291189 -0.111394 0.684000 1444884
-0.293317 -0.108271 0.689000 1313813
-0.293317 -0.104334 0.689000 1379087
-0.293317 -0.100397 0.689000 1314063
-0.294169 -0.096740 0.691000 1247761
-0.295020 -0.093060 0.693000 1248270
-0.295871 -0.089357 0.695000 1248274
-0.298000 -0.086000 0.700000 1575950
-0.299703 -0.082469 0.704000 1379853
-0.300980 -0.078780 0.707000 1445647
-0.301406 -0.074846 0.708000 1707534
-0.302683 -0.071100 0.711000 1510166
-0.303534 -0.067226 0.713000 2163477
-0.277595 -0.196500 0.655000 9178936
-0.276748 -0.192169 0.653000 9900080
-0.276324 -0.188149 0.652000 10358318
-0.275476 -0.183857 0.650000 10621228
-0.272933 -0.178480 0.644000 10225183
-0.273357 -0.175071 0.645000 10027802
-0.274205 -0.171917 0.647000 9635097
-0.275476 -0.169000 0.650000 9634585
-0.275900 -0.165540 0.651000 9242138
-0.276324 -0.162069 0.652000 9045270
-0.278019 -0.159314 0.656000 8848404
-0.278867 -0.156040 0.658000 8520720
-0.280138 -0.152974 0.661000 8129296
-0.280986 -0.149649 0.663000 2165028
-0.280986 -0.145860 0.663000 1313815
-0.280986 -0.142071 0.663000 1248530
-0.281833 -0.138700 0.665000 1116695
-0.283529 -0.135711 0.669000 1116435
-0.284376 -0.132283 0.671000 1116691
-0.284800 -0.128640 0.672000 1248273
-0.285648 -0.125171 0.674000 1116944
-0.287343 -0.122040 0.678000 1116689
-0.287343 -0.118166 0.678000 1248023
-0.288190 -0.114629 0.680000 1182228
-0.289886 -0.111394 0.684000 1707541
-0.291157 -0.107957 0.687000 1379351
-0.292005 -0.104334 0.689000 1641745
-0.292005 -0.100397 0.689000 1379857
-0.293700 -0.097020 0.693000 1313812
-0.294124 -0.093194 0.694000 1313809
-0.294548 -0.089357 0.695000 1248533
-0.296667 -0.086000 0.700000 1642003
-0.298786 -0.082586 0.705000 1314576
-0.299633 -0.078780 0.707000 1314321
-0.299633 -0.074740 0.707000 1380109
-0.300905 -0.071000 0.710000 1838099
-0.302176 -0.067226 0.713000 2230546
-0.277191 -0.197100 0.657000 9767230
-0.275504 -0.192169 0.653000 10096436
-0.275082 -0.188149 0.652000 10750511
-0.274238 -0.183857 0.650000 10620713
-0.272129 -0.178757 0.645000 10224668
-0.272129 -0.175071 0.645000 10093592
-0.273394 -0.172183 0.648000 9701410
-0.275082 -0.169520 0.652000 9635102
-0.275082 -0.165794 0.652000 9373981
-0.276348 -0.162814 0.655000 9176596
-0.276770 -0.159314 0.656000 9045268
-0.278457 -0.156514 0.660000 8783122
-0.279301 -0.153206 0.662000 7736337
-0.279723 -0.149649 0.663000 1838119
-0.280567 -0.146300 0.665000 1379352
-0.279723 -0.142071 0.663000 1313813
-0.280989 -0.138909 0.666000 1248026
-0.283098 -0.136117 0.671000 1313555
-0.283520 -0.132480 0.672000 1247763
-0.284364 -0.129023 0.674000 1379348
-0.286051 -0.125914 0.678000 1248021
-0.286051 -0.122040 0.678000 1313813
-0.286473 -0.118340 0.679000 1510425
-0.288161 -0.115134 0.683000 1445141
-0.289427 -0.111720 0.686000 1839382
-0.290692 -0.108271 0.689000 1642265
-0.291114 -0.104486 0.690000 1838611
-0.291114 -0.100543 0.690000 1707795
-0.292802 -0.097160 0.694000 1576472
-0.293224 -0.093329 0.695000 1642260
-0.294068 -0.089614 0.697000 1641752
-0.294490 -0.085754 0.698000 1707799
-0.297443 -0.082586 0.705000 1511699
-0.298287 -0.078780 0.707000 1511699
-0.298709 -0.074846 0.708000 1577228
-0.299974 -0.071100 0.711000 1707280
-0.300818 -0.067226 0.713000 1968400
-0.274260 -0.192169 0.653000 10357813
-0.273840 -0.188149 0.652000 11144499
-0.273000 -0.183857 0.650000 10553899
-0.271320 -0.179034 0.646000 10159136
-0.271320 -0.175343 0.646000 10158876
-0.273840 -0.173246 0.652000 9766686
-0.274260 -0.169780 0.653000 9569820
-0.275100 -0.166557 0.655000 9439008
-0.275100 -0.162814 0.655000 9307672
-0.275940 -0.159557 0.657000 9176855
-0.277200 -0.156514 0.660000 9045282
-0.278040 -0.153206 0.662000 7341847
-0.279300 -0.150100 0.665000 1577253
-0.279720 -0.146520 0.666000 1380376
-0.279300 -0.142500 0.665000 1379609
-0.280140 -0.139117 0.667000 1379613
-0.282240 -0.136320 0.672000 1510678
-0.282240 -0.132480 0.672000 1379607
-0.283080 -0.129023 0.674000 1510683
-0.284760 -0.125914 0.678000 1380117
-0.285180 -0.122220 0.679000 1510936
-0.285180 -0.118340 0.679000 1707549
-0.286860 -0.115134 0.683000 1708574
-0.288120 -0.111720 0.686000 1970719
-0.289380 -0.108271 0.689000 1905699
-0.289800 -0.104486 0.690000 1970465
-0.290220 -0.100689 0.691000 2036000
-0.293160 -0.097720 0.698000 1839393
-0.293160 -0.093731 0.698000 1970465
-0.294000 -0.090000 0.700000 1970210
-0.294000 -0.086000 0.700000 1839135
-0.296940 -0.082820 0.707000 1708571
-0.297360 -0.078891 0.708000 1709078
-0.298200 -0.075057 0.710000 1708306
-0.298620 -0.071100 0.711000 1642517
-0.299880 -0.067320 0.714000 1642258
-0.303240 -0.063949 0.722000 1971214
-0.273016 -0.192169 0.653000 10554677
-0.272598 -0.188149 0.652000 10882359
-0.272180 -0.184140 0.651000 10553900
-0.270508 -0.179311 0.647000 10290211
-0.270090 -0.175343 0.646000 10094111
-0.274689 -0.174574 0.657000 9832218
-0.273852 -0.170300 0.655000 9635610
-0.273852 -0.166557 0.655000 9439011
-0.274270 -0.163063 0.656000 9438492
-0.274689 -0.159557 0.657000 9373466
-0.276361 -0.156751 0.661000 9242930
-0.276779 -0.153206 0.662000 6227228
-0.278033 -0.150100 0.665000 1774626
-0.278451 -0.146520 0.666000 1709080
-0.278451 -0.142714 0.666000 1708316
-0.280124 -0.139743 0.670000 1707808
-0.280960 -0.136320 0.672000 1774105
-0.281796 -0.132874 0.674000 1773850
-0.282214 -0.129214 0.675000 1839394
-0.283469 -0.125914 0.678000 1839894
-0.283887 -0.122220 0.679000 1839386
-0.283887 -0.118340 0.679000 1642785
-0.285559 -0.115134 0.683000 1642534
-0.286813 -0.111720 0.686000 1709351
-0.287231 -0.107957 0.687000 1707564
-0.288486 -0.104486 0.690000 1773614
-0.288904 -0.100689 0.691000 1838124
-0.293085 -0.098140 0.701000 1576746
-0.294339 -0.094537 0.704000 1641262
-0.293085 -0.090129 0.701000 1773868
-0.293085 -0.086123 0.701000 1577511
-0.295593 -0.082820 0.707000 1709347
-0.296011 -0.078891 0.708000 2036761
-0.296848 -0.075057 0.710000 1905177
-0.298102 -0.071300 0.713000 1708314
-0.298520 -0.067320 0.714000 1708565
-0.301865 -0.063949 0.722000 1839879
-0.302283 -0.059906 0.723000 2035733
-0.271356 -0.191874 0.652000 10686797
-0.271356 -0.188149 0.652000 10555196
-0.270940 -0.184140 0.651000 10488371
-0.269691 -0.179589 0.648000 10356781
-0.268859 -0.175343 0.646000 10029605
-0.273853 -0.174840 0.658000 9832217
-0.273437 -0.170820 0.657000 9700886
-0.273437 -0.167066 0.657000 9438751
-0.273437 -0.163311 0.657000 9503773
-0.273853 -0.159800 0.658000 9504285
-0.275518 -0.156989 0.662000 9439525
-0.275518 -0.153206 0.662000 5049371
-0.276767 -0.150100 0.665000 1972515
-0.277183 -0.146520 0.666000 2037276
-0.277599 -0.142929 0.667000 2037023
-0.278848 -0.139743 0.670000 1971234
-0.280512 -0.136726 0.674000 2103326
-0.280512 -0.132874 0.674000 2102815
-0.280929 -0.129214 0.675000 2168357
-0.282177 -0.125914 0.678000 2233889
-0.282593 -0.122220 0.679000 2168103
-0.283842 -0.118863 0.682000 1512230
-0.284674 -0.115303 0.684000 1641263
-0.285923 -0.111883 0.687000 1380902
-0.285923 -0.107957 0.687000 1442589
-0.288420 -0.104940 0.693000 1576750
-0.289252 -0.101271 0.695000 1573420
-0.291750 -0.098140 0.701000 1314346
-0.292998 -0.094537 0.704000 1311276
-0.293414 -0.090643 0.705000 1511717
-0.293414 -0.086614 0.705000 1380639
-0.294247 -0.082820 0.707000 1708826
-0.294663 -0.078891 0.708000 2430483
-0.295495 -0.075057 0.710000 2101796
-0.296744 -0.071300 0.713000 1839901
-0.298409 -0.067603 0.717000 1774359
-0.300490 -0.063949 0.722000 1708814
-0.300490 -0.059823 0.722000 1708052
-0.270114 -0.191874 0.652000 10898788
-0.270114 -0.188149 0.652000 10490432
-0.269700 -0.184140 0.651000 10488121
-0.268457 -0.179589 0.648000 10357303
-0.272600 -0.178600 0.658000 9965610
-0.272600 -0.174840 0.658000 9832984
-0.273429 -0.171600 0.660000 9635601
-0.273843 -0.168083 0.661000 9504283
-0.272186 -0.163311 0.657000 9504542
-0.273843 -0.160529 0.661000 9438496
-0.274257 -0.156989 0.662000 8916760
-0.274671 -0.153437 0.663000 3082266
-0.275500 -0.150100 0.665000 2234147
-0.276329 -0.146740 0.667000 2103071
-0.277157 -0.143357 0.669000 2103074
-0.279229 -0.140577 0.674000 2299683
-0.279229 -0.136726 0.674000 2169123
-0.279229 -0.132874 0.674000 2365987
-0.279643 -0.129214 0.675000 2299943
-0.281300 -0.126100 0.679000 2102573
-0.281714 -0.122400 0.680000 3018292
-0.282957 -0.119037 0.683000 3870508
-0.284200 -0.115640 0.686000 4459832
-0.284200 -0.111720 0.686000 4661798
-0.285443 -0.108271 0.689000 4789518
-0.287514 -0.105091 0.694000 5252909
-0.289171 -0.101709 0.698000 5184043
-0.291243 -0.098420 0.703000 5252139
-0.292071 -0.094671 0.705000 5120298
-0.292071 -0.090643 0.705000 4792862
-0.292900 -0.086860 0.707000 4001046
-0.294143 -0.083171 0.710000 3411729
-0.294143 -0.079114 0.710000 2166284
-0.294557 -0.075163 0.711000 1511983
-0.295386 -0.071300 0.713000 2167840
-0.297871 -0.067791 0.719000 1905690
-0.299529 -0.064037 0.723000 1839893
-0.299529 -0.059906 0.723000 1708307
-0.300357 -0.055929 0.725000 2035989
-0.268872 -0.188149 0.652000 10438244
-0.271347 -0.178600 0.658000 9901352
-0.271347 -0.174840 0.658000 9767711
-0.272171 -0.171600 0.660000 9635866
-0.272996 -0.168337 0.662000 9504541
-0.272584 -0.164306 0.661000 9505051
-0.272996 -0.160771 0.662000 9373473
-0.273409 -0.157226 0.663000 8394253
-0.273409 -0.153437 0.663000 1117726
-0.274646 -0.150326 0.666000 2561826
-0.275058 -0.146740 0.667000 2103070
-0.275883 -0.143357 0.669000 2234403
-0.277945 -0.140577 0.674000 2561571
-0.277945 -0.136726 0.674000 2234916
-0.278357 -0.133071 0.675000 2562856
-0.278357 -0.129214 0.675000 2431519
-0.280007 -0.126100 0.679000 1970214
-0.280419 -0.122400 0.680000 3867697
-0.281656 -0.119037 0.683000 6165298
-0.282893 -0.115640 0.686000 7277877
-0.284130 -0.112209 0.689000 7934251
-0.284955 -0.108586 0.691000 8194605
-0.286605 -0.105243 0.695000 8854583
-0.288667 -0.102000 0.700000 8855088
-0.289904 -0.098420 0.703000 9117495
-0.290729 -0.094671 0.705000 8857902
-0.290729 -0.090643 0.705000 8068651
-0.291553 -0.086860 0.707000 6685742
-0.293203 -0.083289 0.711000 5052204
-0.292790 -0.079114 0.710000 1966893
-0.294028 -0.075374 0.713000 920099
-0.294440 -0.071400 0.714000 2495509
-0.296502 -0.067791 0.719000 1971492
-0.298151 -0.064037 0.723000 1970712
-0.298976 -0.060071 0.725000 1708822
-0.298976 -0.055929 0.725000 1905173
-0.270093 -0.178600 0.658000 9770021
-0.270914 -0.175371 0.660000 9767461
-0.270914 -0.171600 0.660000 9637410
-0.271735 -0.168337 0.662000 9569823
-0.272146 -0.164803 0.663000 9439768
-0.271735 -0.160771 0.662000 9373475
-0.272967 -0.157700 0.665000 6819586
-0.272146 -0.153437 0.663000 1840418
-0.273788 -0.150551 0.667000 2299169
-0.274609 -0.147180 0.669000 2168605
-0.275840 -0.144000 0.672000 2299939
-0.276661 -0.140577 0.674000 2561315
-0.277071 -0.136929 0.675000 2496804
-0.277071 -0.133071 0.675000 2431788
-0.278713 -0.129980 0.679000 3083798
-0.279124 -0.126286 0.680000 5315616
-0.280355 -0.122940 0.683000 6757934
-0.280766 -0.119211 0.684000 8007223
-0.281587 -0.115640 0.686000 8528689
-0.284460 -0.112860 0.693000 8978737
-0.284870 -0.109057 0.694000 9715788
-0.286102 -0.105546 0.697000 8984641
-0.287744 -0.102146 0.701000 9116212
-0.288975 -0.098560 0.704000 9246275
-0.289386 -0.094671 0.705000 9383474
-0.289386 -0.090643 0.705000 9387063
-0.290617 -0.086983 0.708000 8531013
-0.292670 -0.083523 0.713000 7816263
-0.293080 -0.079560 0.714000 5713486
-0.293901 -0.075691 0.716000 3736855
-0.293901 -0.071600 0.716000 1510665
-0.295543 -0.067886 0.720000 1644078
-0.296774 -0.064037 0.723000 2037018
-0.297595 -0.060071 0.725000 1840409
-0.298006 -0.056006 0.726000 1839637
-0.302110 -0.052571 0.736000 2298645
-0.269657 -0.175371 0.660000 9702963
-0.269657 -0.171600 0.660000 9704736
-0.270474 -0.168337 0.662000 9571106
-0.270883 -0.164803 0.663000 9439775
-0.271700 -0.161500 0.665000 9310494
-0.272109 -0.157937 0.666000 5312785
-0.270883 -0.153437 0.663000 2560291
-0.273743 -0.151229 0.670000 2037025
-0.273743 -0.147400 0.670000 2168349
-0.274151 -0.143786 0.671000 2431270
-0.275786 -0.140786 0.675000 2561569
-0.276194 -0.137131 0.676000 2692902
-0.275786 -0.133071 0.675000 2232356
-0.277420 -0.129980 0.679000 3670326
-0.281506 -0.127957 0.689000 8589862
-0.280280 -0.123480 0.686000 9707823
-0.280280 -0.119560 0.686000 9773880
-0.281914 -0.116314 0.690000 9840440
-0.283549 -0.113023 0.694000 9976375
-0.283957 -0.109214 0.695000 11305575
-0.284774 -0.105546 0.697000 9052229
-0.286409 -0.102146 0.701000 9377849
-0.287634 -0.098560 0.704000 9377851
-0.288043 -0.094671 0.705000 9906738
-0.288860 -0.090900 0.707000 10630455
-0.290494 -0.087351 0.711000 10368830
-0.292537 -0.083874 0.716000 10500932
-0.292946 -0.079894 0.717000 9455170
-0.292537 -0.075691 0.716000 6570549
-0.292946 -0.071700 0.717000 524862
-0.294989 -0.068074 0.722000 1248806
-0.295397 -0.064037 0.723000 2168616
-0.295397 -0.059906 0.723000 1971231
-0.296623 -0.056006 0.726000 1774358
-0.300709 -0.052571 0.736000 2167832
-0.268400 -0.175371 0.660000 9902914
-0.269213 -0.172120 0.662000 9572382
-0.269620 -0.168591 0.663000 9571366
-0.270433 -0.165300 0.665000 9507109
-0.270840 -0.161743 0.666000 8788761
-0.270840 -0.157937 0.666000 3870239
-0.270840 -0.154131 0.666000 2560292
-0.272467 -0.151229 0.670000 2233632
-0.272467 -0.147400 0.670000 2299165
-0.273280 -0.144000 0.672000 2234408
-0.274500 -0.140786 0.675000 2561311
-0.274907 -0.137131 0.676000 2297640
-0.280193 -0.131894 0.689000 7023446
-0.280193 -0.127957 0.689000 9179693
-0.279380 -0.123660 0.687000 9573167
-0.279380 -0.119734 0.687000 9639225
-0.280600 -0.116314 0.690000 9507646
-0.282227 -0.113023 0.694000 11234365
-0.282633 -0.109214 0.695000 11837313
-0.283447 -0.105546 0.697000 8980808
-0.285073 -0.102146 0.701000 9443133
-0.286293 -0.098560 0.704000 9442612
-0.286700 -0.094671 0.705000 9772850
-0.287513 -0.090900 0.707000 10235703
-0.289953 -0.087597 0.713000 10170423
-0.291173 -0.083874 0.716000 10497857
-0.291580 -0.079894 0.717000 10308405
-0.292393 -0.076009 0.719000 10060883
-0.292393 -0.071900 0.719000 5854835
-0.293613 -0.068074 0.722000 2360607
-0.294833 -0.064214 0.725000 1773622
-0.294020 -0.059906 0.723000 2102566
-0.295240 -0.056006 0.726000 1905686
-0.298493 -0.052429 0.734000 1971227
-0.267952 -0.172120 0.662000 9507138
-0.269167 -0.169100 0.665000 9573941
-0.269167 -0.165300 0.665000 9509683
-0.271595 -0.162957 0.671000 8198180
-0.272810 -0.159834 0.674000 2363174
-0.269571 -0.154131 0.666000 2561063
-0.273619 -0.152583 0.676000 2429729
-0.272000 -0.147840 0.672000 2364958
-0.272000 -0.144000 0.672000 2037285
-0.274429 -0.141411 0.678000 2561311
-0.273619 -0.137131 0.676000 1967145
-0.278881 -0.131894 0.689000 10383991
-0.279286 -0.128143 0.690000 9777251
-0.278071 -0.123660 0.687000 9374792
-0.278881 -0.120083 0.689000 9507900
-0.280500 -0.116820 0.693000 9178426
-0.280905 -0.113023 0.694000 12419904
-0.281310 -0.109214 0.695000 12425802
-0.282119 -0.105546 0.697000 8917574
-0.284548 -0.102437 0.703000 9508414
-0.284952 -0.098560 0.704000 9507894
-0.285357 -0.094671 0.705000 9640500
-0.286167 -0.090900 0.707000 9840183
-0.287786 -0.087351 0.711000 9972795
-0.289810 -0.083874 0.716000 10435138
-0.290214 -0.079894 0.717000 11227964
-0.291429 -0.076114 0.720000 13473872
-0.291429 -0.072000 0.720000 11183977
-0.293452 -0.068357 0.725000 3489610
-0.294667 -0.064480 0.728000 1377569
-0.292643 -0.059906 0.723000 2234149
-0.296286 -0.056469 0.732000 2102812
-0.297095 -0.052429 0.734000 1709085
-0.298310 -0.048431 0.737000 2429722
-0.267900 -0.169100 0.665000 9843012
-0.267900 -0.165300 0.665000 8264768
-0.270317 -0.162957 0.671000 5378607
-0.271929 -0.160071 0.675000 2824237
-0.273137 -0.156909 0.678000 2758699
-0.272331 -0.152583 0.676000 2496034
-0.271526 -0.148280 0.674000 2497055
-0.272331 -0.144857 0.676000 2233890
-0.273137 -0.141411 0.678000 1905184
-0.273137 -0.137537 0.678000 4394793
-0.277569 -0.131894 0.689000 11106455
-0.277971 -0.128143 0.690000 10968473
-0.277569 -0.124020 0.689000 10103905
-0.278374 -0.120431 0.691000 9638463
-0.279583 -0.116989 0.694000 10102838
-0.279986 -0.113186 0.695000 12428355
-0.280791 -0.109529 0.697000 11498515
-0.281194 -0.105697 0.698000 9179460
-0.283611 -0.102583 0.704000 9508158
-0.284014 -0.098700 0.705000 9572920
-0.284014 -0.094671 0.705000 9573686
-0.285223 -0.091029 0.708000 9511224
-0.287237 -0.087597 0.713000 9972030
-0.288446 -0.083874 0.716000 10574147
-0.288849 -0.079894 0.717000 11957571
-0.289654 -0.076009 0.719000 13279310
-0.290863 -0.072200 0.722000 12562015
-0.292071 -0.068357 0.725000 8359540
-0.293280 -0.064480 0.728000 2827532
-0.294489 -0.060569 0.731000 1710628
-0.294891 -0.056469 0.732000 2168865
-0.295697 -0.052429 0.734000 1905952
-0.297711 -0.048563 0.739000 2233113
-0.298920 -0.044520 0.742000 2824729
-0.302143 -0.040714 0.750000 2824212
-0.269039 -0.162957 0.671000 2562870
-0.270643 -0.160071 0.675000 3218993
-0.271846 -0.156909 0.678000 2890538
-0.272247 -0.153260 0.679000 2628131
-0.273450 -0.150040 0.682000 2562080
-0.272247 -0.145500 0.679000 2495778
-0.271846 -0.141411 0.678000 1183011
-0.276256 -0.131894 0.689000 11894181
-0.276657 -0.128143 0.690000 12161465
-0.277058 -0.124380 0.691000 10837899
-0.277860 -0.120780 0.693000 9772635
-0.278662 -0.117157 0.695000 10956102
-0.279464 -0.113511 0.697000 12361542
-0.279464 -0.109529 0.697000 10576927
-0.279865 -0.105697 0.698000 9375546
-0.282671 -0.102729 0.705000 9507643
-0.282671 -0.098700 0.705000 9573169
-0.283473 -0.094940 0.707000 9573943
-0.285077 -0.091414 0.711000 9182769
-0.286280 -0.087720 0.714000 9972022
-0.287483 -0.083991 0.717000 10635322
-0.288686 -0.080229 0.720000 12746044
-0.289488 -0.076326 0.722000 13015889
-0.290690 -0.072500 0.725000 14002782
-0.291091 -0.068451 0.726000 13149808
-0.292294 -0.064569 0.729000 4279884
-0.293096 -0.060569 0.731000 1118500
-0.293497 -0.056469 0.732000 2234662
-0.294299 -0.052429 0.734000 2037280
-0.296304 -0.048563 0.739000 2101276
-0.298710 -0.044700 0.745000 2824217
-0.299912 -0.040606 0.748000 2955799
-0.267761 -0.162957 0.671000 3089213
-0.269357 -0.160071 0.675000 3613493
-0.270554 -0.156909 0.678000 3153705
-0.270554 -0.153034 0.678000 2956323
-0.271352 -0.149600 0.680000 2758690
-0.271352 -0.145714 0.680000 2297890
-0.270554 -0.141411 0.678000 3869734
-0.276540 -0.136620 0.693000 10184268
-0.275343 -0.132086 0.690000 12094899
-0.275742 -0.128329 0.691000 12107481
-0.276540 -0.124740 0.693000 11108021
-0.276939 -0.120954 0.694000 9573751
-0.277338 -0.117157 0.695000 11030870
-0.278136 -0.113511 0.697000 12426057
-0.278535 -0.109686 0.698000 9842218
-0.280530 -0.106454 0.703000 9243953
-0.282127 -0.103020 0.707000 9507896
-0.282127 -0.098980 0.707000 9572650
-0.283324 -0.095343 0.710000 9507128
-0.284920 -0.091800 0.714000 9378347
-0.285718 -0.087966 0.716000 9904429
-0.286915 -0.084226 0.719000 10694961
-0.288112 -0.080451 0.722000 12151604
-0.288511 -0.076431 0.723000 12949077
-0.290507 -0.072800 0.728000 13739101
-0.290906 -0.068734 0.729000 13611372
-0.290906 -0.064569 0.729000 8686731
-0.292103 -0.060651 0.732000 1903652
-0.292103 -0.056469 0.732000 1906986
-0.293699 -0.052571 0.736000 2168097
-0.296093 -0.048760 0.742000 2102046
-0.298089 -0.044820 0.747000 2693402
-0.298488 -0.040606 0.748000 2890009
-0.268071 -0.160071 0.675000 3942452
-0.269263 -0.156909 0.678000 3351600
-0.269263 -0.153034 0.678000 3284775
-0.270057 -0.149600 0.680000 2890278
-0.270057 -0.145714 0.680000 2100266
-0.269660 -0.141620 0.679000 6557728
-0.275220 -0.136620 0.693000 10512501
-0.274029 -0.132086 0.690000 12298163
-0.275220 -0.128700 0.693000 12031162
-0.275220 -0.124740 0.693000 11361956
-0.275617 -0.120954 0.694000 9379172
-0.276014 -0.117157 0.695000 11037258
-0.277206 -0.113674 0.698000 12422454
-0.277206 -0.109686 0.698000 9175344
-0.279986 -0.106757 0.705000 9117994
-0.281177 -0.103166 0.708000 9507382
-0.281971 -0.099400 0.710000 9507632
-0.283163 -0.095746 0.713000 9374255
-0.284354 -0.092057 0.716000 9515074
-0.284751 -0.088089 0.717000 9904460
-0.286737 -0.084577 0.722000 10698568
-0.287134 -0.080563 0.723000 11622207
-0.287929 -0.076643 0.725000 12878415
-0.289120 -0.072800 0.728000 13475947
-0.289517 -0.068734 0.729000 14004070
-0.290311 -0.064746 0.731000 13090693
-0.290311 -0.060569 0.731000 2705482
-0.290709 -0.056469 0.732000 1514007
-0.292297 -0.052571 0.736000 2234658
-0.294680 -0.048760 0.742000 2102560
-0.295871 -0.044700 0.745000 2561561
-0.297063 -0.040606 0.748000 2824985
-0.266390 -0.159834 0.674000 3746355
-0.267971 -0.156909 0.678000 3745591
-0.268367 -0.153260 0.679000 3547946
-0.269552 -0.150040 0.682000 3218731
-0.268762 -0.145714 0.680000 3477809
-0.273900 -0.140580 0.693000 10108183
-0.274295 -0.136817 0.694000 11237022
-0.273110 -0.132277 0.691000 12229555
-0.273900 -0.128700 0.693000 12090012
-0.273900 -0.124740 0.693000 10769298
-0.274295 -0.120954 0.694000 9371985
-0.275876 -0.117663 0.698000 11364669
-0.276667 -0.114000 0.700000 11699491
-0.277852 -0.110471 0.703000 11032886
-0.279433 -0.107060 0.707000 10051364
-0.279829 -0.103166 0.708000 9506867
-0.281014 -0.099540 0.711000 9442615
-0.282200 -0.095880 0.714000 10235174
-0.282990 -0.092057 0.716000 11035993
-0.284176 -0.088334 0.719000 11098219
-0.285757 -0.084694 0.723000 10966111
-0.286548 -0.080786 0.725000 11032138
-0.286943 -0.076749 0.726000 11428169
-0.288129 -0.072900 0.729000 13409144
-0.288129 -0.068734 0.729000 14070369
-0.288919 -0.064746 0.731000 14008702
-0.289314 -0.060651 0.732000 7506544
-0.291290 -0.056854 0.737000 1774851
-0.292081 -0.052786 0.739000 2497828
-0.293662 -0.048826 0.743000 2168610
-0.295243 -0.044820 0.747000 2495768
-0.295638 -0.040606 0.748000 2758937
-0.267073 -0.153260 0.679000 3811635
-0.268253 -0.150040 0.682000 3482160
-0.267467 -0.145714 0.680000 4918323
-0.272580 -0.144540 0.693000 9904172
-0.272580 -0.140580 0.693000 10321490
-0.272973 -0.136817 0.694000 11893664
-0.272580 -0.132660 0.693000 12161714
-0.272973 -0.128886 0.694000 12156833
-0.272973 -0.124920 0.694000 10116468
-0.273367 -0.121129 0.695000 9317942
-0.275333 -0.118000 0.700000 11694912
-0.276513 -0.114489 0.703000 10964285
-0.276513 -0.110471 0.703000 12891431
-0.279267 -0.107514 0.710000 10905133
-0.279267 -0.103457 0.710000 9506866
-0.280447 -0.099820 0.713000 9376557
-0.281627 -0.096149 0.716000 11164753
-0.282020 -0.092186 0.717000 12485751
-0.283200 -0.088457 0.720000 12288111
-0.285167 -0.084929 0.725000 11233894
-0.285560 -0.080897 0.726000 10507856
-0.286347 -0.076960 0.728000 9916738
-0.286740 -0.072900 0.729000 13409874
-0.287527 -0.068923 0.731000 14070889
-0.287920 -0.064834 0.732000 14860429
-0.289493 -0.060983 0.736000 12298379
-0.289887 -0.056854 0.737000 2033967
-0.290673 -0.052786 0.739000 2694437
-0.292247 -0.048826 0.743000 2234662
-0.293820 -0.044820 0.747000 2364699
-0.293820 -0.040551 0.747000 2693653
-0.266954 -0.150040 0.682000 3548213
-0.266954 -0.146143 0.682000 6887732
-0.271651 -0.144749 0.694000 10367294
-0.271651 -0.140783 0.694000 11040140
-0.272043 -0.137014 0.695000 11894690
-0.272043 -0.133043 0.695000 12095408
-0.272043 -0.129071 0.695000 11370663
-0.272043 -0.125100 0.695000 9972309
-0.272826 -0.121477 0.697000 10969115
-0.274000 -0.118000 0.700000 11565379
-0.275957 -0.114814 0.705000 11215704
-0.277131 -0.111257 0.708000 12754968
-0.278306 -0.107666 0.711000 10113334
-0.278306 -0.103603 0.711000 9507377
-0.279480 -0.099960 0.714000 10163491
-0.280654 -0.096283 0.717000 12291708
-0.281437 -0.092443 0.719000 12622229
-0.281829 -0.088457 0.720000 12354931
-0.284177 -0.085046 0.726000 11697518
-0.284960 -0.081120 0.728000 9525845
-0.285351 -0.077066 0.729000 10305595
-0.286134 -0.073100 0.731000 12417068
-0.286134 -0.068923 0.731000 14070130
-0.287309 -0.065011 0.734000 14664348
-0.289266 -0.061231 0.739000 13879975
-0.289657 -0.057086 0.740000 3948634
-0.291614 -0.053214 0.745000 2499111
-0.291614 -0.048957 0.745000 2431273
-0.292789 -0.044880 0.748000 2298654
-0.292789 -0.040606 0.748000 2496784
-0.270330 -0.144749 0.694000 10835299
-0.270719 -0.140986 0.695000 11831465
-0.271888 -0.137606 0.698000 11896747
-0.273056 -0.134191 0.701000 12030645
-0.272667 -0.130000 0.700000 10576523
-0.272667 -0.126000 0.700000 9830714
-0.274225 -0.122697 0.704000 12616500
-0.275783 -0.119349 0.708000 11500874
-0.276562 -0.115629 0.710000 11493963
-0.276951 -0.111729 0.711000 12618550
-0.277730 -0.107969 0.713000 9319721
-0.277730 -0.103894 0.713000 9575479
-0.279289 -0.100380 0.717000 10897732
-0.280068 -0.096551 0.719000 13478003
-0.280457 -0.092571 0.720000 12683382
-0.281626 -0.088826 0.723000 12483669
-0.283573 -0.085280 0.728000 12156259
-0.283573 -0.081120 0.728000 8609621
-0.284742 -0.077277 0.731000 10696501
-0.285131 -0.073200 0.732000 11490087
-0.285910 -0.069206 0.734000 14064470
-0.286690 -0.065189 0.736000 14467997
-0.288248 -0.061314 0.740000 15387057
-0.289027 -0.057240 0.742000 5860987
-0.290195 -0.053214 0.745000 2233639
-0.290974 -0.049089 0.747000 2628393
-0.291364 -0.044880 0.748000 2234401
-0.291364 -0.040606 0.748000 2365206
-0.269395 -0.144957 0.695000 10578569
-0.269395 -0.140986 0.695000 12098246
-0.271333 -0.138000 0.700000 12359348
-0.272496 -0.134574 0.703000 11436985
-0.272496 -0.130557 0.703000 9712496
-0.272496 -0.126540 0.703000 10632479
-0.273271 -0.122871 0.705000 12427085
-0.274434 -0.119349 0.708000 11426128
-0.275210 -0.115629 0.710000 11700543
-0.275597 -0.111729 0.711000 11898196
-0.276760 -0.108120 0.714000 8915228
-0.276760 -0.104040 0.714000 8990269
-0.279086 -0.100800 0.720000 11236454
-0.279086 -0.096686 0.720000 12289386
-0.279086 -0.092571 0.720000 11363928
-0.280249 -0.088826 0.723000 11159606
-0.282187 -0.085280 0.728000 10976089
-0.282574 -0.081231 0.729000 9265748
-0.283737 -0.077383 0.732000 10623536
-0.284512 -0.073400 0.734000 11093537
-0.285288 -0.069394 0.736000 12351291
-0.286450 -0.065454 0.739000 13673374
-0.287613 -0.061480 0.742000 14795964
-0.288776 -0.057471 0.745000 8491164
-0.289551 -0.053357 0.747000 1444904
-0.289551 -0.049089 0.747000 2693929
-0.289939 -0.044880 0.748000 2366245
-0.289939 -0.040606 0.748000 2365468
-0.269229 -0.145583 0.698000 10313330
-0.270386 -0.142203 0.701000 12427158
-0.271157 -0.138591 0.703000 12818089
-0.271543 -0.134766 0.704000 10906786
-0.271543 -0.130743 0.704000 8856392
-0.271929 -0.126900 0.705000 11500858
-0.273086 -0.123394 0.708000 12227918
-0.273857 -0.119686 0.710000 11422250
-0.274243 -0.115791 0.711000 11831367
-0.275014 -0.112043 0.713000 11110956
-0.275400 -0.108120 0.714000 8459821
-0.275400 -0.104040 0.714000 8406328
-0.277714 -0.100800 0.720000 11493979
-0.278486 -0.096954 0.722000 11099475
-0.278486 -0.092829 0.722000 10041411
-0.280029 -0.089194 0.726000 9837888
-0.281186 -0.085397 0.729000 9799795
-0.281957 -0.081454 0.731000 9919036
-0.283114 -0.077594 0.734000 10569796
-0.283114 -0.073400 0.734000 10702408
-0.284271 -0.069489 0.737000 10571578
-0.286200 -0.065720 0.742000 12877192
-0.286586 -0.061563 0.743000 14139298
-0.287357 -0.057471 0.745000 11121555
-0.288514 -0.053429 0.748000 659003
-0.288514 -0.044880 0.748000 2431782
-0.289286 -0.040714 0.750000 2431006
-0.267899 -0.145583 0.698000 9975387
-0.270202 -0.142811 0.704000 11235174
-0.270202 -0.138789 0.704000 11701405
-0.271353 -0.135340 0.707000 10437002
-0.271737 -0.131486 0.708000 10355744
-0.271737 -0.127440 0.708000 12031828
-0.272505 -0.123743 0.710000 11371086
-0.272505 -0.119686 0.710000 11361283
-0.272889 -0.115791 0.711000 12027471
-0.274040 -0.112200 0.714000 10371587
-0.274808 -0.108423 0.716000 9050687
-0.275191 -0.104477 0.717000 8738610
-0.277110 -0.101080 0.722000 10047313
-0.277110 -0.096954 0.722000 10106428
-0.277494 -0.092957 0.723000 9966894
-0.278646 -0.089194 0.726000 9977417
-0.279797 -0.085397 0.729000 9743757
-0.280565 -0.081454 0.731000 10367268
-0.282484 -0.077806 0.736000 12690008
-0.282484 -0.073600 0.736000 11297647
-0.283635 -0.069677 0.739000 10761017
-0.284787 -0.065720 0.742000 12481650
-0.285938 -0.061729 0.745000 14138249
-0.286706 -0.057626 0.747000 12237193
-0.287090 -0.053429 0.748000 459343
-0.288625 -0.049417 0.752000 2694185
-0.287090 -0.044880 0.748000 2497832
-0.287857 -0.040714 0.750000 2496799
-0.270007 -0.143420 0.707000 10042447
-0.269243 -0.138986 0.705000 10573938
-0.270389 -0.135531 0.708000 10044774
-0.271534 -0.132043 0.711000 11884589
-0.271534 -0.127980 0.711000 12557376
-0.272298 -0.124266 0.713000 10441525
-0.271534 -0.119854 0.711000 11305743
-0.271534 -0.115791 0.711000 12158272
-0.273826 -0.112671 0.717000 9568538
-0.273826 -0.108574 0.717000 9640236
-0.274971 -0.104914 0.720000 9068838
-0.275735 -0.101080 0.722000 8546654
-0.276117 -0.097089 0.723000 9120572
-0.276881 -0.093214 0.725000 9837106
-0.278409 -0.089563 0.729000 10178648
-0.279172 -0.085631 0.731000 9666414
-0.279554 -0.081566 0.732000 10818872
-0.281464 -0.077911 0.737000 14792054
-0.281464 -0.073700 0.737000 11889008
-0.283373 -0.069960 0.742000 10961221
-0.283755 -0.065809 0.743000 12155210
-0.284519 -0.061729 0.745000 14135677
-0.285283 -0.057626 0.747000 13420163
-0.286429 -0.053571 0.750000 204113
-0.287574 -0.049483 0.753000 2693932
-0.287192 -0.045120 0.752000 2497831
-0.286429 -0.040714 0.750000 2562850
-0.268660 -0.143420 0.707000 10041912
-0.267900 -0.138986 0.705000 10567239
-0.269800 -0.135914 0.710000 10968642
-0.270180 -0.132043 0.711000 12034362
-0.270940 -0.128340 0.713000 11494955
-0.272080 -0.124789 0.716000 10821916
-0.272460 -0.120866 0.717000 12161050
-0.273600 -0.117257 0.720000 11242033
-0.273600 -0.113143 0.720000 9635377
-0.274360 -0.109331 0.722000 9770777
-0.274740 -0.105351 0.723000 9259290
-0.274740 -0.101220 0.723000 8554859
-0.274740 -0.097089 0.723000 8929340
-0.276640 -0.093600 0.728000 9772598
-0.278160 -0.089931 0.732000 9138534
-0.278160 -0.085749 0.732000 9003856
-0.279680 -0.082011 0.736000 11225676
-0.280820 -0.078123 0.739000 14729876
-0.281200 -0.074000 0.740000 11825521
-0.282340 -0.070054 0.743000 10899281
-0.283100 -0.065986 0.745000 11557922
-0.283860 -0.061894 0.747000 14067057
-0.284240 -0.057703 0.748000 13878141
-0.285760 -0.053714 0.752000 265044
-0.286140 -0.049483 0.753000 2694446
-0.286140 -0.045180 0.753000 2497830
-0.266557 -0.138986 0.705000 10575968
-0.268448 -0.135914 0.710000 11961688
-0.269582 -0.132414 0.713000 12158530
-0.269582 -0.128340 0.713000 10448684
-0.271850 -0.125311 0.719000 11234096
-0.272229 -0.121371 0.720000 12949574
-0.272985 -0.117583 0.722000 10241319
-0.273363 -0.113614 0.723000 9702697
-0.274119 -0.109786 0.725000 9902621
-0.274497 -0.105789 0.726000 9513249
-0.274119 -0.101500 0.725000 8550741
-0.274119 -0.097357 0.725000 8739652
-0.276388 -0.093986 0.731000 9644874
-0.277522 -0.090177 0.734000 8095326
-0.277522 -0.085983 0.734000 8339260
-0.278278 -0.082011 0.736000 11624244
-0.279412 -0.078123 0.739000 14661526
-0.279790 -0.074000 0.740000 11755887
-0.280925 -0.070054 0.743000 10767186
-0.282437 -0.066163 0.747000 10963522
-0.282815 -0.061977 0.748000 13997402
-0.283571 -0.057857 0.750000 14336637
-0.284328 -0.053714 0.752000 340301
-0.284706 -0.049483 0.753000 2759983
-0.284706 -0.045180 0.753000 2498087
-0.268224 -0.132414 0.713000 11035467
-0.269352 -0.128880 0.716000 11104045
-0.270857 -0.125486 0.720000 11901765
-0.271986 -0.121877 0.723000 11362161
-0.272738 -0.118071 0.725000 9699614
-0.273114 -0.114086 0.726000 9572385
-0.273867 -0.110240 0.728000 10035233
-0.273867 -0.106080 0.728000 9445928
-0.274243 -0.102060 0.729000 8480831
-0.274243 -0.097894 0.729000 7367755
-0.274995 -0.093986 0.731000 8140639
-0.276124 -0.090177 0.734000 6980182
-0.276876 -0.086217 0.736000 8719399
-0.278005 -0.082346 0.739000 11754780
-0.278381 -0.078229 0.740000 14465177
-0.279510 -0.074300 0.743000 11359084
-0.281014 -0.070431 0.747000 10697554
-0.281390 -0.066251 0.748000 10828641
-0.282143 -0.062143 0.750000 13206851
-0.282895 -0.058011 0.752000 14335101
-0.283271 -0.053786 0.753000 600645
-0.283271 -0.049483 0.753000 2825519
-0.267240 -0.132600 0.714000 9857884
-0.269111 -0.129420 0.719000 11761748
-0.270234 -0.125834 0.722000 12490066
-0.270609 -0.121877 0.723000 9850210
-0.271357 -0.118071 0.725000 9120308
-0.271731 -0.114086 0.726000 9442579
-0.272480 -0.110240 0.728000 10101027
-0.272854 -0.106226 0.729000 9444128
-0.272854 -0.102060 0.729000 8408377
-0.274726 -0.098566 0.734000 6061390
-0.273977 -0.094114 0.732000 6642775
-0.274726 -0.090177 0.734000 5800273
-0.275849 -0.086334 0.737000 9053751
-0.276971 -0.082457 0.740000 11950106
-0.278094 -0.078546 0.743000 14200207
-0.278843 -0.074500 0.745000 11016773
-0.279966 -0.070526 0.748000 10632271
-0.279966 -0.066251 0.748000 10763352
-0.280714 -0.062143 0.750000 12351045
-0.281837 -0.058089 0.753000 14331234
-0.282586 -0.053929 0.755000 799810
-0.282586 -0.049614 0.755000 2956847
-0.265880 -0.132600 0.714000 10847853
-0.267742 -0.129420 0.719000 11765114
-0.269231 -0.126009 0.723000 12356959
-0.270349 -0.118234 0.726000 11241290
-0.271093 -0.114400 0.728000 9510660
-0.271466 -0.110391 0.729000 9838885
-0.271466 -0.106226 0.729000 9182999
-0.272583 -0.102480 0.732000 8272180
-0.273328 -0.098566 0.734000 5666640
-0.274072 -0.094629 0.736000 5730383
-0.274445 -0.090546 0.737000 5599052
-0.274445 -0.086334 0.737000 9513032
-0.277424 -0.083014 0.745000 11491352
-0.277424 -0.078757 0.745000 13017478
-0.278169 -0.074700 0.747000 10361374
-0.278541 -0.070526 0.748000 10500427
-0.279286 -0.066429 0.750000 10700367
-0.280403 -0.062391 0.753000 11299912
-0.281148 -0.058243 0.755000 12749639
-0.281148 -0.053929 0.755000 790591
-0.281148 -0.049614 0.755000 2891567
-0.266743 -0.129600 0.720000 11832193
-0.267854 -0.126009 0.723000 12160364
-0.269707 -0.118560 0.728000 13278304
-0.270077 -0.114557 0.729000 9579318
-0.270077 -0.110391 0.729000 9575983
-0.270818 -0.106517 0.731000 8987435
-0.271189 -0.102480 0.732000 8083006
-0.273041 -0.098969 0.737000 5338195
-0.273041 -0.094757 0.737000 4745027
-0.273782 -0.090791 0.739000 5402698
-0.274893 -0.086920 0.742000 9972539
-0.276005 -0.083014 0.745000 11029784
-0.276746 -0.078969 0.747000 11818076
-0.276746 -0.074700 0.747000 9768488
-0.278598 -0.070903 0.752000 10300485
-0.278598 -0.066606 0.752000 10635338
-0.278969 -0.062391 0.753000 10174021
-0.279710 -0.058243 0.755000 11164196
-0.280080 -0.054000 0.756000 728879
-0.279710 -0.049614 0.755000 2892080
-0.268320 -0.118560 0.728000 12167030
-0.269426 -0.114871 0.731000 9785191
-0.268689 -0.110391 0.729000 9511226
-0.269426 -0.106517 0.731000 8475454
-0.271269 -0.103040 0.736000 7104841
-0.271637 -0.098969 0.737000 4940373
-0.272743 -0.095143 0.740000 3689016
-0.273480 -0.091160 0.742000 5003592
-0.273849 -0.087037 0.743000 9055535
-0.275691 -0.083349 0.748000 10101783
-0.275691 -0.079074 0.748000 10486067
-0.275691 -0.074800 0.748000 9705009
-0.277166 -0.070903 0.752000 10033983
-0.277534 -0.066694 0.753000 10365509
-0.278271 -0.062557 0.755000 10101058
-0.278640 -0.058320 0.756000 10901761
-0.278271 -0.053929 0.755000 852254
-0.278271 -0.049614 0.755000 2892081
-0.266933 -0.118560 0.728000 10978415
-0.268033 -0.114871 0.731000 9987168
-0.267300 -0.110391 0.729000 9455698
-0.269867 -0.107246 0.736000 8024652
-0.269867 -0.103040 0.736000 6057036
-0.272067 -0.099640 0.742000 4610128
-0.272433 -0.095529 0.743000 2572859
-0.272433 -0.091283 0.743000 4608832
-0.273900 -0.087506 0.747000 8079925
-0.275000 -0.083571 0.750000 9191221
-0.274267 -0.079074 0.748000 9188410
-0.274267 -0.074800 0.748000 9640512
-0.275733 -0.070903 0.752000 9707065
-0.276833 -0.066871 0.755000 10099261
-0.277200 -0.062640 0.756000 9973056
-0.277933 -0.058474 0.758000 10651413
-0.279033 -0.054357 0.761000 924210
-0.276833 -0.049614 0.755000 2957873
-0.268465 -0.115657 0.736000 9986648
-0.268465 -0.111451 0.736000 9396842
-0.268465 -0.107246 0.736000 8086617
-0.269924 -0.103600 0.740000 6185808
-0.271748 -0.100043 0.745000 4542794
-0.272477 -0.096043 0.747000 3556415
-0.271748 -0.091529 0.745000 5133880
-0.272477 -0.087506 0.747000 7302459
-0.274301 -0.083794 0.752000 9601106
-0.273571 -0.079286 0.750000 9532994
-0.273571 -0.075000 0.750000 9255247
-0.274666 -0.070997 0.753000 9446195
-0.275760 -0.066960 0.756000 9903412
-0.277219 -0.062971 0.760000 9909821
-0.277584 -0.058706 0.761000 9932329
-0.278313 -0.054500 0.763000 1114694
-0.268151 -0.116129 0.739000 9987183
-0.267063 -0.111451 0.736000 9265258
-0.267063 -0.107246 0.736000 8214370
-0.271054 -0.104580 0.747000 6252640
-0.271054 -0.100311 0.747000 4542284
-0.271417 -0.096171 0.748000 4534849
-0.271417 -0.091897 0.748000 5655114
-0.271417 -0.087623 0.748000 6515783
-0.272869 -0.083794 0.752000 10000989
-0.272869 -0.079497 0.752000 9797963
-0.273231 -0.075300 0.753000 8936262
-0.273957 -0.071186 0.755000 9186871
-0.275046 -0.067137 0.758000 9707577
-0.276860 -0.063220 0.763000 9846336
-0.276860 -0.058860 0.763000 9280579
-0.276860 -0.054500 0.763000 1248313
-0.266744 -0.116129 0.739000 10781061
-0.266744 -0.111906 0.739000 10315115
-0.265661 -0.107246 0.736000 9202794
-0.269631 -0.104580 0.747000 7896688
-0.269992 -0.100446 0.748000 7362381
-0.269992 -0.096171 0.748000 7808835
-0.270714 -0.092143 0.750000 8476252
-0.271436 -0.088091 0.752000 8411475
-0.271797 -0.083906 0.753000 9596520
-0.272519 -0.079814 0.755000 9009237
-0.273602 -0.075800 0.758000 8999740
-0.274324 -0.071657 0.760000 9057084
-0.274685 -0.067403 0.761000 9574461
-0.276129 -0.063386 0.765000 10176324
-0.276129 -0.059014 0.765000 7228252
-0.269286 -0.105000 0.750000 9468013
-0.269286 -0.100714 0.750000 10184291
-0.269286 -0.096429 0.750000 11036779
-0.271081 -0.092757 0.755000 11305617
-0.271081 -0.088443 0.755000 10246236
-0.271081 -0.084129 0.755000 9190983
-0.272158 -0.080131 0.758000 8205880
-0.273235 -0.076100 0.761000 9060388
-0.273235 -0.071751 0.761000 8926513
-0.273953 -0.067580 0.763000 9439024
-0.275390 -0.063551 0.767000 10514513
-0.275390 -0.059169 0.767000 5243701
-0.267857 -0.105000 0.750000 10381418
-0.267857 -0.100714 0.750000 10843512
-0.267857 -0.096429 0.750000 11706260
-0.271429 -0.093371 0.760000 11704773
-0.269643 -0.088443 0.755000 10112613
-0.270000 -0.084240 0.756000 9446693
-0.271786 -0.080449 0.761000 8854812
-0.273214 -0.076500 0.765000 9578508
-0.271786 -0.071751 0.761000 10966053
-0.273929 -0.067934 0.767000 10504483
-0.273929 -0.063551 0.767000 11908191
-0.273929 -0.059169 0.767000 3281165
-0.266429 -0.100714 0.750000 11565692
-0.266429 -0.096429 0.750000 12291967
-0.270336 -0.093494 0.761000 12093837
-0.270336 -0.089146 0.761000 9914197
-0.270336 -0.084797 0.761000 9709107
-0.271757 -0.080871 0.765000 9510177
-0.272468 -0.076700 0.767000 10099246
-0.272823 -0.072411 0.768000 12941369
-0.272823 -0.068023 0.768000 11565615
-0.272823 -0.063634 0.768000 13208903
-0.272468 -0.059169 0.767000 1310993
-0.268887 -0.093494 0.761000 11361620
-0.268887 -0.089146 0.761000 10108998
-0.268887 -0.084797 0.761000 9973569
-0.270300 -0.080871 0.765000 10103079
-0.271007 -0.076700 0.767000 10503503
-0.271360 -0.072411 0.768000 12028237
-0.271360 -0.068023 0.768000 11771707
-0.271360 -0.063634 0.768000 6643503
-0.271007 -0.059169 0.767000 2232341
-0.271303 -0.090434 0.772000 10244167
-0.271654 -0.086134 0.773000 10236480
-0.269897 -0.081189 0.768000 10639417
-0.269897 -0.076800 0.768000 10905426
-0.269897 -0.072411 0.768000 11108699
-0.269897 -0.068023 0.768000 12040015
-0.270600 -0.063800 0.770000 78884
-0.269832 -0.090434 0.772000 10446152
-0.270182 -0.086134 0.773000 10510399
-0.269832 -0.081611 0.772000 11178570
-0.268434 -0.076800 0.768000 10910548
-0.269133 -0.072600 0.770000 10453354
-0.269133 -0.068200 0.770000 7560034
-0.269133 -0.063800 0.770000 1378329
-0.268362 -0.090434 0.772000 10581352
-0.268710 -0.086134 0.773000 10712394
-0.268362 -0.081611 0.772000 11694921
-0.266971 -0.076800 0.768000 10913357
-0.268362 -0.072789 0.772000 9723208
-0.267667 -0.068200 0.770000 3080516
-0.267667 -0.063800 0.770000 2690841
