# .PCD v.7 - Point Cloud Data file format
VERSION .7
FIELDS x y z rgb
SIZE 4 4 4 4
TYPE F F F I
COUNT 1 1 1 1
WIDTH 1282
HEIGHT 1
POINTS 1282
DATA ascii
-0.222833 -0.055481 0.955000 7948332
-0.224233 -0.050338 0.961000 8603443
-0.226100 -0.045220 0.969000 9521481
-0.226800 -0.039806 0.972000 9267527
-0.199491 -0.143667 0.862000 10500445
-0.201574 -0.140190 0.871000 10294047
-0.201574 -0.135212 0.871000 10424106
-0.202500 -0.130833 0.875000 10230551
-0.203194 -0.126265 0.878000 6033431
-0.204583 -0.122076 0.884000 2692915
-0.204583 -0.117025 0.884000 2498093
-0.205277 -0.112353 0.887000 1839902
-0.205740 -0.107527 0.889000 1774354
-0.206203 -0.102677 0.891000 1510933
-0.207823 -0.098352 0.898000 9514280
-0.208980 -0.093740 0.903000 10381439
-0.209443 -0.088776 0.905000 10247014
-0.210600 -0.084067 0.910000 10314776
-0.211757 -0.079300 0.915000 8924974
-0.214071 -0.074881 0.925000 9395246
-0.215691 -0.070122 0.932000 7805466
-0.216849 -0.065144 0.937000 7354427
-0.218700 -0.060300 0.945000 7416107
-0.220551 -0.055365 0.953000 7621680
-0.221709 -0.050181 0.958000 9729331
-0.223560 -0.045080 0.966000 8797512
-0.224949 -0.039806 0.972000 10262102
-0.226106 -0.034428 0.977000 3546625
-0.199915 -0.135212 0.871000 10428202
-0.201981 -0.131581 0.880000 9776423
-0.201981 -0.126552 0.880000 1970464
-0.202899 -0.122076 0.884000 2955824
-0.202899 -0.117025 0.884000 2628906
-0.203588 -0.112353 0.887000 1840673
-0.204047 -0.107527 0.889000 1774613
-0.204506 -0.102677 0.891000 1577747
-0.206112 -0.098352 0.898000 8262942
-0.207719 -0.093948 0.905000 10179137
-0.208408 -0.089070 0.908000 10048093
-0.209555 -0.084344 0.913000 10388755
-0.210014 -0.079300 0.915000 8535350
-0.211621 -0.074638 0.922000 9726511
-0.213457 -0.069971 0.930000 8066839
-0.215064 -0.065144 0.937000 7419179
-0.216900 -0.060300 0.945000 7092518
-0.218048 -0.055190 0.950000 7228201
-0.219884 -0.050181 0.958000 10774330
-0.221720 -0.045080 0.966000 8136507
-0.223097 -0.039806 0.972000 11234103
-0.224245 -0.034428 0.977000 5453875
-0.200305 -0.131581 0.880000 6492726
-0.200305 -0.126552 0.880000 2493738
-0.201898 -0.122490 0.887000 2759212
-0.201898 -0.117422 0.887000 2563623
-0.201898 -0.112353 0.887000 2103587
-0.202353 -0.107527 0.889000 1840409
-0.203491 -0.103023 0.894000 1642257
-0.204402 -0.098352 0.898000 7542036
-0.205995 -0.093948 0.905000 9905666
-0.206678 -0.089070 0.908000 9716052
-0.207816 -0.084344 0.913000 10909966
-0.208271 -0.079300 0.915000 9504830
-0.209865 -0.074638 0.922000 9854511
-0.212141 -0.070122 0.932000 8263956
-0.212824 -0.065005 0.935000 7613978
-0.214417 -0.060109 0.942000 5981218
-0.216238 -0.055190 0.950000 6242593
-0.218059 -0.050181 0.958000 10381378
-0.219880 -0.045080 0.966000 8337453
-0.221246 -0.039806 0.972000 9719575
-0.222384 -0.034428 0.977000 6573924
-0.196597 -0.130235 0.871000 3213878
-0.198629 -0.126552 0.880000 2952998
-0.200209 -0.122490 0.887000 2561834
-0.200209 -0.117422 0.887000 2497575
-0.200209 -0.112353 0.887000 2366757
-0.200660 -0.107527 0.889000 1840669
-0.201789 -0.103023 0.894000 1773844
-0.202691 -0.098352 0.898000 6754070
-0.204271 -0.093948 0.905000 9700624
-0.204949 -0.089070 0.908000 9377344
-0.206077 -0.084344 0.913000 11429940
-0.206529 -0.079300 0.915000 10508588
-0.208109 -0.074638 0.922000 10058288
-0.210366 -0.070122 0.932000 8458262
-0.211043 -0.065005 0.935000 7874332
-0.213300 -0.060300 0.945000 4867883
-0.213977 -0.055074 0.948000 5198628
-0.216234 -0.050181 0.958000 9980207
-0.217363 -0.044940 0.963000 8603421
-0.219394 -0.039806 0.972000 8206881
-0.219846 -0.034322 0.974000 7691593
-0.221877 -0.029022 0.983000 1379603
-0.194490 -0.129936 0.869000 2887990
-0.197400 -0.126840 0.882000 2954275
-0.198519 -0.122490 0.887000 2365991
-0.198519 -0.117422 0.887000 2365736
-0.198519 -0.112353 0.887000 2431782
-0.199414 -0.107769 0.891000 2037025
-0.200086 -0.103023 0.894000 1970455
-0.200981 -0.098352 0.898000 3932441
-0.202548 -0.093948 0.905000 9702942
-0.203219 -0.089070 0.908000 9175340
-0.204338 -0.084344 0.913000 11699289
-0.205233 -0.079473 0.917000 10777114
-0.207024 -0.074881 0.925000 9917745
-0.208143 -0.069971 0.930000 8391704
-0.209262 -0.065005 0.935000 8070430
-0.210829 -0.060109 0.942000 4934197
-0.212171 -0.055074 0.948000 4736039
-0.213738 -0.050024 0.955000 9056028
-0.216200 -0.045080 0.966000 8403213
-0.216871 -0.039683 0.969000 8137771
-0.217990 -0.034322 0.974000 7750190
-0.220005 -0.029022 0.983000 1969182
-0.192391 -0.129637 0.867000 2561059
-0.195720 -0.126840 0.882000 2890028
-0.196830 -0.122490 0.887000 2234919
-0.197273 -0.117687 0.889000 2168869
-0.197273 -0.112607 0.889000 2497061
-0.197717 -0.107769 0.891000 2234148
-0.198383 -0.103023 0.894000 2233625
-0.199270 -0.098352 0.898000 1116438
-0.200824 -0.093948 0.905000 9704484
-0.201490 -0.089070 0.908000 8914735
-0.202599 -0.084344 0.913000 11971928
-0.203487 -0.079473 0.917000 10975768
-0.204596 -0.074638 0.922000 9853230
-0.206371 -0.069971 0.930000 8335407
-0.207481 -0.065005 0.935000 8266536
-0.209034 -0.060109 0.942000 5000497
-0.210366 -0.055074 0.948000 4341806
-0.211919 -0.050024 0.955000 8071459
-0.214360 -0.045080 0.966000 8138520
-0.215026 -0.039683 0.969000 8004643
-0.216135 -0.034322 0.974000 7811116
-0.218132 -0.029022 0.983000 2563367
-0.190740 -0.129637 0.867000 3221007
-0.194040 -0.126840 0.882000 2955830
-0.195140 -0.122490 0.887000 2431527
-0.196020 -0.117951 0.891000 2168610
-0.196020 -0.112860 0.891000 2365987
-0.196680 -0.108131 0.894000 2627624
-0.196680 -0.103023 0.894000 2167835
-0.197560 -0.098352 0.898000 1313043
-0.199100 -0.093948 0.905000 9115177
-0.199760 -0.089070 0.908000 9765171
-0.200860 -0.084344 0.913000 11834454
-0.201740 -0.079473 0.917000 12296215
-0.203500 -0.074881 0.925000 10906411
-0.203940 -0.069746 0.927000 9464134
-0.205700 -0.065005 0.935000 8133425
-0.206800 -0.059981 0.940000 4939821
-0.208560 -0.055074 0.948000 3685941
-0.210100 -0.050024 0.955000 6755114
-0.211420 -0.044847 0.961000 7937570
-0.213180 -0.039683 0.969000 7806490
-0.214280 -0.034322 0.974000 7941673
-0.216260 -0.029022 0.983000 3611441
-0.189089 -0.129637 0.867000 3945813
-0.193450 -0.122490 0.887000 2628135
-0.194977 -0.118349 0.894000 2168867
-0.194977 -0.113240 0.894000 2299934
-0.194977 -0.108131 0.894000 3021094
-0.195413 -0.103253 0.896000 2168095
-0.195850 -0.098352 0.898000 1444632
-0.197376 -0.093948 0.905000 8528420
-0.198467 -0.089267 0.910000 10568998
-0.199557 -0.084529 0.915000 11770697
-0.199993 -0.079473 0.917000 13592844
-0.201738 -0.074881 0.925000 11955033
-0.202829 -0.069971 0.930000 10584684
-0.203919 -0.065005 0.935000 8064538
-0.205010 -0.059981 0.940000 4808240
-0.206754 -0.055074 0.948000 3095602
-0.207845 -0.049919 0.953000 5387556
-0.209590 -0.044847 0.961000 7674688
-0.210680 -0.039560 0.966000 7611164
-0.212425 -0.034322 0.974000 8006167
-0.191761 -0.122490 0.887000 2825511
-0.193274 -0.118349 0.894000 2300196
-0.193707 -0.113493 0.896000 2234649
-0.193707 -0.108373 0.896000 2628133
-0.193707 -0.103253 0.896000 2234402
-0.194139 -0.098352 0.898000 2034718
-0.196301 -0.094259 0.908000 6884894
-0.197382 -0.089561 0.913000 11762458
-0.197814 -0.084529 0.915000 11366972
-0.198247 -0.079473 0.917000 11674369
-0.199976 -0.074881 0.925000 12690055
-0.200409 -0.069746 0.927000 12306066
-0.202138 -0.065005 0.935000 8658435
-0.203219 -0.059981 0.940000 5136948
-0.204949 -0.055074 0.948000 3291182
-0.206030 -0.049919 0.953000 4607775
-0.207110 -0.044707 0.958000 7755869
-0.208840 -0.039560 0.966000 7483679
-0.210137 -0.034251 0.972000 7416324
-0.211867 -0.028933 0.980000 5653563
-0.192000 -0.118613 0.896000 2431527
-0.192429 -0.113747 0.898000 2169119
-0.192000 -0.108373 0.896000 2234660
-0.192000 -0.103253 0.896000 2366244
-0.192429 -0.098352 0.898000 2561056
-0.194571 -0.094259 0.908000 5311269
-0.195643 -0.089561 0.913000 12874795
-0.196071 -0.084529 0.915000 10912031
-0.197143 -0.079733 0.920000 9714479
-0.198214 -0.074881 0.925000 13486152
-0.199286 -0.069971 0.930000 14005089
-0.200357 -0.065005 0.935000 9316132
-0.201429 -0.059981 0.940000 5466433
-0.203143 -0.055074 0.948000 3552565
-0.203571 -0.049762 0.950000 3753518
-0.205286 -0.044707 0.958000 7829846
-0.207000 -0.039560 0.966000 7291688
-0.208286 -0.034251 0.972000 6826261
-0.210000 -0.028933 0.980000 6568746
-0.190293 -0.118613 0.896000 2628138
-0.190718 -0.113747 0.898000 2234660
-0.190718 -0.108615 0.898000 2168867
-0.190718 -0.103484 0.898000 2431782
-0.192205 -0.099119 0.905000 2495779
-0.193267 -0.094467 0.910000 4196652
-0.193904 -0.089561 0.913000 12155708
-0.194753 -0.084713 0.917000 10439681
-0.195390 -0.079733 0.920000 11101788
-0.196452 -0.074881 0.925000 13016329
-0.197514 -0.069971 0.930000 12621616
-0.198576 -0.065005 0.935000 9006148
-0.199638 -0.059981 0.940000 5923406
-0.201337 -0.055074 0.948000 4473660
-0.201762 -0.049762 0.950000 5913661
-0.203461 -0.044707 0.958000 7690831
-0.205160 -0.039560 0.966000 7485233
-0.206434 -0.034251 0.972000 7415846
-0.208133 -0.028933 0.980000 7487769
-0.189639 -0.114127 0.901000 2366246
-0.189639 -0.108978 0.901000 2037538
-0.189639 -0.103830 0.901000 2432038
-0.191112 -0.099448 0.908000 2365989
-0.191533 -0.094467 0.910000 3083303
-0.192586 -0.089757 0.915000 11420964
-0.193007 -0.084713 0.917000 10027286
-0.194059 -0.079907 0.922000 12483433
-0.195111 -0.075043 0.927000 12543785
-0.195743 -0.069971 0.930000 11173673
-0.196795 -0.065005 0.935000 8682558
-0.198269 -0.060109 0.942000 6376263
-0.199531 -0.055074 0.948000 5459770
-0.200584 -0.049919 0.953000 8070965
-0.201636 -0.044707 0.958000 7620659
-0.203320 -0.039560 0.966000 7678249
-0.204583 -0.034251 0.972000 8067610
-0.205635 -0.028845 0.977000 8406552
-0.188340 -0.114380 0.903000 2497832
-0.188340 -0.109220 0.903000 2102818
-0.188340 -0.104060 0.903000 2497062
-0.189383 -0.099448 0.908000 2497576
-0.190426 -0.094778 0.913000 2428706
-0.190843 -0.089757 0.915000 9503245
-0.191886 -0.084990 0.920000 10692395
-0.192303 -0.079907 0.922000 12754039
-0.193346 -0.075043 0.927000 12550473
-0.194389 -0.070122 0.932000 10055203
-0.195431 -0.065144 0.937000 8867640
-0.196474 -0.060109 0.942000 7942721
-0.197726 -0.055074 0.948000 6444856
-0.198143 -0.049762 0.950000 9114668
-0.199811 -0.044707 0.958000 8535830
-0.201480 -0.039560 0.966000 8067361
-0.202731 -0.034251 0.972000 8860686
-0.203774 -0.028845 0.977000 9399576
-0.187033 -0.114633 0.905000 2628914
-0.187653 -0.109825 0.908000 2103331
-0.187033 -0.104290 0.905000 2562084
-0.187653 -0.099448 0.908000 2563366
-0.188687 -0.094778 0.913000 1776165
-0.189100 -0.089757 0.915000 7537425
-0.190133 -0.084990 0.920000 11416619
-0.190547 -0.079907 0.922000 12951147
-0.191580 -0.075043 0.927000 12555608
-0.192613 -0.070122 0.932000 8872240
-0.193647 -0.065144 0.937000 9055289
-0.194680 -0.060109 0.942000 9513531
-0.195920 -0.055074 0.948000 7500356
-0.196953 -0.049919 0.953000 10175317
-0.197987 -0.044707 0.958000 9519682
-0.199640 -0.039560 0.966000 8458528
-0.200880 -0.034251 0.972000 9653787
-0.201913 -0.028845 0.977000 10316588
-0.185310 -0.114633 0.905000 2366011
-0.185924 -0.109825 0.908000 2365989
-0.185924 -0.104636 0.908000 2430754
-0.185924 -0.099448 0.908000 2563621
-0.186948 -0.094778 0.913000 2234919
-0.188790 -0.085175 0.922000 12485162
-0.189405 -0.080167 0.925000 12882528
-0.189814 -0.075043 0.927000 12159591
-0.191452 -0.070348 0.935000 8995390
-0.191862 -0.065144 0.937000 9380410
-0.193500 -0.060300 0.945000 9445685
-0.194114 -0.055074 0.948000 8806224
-0.195138 -0.049919 0.953000 11764350
-0.196162 -0.044707 0.958000 10180206
-0.197800 -0.039560 0.966000 8719391
-0.198414 -0.034146 0.969000 9852967
-0.200052 -0.028845 0.977000 10388288
-0.183586 -0.114633 0.905000 2168103
-0.184600 -0.110067 0.910000 2563116
-0.184600 -0.104867 0.910000 2299426
-0.184600 -0.099667 0.910000 2498080
-0.185209 -0.094778 0.913000 2760489
-0.187034 -0.085175 0.922000 13546548
-0.187643 -0.080167 0.925000 12818786
-0.188049 -0.075043 0.927000 11756656
-0.189671 -0.070348 0.935000 9054263
-0.190077 -0.065144 0.937000 9707049
-0.191700 -0.060300 0.945000 9323074
-0.192309 -0.055074 0.948000 10119237
-0.193323 -0.049919 0.953000 13278613
-0.194337 -0.044707 0.958000 10838902
-0.195960 -0.039560 0.966000 8981793
-0.197177 -0.034251 0.972000 10114100
-0.183470 -0.110430 0.913000 2760500
-0.183470 -0.105212 0.913000 2365985
-0.183470 -0.099995 0.913000 2367003
-0.183470 -0.094778 0.913000 2695466
-0.185881 -0.080167 0.925000 12683109
-0.187288 -0.075448 0.932000 11561081
-0.188292 -0.070498 0.937000 9441072
-0.188292 -0.065144 0.937000 9837080
-0.189900 -0.060300 0.945000 10505807
-0.190905 -0.055190 0.950000 10779706
-0.191508 -0.049919 0.953000 13610411
-0.192512 -0.044707 0.958000 10634621
-0.194120 -0.039560 0.966000 9179684
-0.195326 -0.034251 0.972000 9387073
-0.196330 -0.028845 0.977000 10388791
-0.182527 -0.110913 0.917000 2890023
-0.181730 -0.105212 0.913000 2366758
-0.181730 -0.099995 0.913000 2235422
-0.182129 -0.094986 0.915000 2630191
-0.184119 -0.080167 0.925000 12557415
-0.186110 -0.075690 0.935000 11366718
-0.186508 -0.070498 0.937000 9839163
-0.187105 -0.065352 0.940000 9967133
-0.188100 -0.060300 0.945000 11625553
-0.189095 -0.055190 0.950000 11494179
-0.190090 -0.050024 0.955000 13868936
-0.190688 -0.044707 0.958000 10421070
-0.192280 -0.039560 0.966000 9378601
-0.193474 -0.034251 0.972000 8661556
-0.180780 -0.110913 0.917000 1905690
-0.179991 -0.105212 0.913000 2628394
-0.179991 -0.099995 0.913000 2431522
-0.180386 -0.094986 0.915000 2629427
-0.182751 -0.080340 0.927000 13682793
-0.184329 -0.075690 0.935000 10764034
-0.185314 -0.070724 0.940000 10441541
-0.185709 -0.065491 0.942000 10234914
-0.186300 -0.060300 0.945000 10973524
-0.187286 -0.055190 0.950000 10901004
-0.188271 -0.050024 0.955000 12155749
-0.188863 -0.044707 0.958000 10100254
-0.190440 -0.039560 0.966000 9577006
-0.191623 -0.034251 0.972000 10050087
-0.180986 -0.080340 0.927000 14719800
-0.182548 -0.075690 0.935000 10223906
-0.183524 -0.070724 0.940000 11029563
-0.184500 -0.065700 0.945000 10503740
-0.185086 -0.060491 0.948000 10244926
-0.186062 -0.055365 0.953000 10296871
-0.186452 -0.050024 0.955000 10367541
-0.187038 -0.044707 0.958000 9835805
-0.188600 -0.039560 0.966000 9710129
-0.189771 -0.034251 0.972000 11501093
-0.181153 -0.075852 0.937000 10491969
-0.182120 -0.070874 0.942000 11817008
-0.182700 -0.065700 0.945000 11231061
-0.183280 -0.060491 0.948000 9780521
-0.184247 -0.055365 0.953000 9770562
-0.185213 -0.050181 0.958000 9568518
-0.185213 -0.044707 0.958000 9573404
-0.187340 -0.039683 0.969000 9773875
-0.187920 -0.034251 0.972000 11499810
-0.179369 -0.075852 0.937000 10690354
-0.180326 -0.070874 0.942000 12546101
-0.180900 -0.065700 0.945000 11960680
-0.181474 -0.060491 0.948000 9255228
-0.182814 -0.055481 0.955000 9310526
-0.183389 -0.050181 0.958000 8786985
-0.184346 -0.044940 0.963000 9374022
-0.185494 -0.039683 0.969000 9846841
-0.186069 -0.034251 0.972000 11499065
-0.177205 -0.081033 0.935000 3539238
-0.177584 -0.075852 0.937000 9445922
-0.178531 -0.070874 0.942000 13537593
-0.179669 -0.065909 0.948000 12949626
-0.179669 -0.060491 0.948000 9643599
-0.180995 -0.055481 0.955000 9314106
-0.181564 -0.050181 0.958000 10833227
-0.182511 -0.044940 0.963000 10835311
-0.183649 -0.039683 0.969000 10639423
-0.184217 -0.034251 0.972000 11177296
-0.175799 -0.081207 0.937000 1709096
-0.176362 -0.076095 0.940000 8133151
-0.177300 -0.071100 0.945000 14456636
-0.177863 -0.065909 0.948000 13875837
-0.178238 -0.060619 0.950000 9984873
-0.179176 -0.055481 0.955000 9317965
-0.179739 -0.050181 0.958000 12875093
-0.180677 -0.044940 0.963000 12297110
-0.181803 -0.039683 0.969000 11433031
-0.182741 -0.034322 0.974000 10855230
-0.174014 -0.081207 0.937000 2301483
-0.174571 -0.076095 0.940000 4789020
-0.175500 -0.071100 0.945000 13017408
-0.176057 -0.065909 0.948000 14731135
-0.176429 -0.060619 0.950000 11633028
-0.177914 -0.055655 0.958000 10567008
-0.178471 -0.050338 0.961000 13873758
-0.178843 -0.044940 0.963000 12959676
-0.179957 -0.039683 0.969000 12687696
-0.180886 -0.034322 0.974000 8421164
-0.172230 -0.081207 0.937000 2826283
-0.173149 -0.076257 0.942000 1445669
-0.173149 -0.070874 0.942000 11493159
-0.173700 -0.065700 0.945000 15585609
-0.174619 -0.060619 0.950000 13214868
-0.175538 -0.055481 0.955000 11823470
-0.176641 -0.050338 0.961000 14793317
-0.176641 -0.044847 0.961000 13619131
-0.177560 -0.039560 0.966000 13866331
-0.171900 -0.076500 0.945000 2299949
-0.171900 -0.071100 0.945000 5832974
-0.172446 -0.065909 0.948000 12164115
-0.172810 -0.060619 0.950000 14407844
-0.173719 -0.055481 0.955000 13278331
-0.174810 -0.050338 0.961000 14598507
-0.174810 -0.044847 0.961000 14008249
-0.175720 -0.039560 0.966000 11836774
-0.170100 -0.076500 0.945000 3154738
-0.170640 -0.071326 0.948000 134175
-0.170640 -0.065909 0.948000 8736780
-0.171540 -0.060810 0.953000 15511661
-0.171900 -0.055481 0.955000 14792326
-0.172980 -0.050338 0.961000 14330465
-0.173340 -0.044940 0.963000 14401926
-0.173880 -0.039560 0.966000 9723188
-0.169190 -0.071476 0.950000 1448241
-0.169725 -0.066256 0.953000 4921092
-0.169725 -0.060810 0.953000 8615222
-0.170615 -0.055655 0.958000 11899793
-0.171506 -0.050443 0.963000 11372375
-0.172040 -0.045080 0.966000 9202771
-0.173999 -0.040010 0.977000 5048834
-0.167381 -0.071476 0.950000 2761263
-0.167910 -0.066256 0.953000 1116441
-0.168262 -0.060938 0.955000 1646120
-0.169319 -0.055830 0.961000 9065801
-0.169319 -0.050338 0.961000 8336684
-0.170200 -0.045080 0.966000 3998507
-0.172138 -0.040010 0.977000 395533
-0.165571 -0.071476 0.950000 2827566
-0.166094 -0.066256 0.953000 2038573
-0.166443 -0.060938 0.955000 2425113
-0.167489 -0.055830 0.961000 4921345
-0.167837 -0.050443 0.963000 4653313
-0.168883 -0.045220 0.969000 3016194
-0.169754 -0.039888 0.974000 1576984
-0.164279 -0.071702 0.953000 2892841
-0.164624 -0.066395 0.955000 3024684
-0.164624 -0.060938 0.955000 3152162
-0.165658 -0.055830 0.961000 853783
-0.166003 -0.050443 0.963000 920855
-0.166520 -0.045080 0.966000 2100758
-0.167899 -0.039888 0.974000 2758431
-0.162464 -0.071702 0.953000 2957348
-0.162805 -0.066395 0.955000 3024682
-0.162805 -0.060938 0.955000 3089195
-0.164169 -0.055946 0.963000 1907244
-0.164680 -0.050600 0.966000 1974060
-0.165191 -0.045220 0.969000 2366250
-0.166044 -0.039888 0.974000 2758694
-0.160649 -0.066256 0.953000 3090227
-0.160986 -0.060938 0.955000 2958379
-0.162334 -0.055946 0.963000 2958125
-0.162840 -0.050600 0.966000 3022638
-0.163346 -0.045220 0.969000 2694957
-0.158833 -0.066256 0.953000 2431803
-0.159167 -0.060938 0.955000 3220523
-0.160500 -0.055946 0.963000 3154477
-0.161000 -0.050600 0.966000 3022896
-0.162000 -0.045360 0.972000 2826543
-0.157018 -0.066256 0.953000 1836844
-0.157018 -0.060810 0.953000 3415585
-0.158666 -0.055946 0.963000 3350049
-0.159160 -0.050600 0.966000 3022115
-0.160149 -0.045360 0.972000 2958117
-0.155203 -0.066256 0.953000 4206108
-0.155203 -0.060810 0.953000 3215640
-0.155529 -0.055481 0.955000 2692628
-0.157320 -0.050600 0.966000 2167830
-0.158297 -0.045360 0.972000 2233882
-0.153388 -0.060810 0.953000 2961737
-0.153710 -0.055481 0.955000 1972033
-0.151572 -0.060810 0.953000 6973050
-0.151572 -0.055365 0.953000 6052974
-0.251843 -0.142849 0.867000 9175345
-0.251346 -0.148485 0.871000 10294834
-0.249614 -0.142519 0.865000 9506606
-0.248749 -0.137099 0.862000 9634058
-0.250260 -0.153814 0.873000 10293547
-0.249113 -0.148144 0.869000 10295088
-0.247967 -0.142519 0.865000 9837880
-0.247107 -0.137099 0.862000 8389911
-0.249167 -0.159167 0.875000 10028326
-0.248597 -0.153814 0.873000 10227759
-0.247458 -0.148144 0.869000 10229550
-0.246319 -0.142519 0.865000 10099265
-0.245465 -0.137099 0.862000 8587555
-0.244895 -0.131867 0.860000 8988676
-0.248349 -0.164730 0.878000 11164489
-0.247500 -0.159167 0.875000 9964079
-0.246934 -0.153814 0.873000 10162220
-0.245803 -0.148144 0.869000 10164781
-0.243823 -0.142025 0.862000 10426680
-0.243257 -0.136781 0.860000 8718622
-0.243257 -0.131867 0.860000 7537413
-0.243823 -0.127248 0.862000 9585202
-0.246676 -0.164730 0.878000 10694422
-0.245833 -0.159167 0.875000 10096696
-0.245271 -0.153814 0.873000 10162729
-0.244148 -0.148144 0.869000 10165803
-0.242181 -0.142025 0.862000 10360879
-0.241057 -0.136463 0.858000 9177368
-0.241057 -0.131560 0.858000 7996678
-0.242181 -0.127248 0.862000 8388869
-0.245004 -0.164730 0.878000 10223908
-0.244167 -0.159167 0.875000 10228020
-0.243050 -0.153462 0.871000 10163243
-0.241934 -0.147803 0.867000 10165807
-0.240539 -0.142025 0.862000 10294829
-0.239423 -0.136463 0.858000 9570331
-0.239423 -0.131560 0.858000 8455436
-0.240539 -0.127248 0.862000 7211025
-0.243331 -0.164730 0.878000 10160690
-0.243331 -0.159712 0.878000 10097969
-0.241391 -0.153462 0.871000 10098477
-0.240283 -0.147803 0.867000 10100787
-0.238897 -0.142025 0.862000 10426155
-0.237789 -0.136463 0.858000 9701149
-0.237789 -0.131560 0.858000 8587026
-0.238897 -0.127248 0.862000 7474205
-0.240837 -0.123315 0.869000 7673618
-0.240833 -0.164167 0.875000 10163508
-0.241659 -0.159712 0.878000 9967152
-0.239732 -0.153462 0.871000 10033966
-0.238631 -0.147803 0.867000 10034481
-0.237255 -0.142025 0.862000 10556715
-0.236154 -0.136463 0.858000 9832220
-0.236154 -0.131560 0.858000 8783122
-0.237255 -0.127248 0.862000 7735577
-0.239182 -0.123315 0.869000 6754839
-0.239732 -0.118622 0.871000 5316647
-0.239167 -0.164167 0.875000 10164022
-0.239167 -0.159167 0.875000 9966639
-0.238073 -0.153462 0.871000 10099246
-0.236980 -0.147803 0.867000 10099759
-0.235613 -0.142025 0.862000 10490410
-0.234520 -0.136463 0.858000 9897755
-0.234520 -0.131560 0.858000 8848657
-0.236433 -0.127690 0.865000 7865622
-0.238073 -0.123599 0.871000 7147035
-0.238073 -0.118622 0.871000 6363434
-0.237500 -0.164167 0.875000 10165811
-0.237500 -0.159167 0.875000 9966896
-0.235871 -0.153110 0.869000 10098990
-0.234786 -0.147462 0.865000 10099249
-0.233971 -0.142025 0.862000 10423850
-0.232343 -0.136145 0.856000 9963038
-0.232886 -0.131560 0.858000 8979731
-0.234786 -0.127690 0.865000 7997207
-0.236414 -0.123599 0.871000 7605268
-0.236957 -0.118894 0.873000 7345697
-0.237500 -0.114167 0.875000 3608849
-0.235833 -0.164167 0.875000 10164528
-0.235833 -0.159167 0.875000 9967410
-0.234216 -0.153110 0.869000 10098733
-0.233138 -0.147462 0.865000 10229810
-0.232330 -0.142025 0.862000 10489898
-0.230712 -0.136145 0.856000 10028065
-0.230712 -0.131253 0.856000 9111060
-0.233138 -0.127690 0.865000 8259863
-0.234755 -0.123599 0.871000 7735564
-0.235294 -0.118894 0.873000 7344921
-0.237181 -0.114819 0.880000 3870750
-0.234970 -0.164730 0.878000 10164273
-0.234167 -0.159167 0.875000 9901616
-0.232561 -0.153110 0.869000 10098730
-0.231490 -0.147462 0.865000 10295086
-0.230688 -0.142025 0.862000 10554921
-0.229082 -0.136145 0.856000 10028320
-0.229082 -0.131253 0.856000 9307155
-0.231490 -0.127690 0.865000 8455958
-0.233096 -0.123599 0.871000 7866127
-0.233631 -0.118894 0.873000 7343384
-0.234167 -0.114167 0.875000 4131612
-0.233297 -0.164730 0.878000 10164018
-0.232500 -0.159167 0.875000 10032175
-0.231437 -0.153462 0.871000 10163495
-0.229843 -0.147462 0.865000 10163242
-0.228514 -0.141695 0.860000 10620456
-0.227451 -0.136145 0.856000 10159136
-0.227451 -0.131253 0.856000 9438737
-0.230374 -0.127986 0.867000 8651797
-0.231969 -0.123883 0.873000 8062994
-0.231969 -0.118894 0.873000 7539479
-0.232500 -0.114167 0.875000 4263194
-0.231625 -0.164730 0.878000 10163506
-0.230833 -0.159167 0.875000 10097709
-0.229250 -0.153110 0.869000 10162730
-0.227404 -0.146950 0.862000 10032430
-0.226876 -0.141695 0.860000 10685484
-0.225821 -0.136145 0.856000 10224671
-0.226876 -0.131867 0.860000 9634837
-0.228723 -0.127986 0.867000 8783124
-0.230306 -0.123883 0.873000 8259345
-0.230306 -0.118894 0.873000 7735828
-0.230833 -0.114167 0.875000 4327195
-0.232152 -0.109790 0.880000 2232600
-0.229952 -0.164730 0.878000 10163762
-0.228643 -0.158803 0.873000 10162987
-0.227071 -0.152757 0.867000 10228780
-0.225762 -0.146950 0.862000 10229042
-0.224714 -0.141366 0.858000 10882608
-0.224190 -0.136145 0.856000 10289951
-0.225238 -0.131867 0.860000 9700376
-0.227071 -0.127986 0.867000 8914196
-0.228643 -0.123883 0.873000 8390415
-0.228643 -0.118894 0.873000 7932690
-0.229167 -0.114167 0.875000 4328220
-0.231000 -0.110040 0.882000 2035990
-0.240167 -0.088207 0.917000 5645345
-0.227500 -0.164167 0.875000 10229043
-0.226980 -0.158803 0.873000 10162987
-0.224900 -0.152405 0.865000 10294830
-0.223600 -0.146610 0.860000 10425395
-0.223080 -0.141366 0.858000 11079217
-0.222560 -0.136145 0.856000 10289952
-0.223080 -0.131560 0.858000 9765914
-0.225420 -0.127986 0.867000 9045015
-0.226980 -0.123883 0.873000 8521233
-0.226980 -0.118894 0.873000 8129554
-0.227500 -0.114167 0.875000 4327708
-0.229320 -0.110040 0.882000 1774103
-0.237900 -0.093243 0.915000 7807536
-0.238420 -0.088207 0.917000 7939118
-0.239200 -0.083238 0.920000 7550757
-0.227124 -0.170133 0.880000 9962059
-0.225833 -0.164167 0.875000 10229555
-0.225317 -0.158803 0.873000 10228524
-0.223252 -0.152405 0.865000 10295344
-0.223252 -0.147462 0.865000 10358837
-0.220930 -0.141036 0.856000 11210545
-0.220930 -0.136145 0.856000 10420514
-0.221446 -0.131560 0.858000 9831451
-0.223769 -0.127986 0.867000 9241626
-0.225317 -0.123883 0.873000 8717586
-0.225317 -0.118894 0.873000 8457745
-0.225833 -0.114167 0.875000 4197403
-0.228156 -0.110290 0.884000 1970456
-0.234350 -0.097718 0.908000 6889231
-0.235641 -0.093039 0.913000 7938626
-0.236673 -0.088207 0.917000 7740987
-0.237964 -0.083419 0.922000 8938518
-0.241835 -0.079422 0.937000 6365997
-0.243126 -0.074463 0.942000 4467252
-0.225448 -0.170133 0.880000 9900107
-0.224167 -0.164167 0.875000 10295855
-0.223142 -0.158439 0.871000 10294830
-0.221605 -0.152405 0.865000 10361393
-0.220324 -0.146610 0.860000 10228534
-0.219299 -0.141036 0.856000 11407666
-0.219299 -0.136145 0.856000 10486310
-0.219811 -0.131560 0.858000 9896990
-0.222117 -0.127986 0.867000 9372442
-0.223654 -0.123883 0.873000 8848403
-0.224167 -0.119167 0.875000 8784659
-0.223654 -0.113906 0.873000 4065051
-0.226472 -0.110290 0.884000 2166806
-0.231852 -0.097395 0.905000 7805198
-0.233133 -0.092733 0.910000 8016221
-0.234927 -0.088207 0.917000 7539253
-0.235695 -0.083238 0.920000 10248220
-0.239538 -0.079252 0.935000 7479085
-0.241331 -0.074463 0.942000 7678516
-0.242100 -0.069300 0.945000 3546132
-0.221991 -0.163791 0.873000 10295338
-0.221483 -0.158439 0.871000 10295345
-0.219957 -0.152405 0.865000 10360369
-0.218686 -0.146610 0.860000 11080248
-0.218177 -0.141366 0.858000 11407667
-0.217669 -0.136145 0.856000 10551851
-0.218686 -0.131867 0.860000 10028064
-0.220974 -0.128281 0.869000 9503514
-0.221991 -0.123883 0.873000 9045267
-0.221991 -0.118894 0.873000 8915989
-0.223263 -0.114558 0.878000 3803674
-0.225551 -0.110664 0.887000 1970197
-0.226060 -0.105833 0.889000 2233361
-0.230129 -0.097395 0.905000 8199436
-0.231400 -0.092733 0.910000 9274745
-0.233180 -0.088207 0.917000 8073775
-0.234451 -0.083419 0.922000 10254627
-0.237757 -0.079252 0.935000 7478061
-0.239029 -0.074305 0.940000 7743796
-0.241063 -0.069520 0.948000 5777959
-0.220329 -0.163791 0.873000 10294571
-0.219824 -0.158439 0.871000 10295089
-0.218814 -0.152757 0.867000 10359348
-0.217552 -0.146950 0.862000 11932989
-0.216543 -0.141366 0.858000 11471924
-0.216543 -0.136463 0.858000 10618152
-0.217552 -0.132173 0.862000 10159137
-0.219319 -0.128281 0.869000 9634588
-0.220329 -0.123883 0.873000 9307413
-0.220833 -0.119167 0.875000 9047059
-0.222095 -0.114819 0.880000 3605788
-0.223105 -0.110290 0.884000 1708051
-0.224367 -0.105833 0.889000 2168337
-0.227900 -0.097180 0.903000 8587026
-0.229667 -0.092733 0.910000 10519413
-0.230929 -0.088014 0.915000 8604744
-0.232695 -0.083419 0.922000 10183988
-0.235219 -0.078998 0.932000 7543334
-0.237238 -0.074305 0.940000 7808045
-0.238500 -0.069300 0.945000 8007719
-0.241024 -0.064576 0.955000 6236953
-0.218666 -0.163791 0.873000 10359852
-0.218165 -0.158439 0.871000 10425905
-0.216662 -0.152405 0.865000 10686519
-0.215910 -0.146950 0.862000 12131651
-0.214909 -0.141366 0.858000 11471669
-0.215410 -0.136781 0.860000 10750246
-0.215910 -0.132173 0.862000 10225441
-0.217664 -0.128281 0.869000 9831199
-0.218666 -0.123883 0.873000 9438487
-0.219167 -0.119167 0.875000 9179153
-0.220419 -0.114819 0.880000 3343901
-0.222172 -0.110664 0.887000 1707537
-0.222673 -0.105833 0.889000 1905681
-0.223926 -0.101320 0.894000 1967646
-0.226180 -0.097180 0.903000 8855576
-0.227933 -0.092733 0.910000 10649969
-0.229186 -0.088014 0.915000 8274016
-0.230438 -0.083238 0.920000 9531205
-0.232943 -0.078829 0.930000 7674654
-0.234696 -0.074068 0.937000 7610662
-0.236700 -0.069300 0.945000 7939879
-0.239205 -0.064576 0.955000 7754010
-0.241209 -0.059614 0.963000 5717530
-0.217003 -0.163791 0.873000 10425657
-0.216506 -0.158439 0.871000 10490675
-0.215511 -0.152757 0.867000 11079478
-0.214269 -0.146950 0.862000 12325942
-0.213771 -0.141695 0.860000 11405103
-0.213771 -0.136781 0.860000 10881576
-0.215014 -0.132633 0.865000 10357293
-0.216506 -0.128576 0.871000 9963039
-0.217003 -0.123883 0.873000 9569559
-0.217500 -0.119167 0.875000 9310227
-0.218743 -0.114819 0.880000 3015454
-0.220483 -0.110664 0.887000 1708307
-0.220980 -0.105833 0.889000 1708819
-0.222720 -0.101547 0.896000 1968415
-0.224460 -0.097180 0.903000 9049636
-0.226200 -0.092733 0.910000 10713718
-0.226946 -0.087822 0.913000 7950189
-0.228686 -0.083238 0.920000 8868655
-0.231171 -0.078829 0.930000 7868696
-0.232911 -0.074068 0.937000 7412767
-0.235646 -0.069520 0.948000 7873576
-0.237386 -0.064576 0.955000 9191967
-0.239374 -0.059614 0.963000 8482337
-0.241611 -0.054617 0.972000 405273
-0.241611 -0.049063 0.972000 8478784
-0.215340 -0.163791 0.873000 10423878
-0.214847 -0.158439 0.871000 10817590
-0.213860 -0.152757 0.867000 11342133
-0.212627 -0.146950 0.862000 11931432
-0.212627 -0.142025 0.862000 11274280
-0.212627 -0.137099 0.862000 10750506
-0.213860 -0.132940 0.867000 10422840
-0.214847 -0.128576 0.871000 10160415
-0.215340 -0.123883 0.873000 9766679
-0.215833 -0.119167 0.875000 9507349
-0.217067 -0.114819 0.880000 2426911
-0.218793 -0.110664 0.887000 1905429
-0.219287 -0.105833 0.889000 1904917
-0.221013 -0.101547 0.896000 2165024
-0.222740 -0.097180 0.903000 9186864
-0.223973 -0.092530 0.908000 10382715
-0.225207 -0.087822 0.913000 8409466
-0.226933 -0.083238 0.920000 8936986
-0.229400 -0.078829 0.930000 8603153
-0.230633 -0.073910 0.935000 7411479
-0.233100 -0.069300 0.945000 7873064
-0.235567 -0.064576 0.955000 8989989
-0.237540 -0.059614 0.963000 9269543
-0.239020 -0.054449 0.969000 5463858
-0.239760 -0.049063 0.972000 5649665
-0.213677 -0.163791 0.873000 10487613
-0.213188 -0.158439 0.871000 11080242
-0.212209 -0.152757 0.867000 11604018
-0.210985 -0.146950 0.862000 11537194
-0.210985 -0.142025 0.862000 11142952
-0.211719 -0.137576 0.865000 10553129
-0.212209 -0.132940 0.867000 10553904
-0.213188 -0.128576 0.871000 10357282
-0.213677 -0.123883 0.873000 9963804
-0.213677 -0.118894 0.873000 9637651
-0.215390 -0.114819 0.880000 1837856
-0.217104 -0.110664 0.887000 2035734
-0.217593 -0.105833 0.889000 2101269
-0.218817 -0.101320 0.894000 2296344
-0.221020 -0.097180 0.903000 9254964
-0.222244 -0.092530 0.908000 9987707
-0.222733 -0.087533 0.910000 8944504
-0.224447 -0.082967 0.917000 8932126
-0.227629 -0.078829 0.930000 9395470
-0.228852 -0.073910 0.935000 7350042
-0.231300 -0.069300 0.945000 7873065
-0.232524 -0.064238 0.950000 8730145
-0.235706 -0.059614 0.963000 10052910
-0.237174 -0.054449 0.969000 10449199
-0.237909 -0.049063 0.972000 2829867
-0.211529 -0.158439 0.871000 11079983
-0.210557 -0.152757 0.867000 11406895
-0.209343 -0.146950 0.862000 11339820
-0.209343 -0.142025 0.862000 11077927
-0.210071 -0.137576 0.865000 10618408
-0.210557 -0.132940 0.867000 10488359
-0.211529 -0.128576 0.871000 10488869
-0.212014 -0.123883 0.873000 10226721
-0.212014 -0.118894 0.873000 8129553
-0.213714 -0.114819 0.880000 1575712
-0.215414 -0.110664 0.887000 2035480
-0.215900 -0.105833 0.889000 2232085
-0.216386 -0.100980 0.891000 2427152
-0.218814 -0.096965 0.901000 9520439
-0.220514 -0.092530 0.908000 10184316
-0.221000 -0.087533 0.910000 8936565
-0.222700 -0.082967 0.917000 9858850
-0.225857 -0.078829 0.930000 9592074
-0.227071 -0.073910 0.935000 7345438
-0.228771 -0.069080 0.942000 8469034
-0.230714 -0.064238 0.950000 8865821
-0.233871 -0.059614 0.963000 9128756
-0.235329 -0.054449 0.969000 10583340
-0.236057 -0.049063 0.972000 6248789
-0.209870 -0.158439 0.871000 11081793
-0.208424 -0.152405 0.865000 11209770
-0.208424 -0.147462 0.865000 11143470
-0.208424 -0.142519 0.865000 10946601
-0.208424 -0.137576 0.865000 10618918
-0.208906 -0.132940 0.867000 10422566
-0.210351 -0.128871 0.873000 10553895
-0.210351 -0.123883 0.873000 10423599
-0.210833 -0.119167 0.875000 6623510
-0.212520 -0.115080 0.882000 1313816
-0.214207 -0.110913 0.889000 2035990
-0.214207 -0.105833 0.889000 2363413
-0.214689 -0.100980 0.891000 2557712
-0.217098 -0.096965 0.901000 9790022
-0.218785 -0.092530 0.908000 10317195
-0.219267 -0.087533 0.910000 9007472
-0.220953 -0.082967 0.917000 10770983
-0.223363 -0.078574 0.927000 9789210
-0.224568 -0.073672 0.932000 7350803
-0.226495 -0.068933 0.940000 8996146
-0.228423 -0.064103 0.948000 9000494
-0.231555 -0.059490 0.961000 8271919
-0.232037 -0.054111 0.963000 10707746
-0.234206 -0.049063 0.972000 9671489
-0.234206 -0.043509 0.972000 204841
-0.206776 -0.152405 0.865000 11013925
-0.205581 -0.146610 0.860000 10947120
-0.206059 -0.142025 0.862000 10815786
-0.206776 -0.137576 0.865000 10618661
-0.207254 -0.132940 0.867000 10422564
-0.208689 -0.128871 0.873000 10488360
-0.209167 -0.124167 0.875000 10033212
-0.208689 -0.118894 0.873000 4000540
-0.210362 -0.114819 0.880000 1576975
-0.212035 -0.110664 0.887000 1839637
-0.212513 -0.105833 0.889000 2232085
-0.212513 -0.100753 0.889000 2098192
-0.214665 -0.096642 0.898000 10115412
-0.216338 -0.092224 0.905000 10517658
-0.217055 -0.087341 0.908000 9129066
-0.218729 -0.082786 0.915000 11040556
-0.221597 -0.078574 0.927000 9656617
-0.222792 -0.073672 0.932000 7281928
-0.224705 -0.068933 0.940000 8667705
-0.226617 -0.064103 0.948000 8804160
-0.229008 -0.059305 0.958000 7815210
-0.230203 -0.054111 0.963000 8993561
-0.231637 -0.048911 0.969000 10062380
-0.232354 -0.043509 0.972000 4665937
-0.203943 -0.146610 0.860000 10684207
-0.205603 -0.142849 0.867000 10684977
-0.205603 -0.137894 0.867000 10619686
-0.206077 -0.133247 0.869000 10488101
-0.207026 -0.128871 0.873000 10423079
-0.208211 -0.124592 0.878000 9708072
-0.207026 -0.118894 0.873000 1316390
-0.209160 -0.115080 0.882000 1905435
-0.210820 -0.110913 0.889000 1642774
-0.210820 -0.105833 0.889000 2101269
-0.211294 -0.100980 0.891000 1574673
-0.213666 -0.096965 0.901000 10509144
-0.214614 -0.092224 0.905000 10649251
-0.215326 -0.087341 0.908000 9261921
-0.216511 -0.082605 0.913000 11302198
-0.218646 -0.078150 0.922000 9527339
-0.219831 -0.073277 0.927000 7219989
-0.222203 -0.068713 0.937000 8402477
-0.224100 -0.063900 0.945000 8604202
-0.225997 -0.058995 0.953000 7423524
-0.227183 -0.053830 0.958000 7288868
-0.229080 -0.048760 0.966000 10447405
-0.230503 -0.043509 0.972000 9136214
-0.202305 -0.146610 0.860000 10552623
-0.204422 -0.143178 0.869000 10554167
-0.205363 -0.138849 0.873000 10488872
-0.204892 -0.133553 0.871000 10488357
-0.205833 -0.129167 0.875000 10620197
-0.206539 -0.124592 0.878000 7804948
-0.206539 -0.119575 0.878000 2105905
-0.207950 -0.115341 0.884000 2037287
-0.208656 -0.110664 0.887000 1708056
-0.209127 -0.105833 0.889000 2035989
-0.210303 -0.101320 0.894000 1114899
-0.211244 -0.096642 0.898000 10512219
-0.212890 -0.092224 0.905000 10779821
-0.213596 -0.087341 0.908000 9386839
-0.214772 -0.082605 0.913000 11571775
-0.216890 -0.078150 0.922000 9724716
-0.218066 -0.073277 0.927000 7476515
-0.219948 -0.068567 0.935000 7812129
-0.221594 -0.063697 0.942000 8072213
-0.223476 -0.058810 0.950000 7554078
-0.225358 -0.053830 0.958000 7812656
-0.227240 -0.048760 0.966000 9388846
-0.228651 -0.043509 0.972000 10133084
-0.229828 -0.038150 0.977000 3418625
-0.202767 -0.143178 0.869000 10487864
-0.203233 -0.138530 0.871000 10358823
-0.203233 -0.133553 0.871000 10553894
-0.204167 -0.129167 0.875000 10753305
-0.204867 -0.124592 0.878000 5969439
-0.205800 -0.120120 0.882000 2891313
-0.205800 -0.115080 0.882000 2168873
-0.206967 -0.110664 0.887000 1708313
-0.207433 -0.105833 0.889000 1970450
-0.208600 -0.101320 0.894000 656912
-0.209533 -0.096642 0.898000 10577236
-0.211167 -0.092224 0.905000 10910614
-0.211867 -0.087341 0.908000 9514067
-0.213033 -0.082605 0.913000 11762482
-0.214667 -0.077981 0.920000 9852715
-0.216300 -0.073277 0.927000 7679009
-0.217467 -0.068347 0.932000 7288098
-0.219333 -0.063562 0.940000 7483430
-0.221200 -0.058686 0.948000 7687714
-0.222833 -0.053662 0.955000 8276023
-0.225400 -0.048760 0.966000 8277028
-0.226800 -0.043509 0.972000 11038033
-0.226800 -0.037954 0.972000 5393204
-0.201111 -0.143178 0.869000 10365752
-0.201574 -0.138530 0.871000 10294310
-0.201574 -0.133553 0.871000 10491430
-0.202500 -0.129167 0.875000 9838094
-0.203657 -0.124876 0.880000 4263977
-0.204583 -0.120392 0.884000 2826801
-0.204583 -0.115341 0.884000 2300458
-0.205277 -0.110664 0.887000 1577242
-0.205740 -0.105833 0.889000 1970702
-0.206897 -0.101320 0.894000 852749
-0.207823 -0.096642 0.898000 9847116
-0.209443 -0.092224 0.905000 10582143
-0.210137 -0.087341 0.908000 9846350
-0.211294 -0.082605 0.913000 11172133
-0.212914 -0.077981 0.920000 9918249
-0.214534 -0.073277 0.927000 7810848
-0.216386 -0.068567 0.935000 7547682
-0.217543 -0.063562 0.940000 7355190
-0.219394 -0.058686 0.948000 7094565
-0.221014 -0.053662 0.955000 8341567
-0.222866 -0.048609 0.963000 8870425
-0.224254 -0.043374 0.969000 9522759
-0.225411 -0.038032 0.974000 7562855
-0.199915 -0.133553 0.871000 10496047
-0.201522 -0.129610 0.878000 8919583
-0.201981 -0.124876 0.880000 2559017
-0.202899 -0.120392 0.884000 2760237
-0.202899 -0.115341 0.884000 2431785
-0.203588 -0.110664 0.887000 1381404
-0.204047 -0.105833 0.889000 1971475
-0.205194 -0.101320 0.894000 1050388
-0.206801 -0.096965 0.901000 9178664
-0.207719 -0.092224 0.905000 10182232
-0.208408 -0.087341 0.908000 10107979
-0.209555 -0.082605 0.913000 10584615
-0.211162 -0.077981 0.920000 9984561
-0.212310 -0.073119 0.925000 7940894
-0.213916 -0.068347 0.932000 7873568
-0.215064 -0.063359 0.937000 7223596
-0.217589 -0.058686 0.948000 6568480
-0.218736 -0.053550 0.953000 8404783
-0.221031 -0.048609 0.963000 9531199
-0.222409 -0.043374 0.969000 8009526
-0.223556 -0.038032 0.974000 9797180
-0.224245 -0.032567 0.977000 2626589
-0.199167 -0.129167 0.875000 5440305
-0.200760 -0.125160 0.882000 2625832
-0.201898 -0.120801 0.887000 2628906
-0.201215 -0.115341 0.884000 2497575
-0.201898 -0.110664 0.887000 1840415
-0.202353 -0.105833 0.889000 2037015
-0.203491 -0.101320 0.894000 1115163
-0.205085 -0.096965 0.901000 8720643
-0.205995 -0.092224 0.905000 9977649
-0.206678 -0.087341 0.908000 10040648
-0.207816 -0.082605 0.913000 11446056
-0.209410 -0.077981 0.920000 10575161
-0.210548 -0.073119 0.925000 8064796
-0.212141 -0.068347 0.932000 8069150
-0.213279 -0.063359 0.937000 7419169
-0.215100 -0.058500 0.945000 5850651
-0.216921 -0.053550 0.953000 6756640
-0.219197 -0.048609 0.963000 9529700
-0.220563 -0.043374 0.969000 8068902
-0.221701 -0.038032 0.974000 9662224
-0.222384 -0.032567 0.977000 3541817
-0.197049 -0.128871 0.873000 1969201
-0.199080 -0.125160 0.882000 2757154
-0.200209 -0.120801 0.887000 2497321
-0.200209 -0.115732 0.887000 2497831
-0.200209 -0.110664 0.887000 2234657
-0.200660 -0.105833 0.889000 2102555
-0.202240 -0.101547 0.896000 1182232
-0.202691 -0.096642 0.898000 8199440
-0.204271 -0.092224 0.905000 9705255
-0.204949 -0.087341 0.908000 9962819
-0.206077 -0.082605 0.913000 12286514
-0.207657 -0.077981 0.920000 11243048
-0.208786 -0.073119 0.925000 8200987
-0.210366 -0.068347 0.932000 8330021
-0.211494 -0.063359 0.937000 7549220
-0.213300 -0.058500 0.945000 5066538
-0.214429 -0.053381 0.950000 5122854
-0.216911 -0.048508 0.961000 9599542
-0.218717 -0.043374 0.969000 8070688
-0.219394 -0.037954 0.972000 9589023
-0.220523 -0.032567 0.977000 4402997
-0.221877 -0.027150 0.983000 1838597
-0.194938 -0.128576 0.871000 2497072
-0.197400 -0.125160 0.882000 2627355
-0.198519 -0.120801 0.887000 2366504
-0.198519 -0.115732 0.887000 2431526
-0.198519 -0.110664 0.887000 2300708
-0.199414 -0.106071 0.891000 2102559
-0.200533 -0.101547 0.896000 1772566
-0.201652 -0.096965 0.901000 6819869
-0.202548 -0.092224 0.905000 9635101
-0.203219 -0.087341 0.908000 10299197
-0.204786 -0.082786 0.915000 11893819
-0.205905 -0.077981 0.920000 11239447
-0.207024 -0.073119 0.925000 8192282
-0.208590 -0.068347 0.932000 8329260
-0.209262 -0.063224 0.935000 7809320
-0.211500 -0.058500 0.945000 4869688
-0.212171 -0.053269 0.948000 4795691
-0.214410 -0.048356 0.958000 8932872
-0.216200 -0.043240 0.966000 8001051
-0.217543 -0.037954 0.972000 8664366
-0.218662 -0.032567 0.977000 6309681
-0.193279 -0.128576 0.871000 3020587
-0.196830 -0.125870 0.887000 2562597
-0.196830 -0.120801 0.887000 2234918
-0.197273 -0.115993 0.889000 2365732
-0.197273 -0.110913 0.889000 2366246
-0.197717 -0.106071 0.891000 2168353
-0.198827 -0.101547 0.896000 2363672
-0.199270 -0.096642 0.898000 5442069
-0.200824 -0.092224 0.905000 9571103
-0.201490 -0.087341 0.908000 10623044
-0.203043 -0.082786 0.915000 11499576
-0.204152 -0.077981 0.920000 11240217
-0.205262 -0.073119 0.925000 8142647
-0.206815 -0.068347 0.932000 8395293
-0.207925 -0.063359 0.937000 8073003
-0.209700 -0.058500 0.945000 4608052
-0.210810 -0.053381 0.950000 4404267
-0.212585 -0.048356 0.958000 8270877
-0.214360 -0.043240 0.966000 7871769
-0.215691 -0.037954 0.972000 7742506
-0.216801 -0.032567 0.977000 8141872
-0.191620 -0.128576 0.871000 2102566
-0.195140 -0.125870 0.887000 2693679
-0.195580 -0.121073 0.889000 2365733
-0.196020 -0.116254 0.891000 2299938
-0.196020 -0.111163 0.891000 2366248
-0.196680 -0.106429 0.894000 2365219
-0.197120 -0.101547 0.896000 2232858
-0.198220 -0.096965 0.901000 4983565
-0.199760 -0.092530 0.908000 9572386
-0.199760 -0.087341 0.908000 11228490
-0.201300 -0.082786 0.915000 10969653
-0.202400 -0.077981 0.920000 11767066
-0.203500 -0.073119 0.925000 10645333
-0.205040 -0.068347 0.932000 8792334
-0.206140 -0.063359 0.937000 8205870
-0.207900 -0.058500 0.945000 4412719
-0.208560 -0.053269 0.948000 3487276
-0.210760 -0.048356 0.958000 7415857
-0.212520 -0.043240 0.966000 7736344
-0.213180 -0.037837 0.969000 7675942
-0.214280 -0.032467 0.974000 8273199
-0.189961 -0.128576 0.871000 1125178
-0.193450 -0.125870 0.887000 2890541
-0.193887 -0.121073 0.889000 2431782
-0.194977 -0.116646 0.894000 2168610
-0.194977 -0.111537 0.894000 2365987
-0.194977 -0.106429 0.894000 2627621
-0.195413 -0.101547 0.896000 2036764
-0.195850 -0.096642 0.898000 4457751
-0.198030 -0.092530 0.908000 9572380
-0.198467 -0.087533 0.910000 11900217
-0.199557 -0.082786 0.915000 10378282
-0.201084 -0.078150 0.922000 12228878
-0.201738 -0.073119 0.925000 13079666
-0.203265 -0.068347 0.932000 9182285
-0.203919 -0.063224 0.935000 8335653
-0.206100 -0.058500 0.945000 4284208
-0.207190 -0.053381 0.950000 2504486
-0.208281 -0.048205 0.955000 6633263
-0.209590 -0.043016 0.961000 7547688
-0.211334 -0.037837 0.969000 7675433
-0.213079 -0.032567 0.977000 8339240
-0.192193 -0.121073 0.889000 2629415
-0.193274 -0.116646 0.894000 2234658
-0.193707 -0.111787 0.896000 2234654
-0.193707 -0.106667 0.896000 2497062
-0.193707 -0.101547 0.896000 2233886
-0.194139 -0.096642 0.898000 3082529
-0.196733 -0.092733 0.910000 9636629
-0.197382 -0.087822 0.913000 12357416
-0.197814 -0.082786 0.915000 9776159
-0.199328 -0.078150 0.922000 11824641
-0.199976 -0.073119 0.925000 13417104
-0.201490 -0.068347 0.932000 10577803
-0.202138 -0.063224 0.935000 8464669
-0.204300 -0.058500 0.945000 4544561
-0.204949 -0.053269 0.948000 2634016
-0.206462 -0.048205 0.955000 6181164
-0.207759 -0.043016 0.961000 7694135
-0.209489 -0.037837 0.969000 7219500
-0.210570 -0.032467 0.974000 7878690
-0.190500 -0.121073 0.889000 2760226
-0.192000 -0.116907 0.896000 2365989
-0.192429 -0.112036 0.898000 2037792
-0.192000 -0.106667 0.896000 2300709
-0.192429 -0.101773 0.898000 2365985
-0.192429 -0.096642 0.898000 1774370
-0.195000 -0.092733 0.910000 9638422
-0.196071 -0.088014 0.915000 12823632
-0.196500 -0.082967 0.917000 9120795
-0.197571 -0.078150 0.922000 11493959
-0.198214 -0.073119 0.925000 13681486
-0.199714 -0.068347 0.932000 12033903
-0.200357 -0.063224 0.935000 8608060
-0.202500 -0.058500 0.945000 4874286
-0.203143 -0.053269 0.948000 2765612
-0.204214 -0.048104 0.953000 5790010
-0.205929 -0.043016 0.961000 7824958
-0.207643 -0.037837 0.969000 6765098
-0.208714 -0.032467 0.974000 7352869
-0.190293 -0.116907 0.896000 2497063
-0.190718 -0.112036 0.898000 2102819
-0.190718 -0.106905 0.898000 2234660
-0.191355 -0.102113 0.901000 2431781
-0.190718 -0.096642 0.898000 1840162
-0.193904 -0.093039 0.913000 7209239
-0.194329 -0.088014 0.915000 11965815
-0.194753 -0.082967 0.917000 9175319
-0.195815 -0.078150 0.922000 11960460
-0.196877 -0.073277 0.927000 13285900
-0.197939 -0.068347 0.932000 10979922
-0.199001 -0.063359 0.937000 8622939
-0.200700 -0.058500 0.945000 5396266
-0.201337 -0.053269 0.948000 4076600
-0.202399 -0.048104 0.953000 6766919
-0.204098 -0.043016 0.961000 7819589
-0.205797 -0.037837 0.969000 7418151
-0.206859 -0.032467 0.974000 7548200
-0.189008 -0.117168 0.898000 2693934
-0.189639 -0.112410 0.901000 2168868
-0.189639 -0.107262 0.901000 2233891
-0.190060 -0.102340 0.903000 2497574
-0.191112 -0.097718 0.908000 1907493
-0.192165 -0.093039 0.913000 4720921
-0.192586 -0.088014 0.915000 11174206
-0.193638 -0.083238 0.920000 9185336
-0.194690 -0.078405 0.925000 12431225
-0.195111 -0.073277 0.927000 12813857
-0.196164 -0.068347 0.932000 9993017
-0.197216 -0.063359 0.937000 8610376
-0.198900 -0.058500 0.945000 5915964
-0.199531 -0.053269 0.948000 5389105
-0.201005 -0.048205 0.955000 7740481
-0.202268 -0.043016 0.961000 7813173
-0.203951 -0.037837 0.969000 8004890
-0.205004 -0.032467 0.974000 7746073
-0.187297 -0.117168 0.898000 2629172
-0.188340 -0.112660 0.903000 2234661
-0.188757 -0.107738 0.905000 2103073
-0.188757 -0.102567 0.905000 2825256
-0.189383 -0.097718 0.908000 2235175
-0.190426 -0.093039 0.913000 2818332
-0.191260 -0.088207 0.917000 9773572
-0.191886 -0.083238 0.920000 11298138
-0.192929 -0.078405 0.925000 12751973
-0.193971 -0.073514 0.930000 12287031
-0.195014 -0.068567 0.935000 9464608
-0.195431 -0.063359 0.937000 8856374
-0.197100 -0.058500 0.945000 7160398
-0.197726 -0.053269 0.948000 6502955
-0.198769 -0.048104 0.953000 9060154
-0.200437 -0.043016 0.961000 8067110
-0.202106 -0.037837 0.969000 8329484
-0.203149 -0.032467 0.974000 9196554
-0.187653 -0.113284 0.908000 2234924
-0.187653 -0.108095 0.908000 2037281
-0.187653 -0.102907 0.908000 3086886
-0.187653 -0.097718 0.908000 2563365
-0.188687 -0.093039 0.913000 920866
-0.189513 -0.088207 0.917000 8455427
-0.190547 -0.083419 0.922000 13404507
-0.191167 -0.078405 0.925000 13138763
-0.192200 -0.073514 0.930000 11765063
-0.192613 -0.068347 0.932000 8933163
-0.193647 -0.063359 0.937000 9120055
-0.195300 -0.058500 0.945000 8466242
-0.196333 -0.053381 0.950000 7614265
-0.197367 -0.048205 0.955000 10449532
-0.198607 -0.043016 0.961000 8265523
-0.200260 -0.037837 0.969000 8589339
-0.200880 -0.032400 0.972000 10576925
-0.186333 -0.113533 0.910000 2562611
-0.185924 -0.108095 0.908000 2168608
-0.185924 -0.102907 0.908000 2824229
-0.186333 -0.097933 0.910000 2563618
-0.186948 -0.093039 0.913000 1905448
-0.187767 -0.088207 0.917000 7413250
-0.188790 -0.083419 0.922000 14007133
-0.189405 -0.078405 0.925000 12950065
-0.190429 -0.073514 0.930000 11239254
-0.191452 -0.068567 0.935000 9055286
-0.192476 -0.063562 0.940000 9580344
-0.193500 -0.058500 0.945000 8934709
-0.194114 -0.053269 0.948000 9178951
-0.195548 -0.048205 0.955000 11768766
-0.196776 -0.043016 0.961000 8524609
-0.198414 -0.037837 0.969000 8853290
-0.199029 -0.032400 0.972000 10848048
-0.184600 -0.113533 0.910000 2824493
-0.184600 -0.108333 0.910000 2299943
-0.184600 -0.103133 0.910000 2562079
