# .PCD v.7 - Point Cloud Data file format
VERSION .7
FIELDS x y z rgb
SIZE 4 4 4 4
TYPE F F F I
COUNT 1 1 1 1
WIDTH 1291
HEIGHT 1
POINTS 1291
DATA ascii
-0.267681 -0.080704 0.839000 2233891
-0.267681 -0.075910 0.839000 1576990
-0.268319 -0.071285 0.841000 1641747
-0.268319 -0.066479 0.841000 1769743
-0.268957 -0.061820 0.843000 9308161
-0.270552 -0.057341 0.848000 9830677
-0.270552 -0.052495 0.848000 10108537
-0.271190 -0.047762 0.850000 9437441
-0.271829 -0.043006 0.852000 11827735
-0.272467 -0.038227 0.854000 9645348
-0.273105 -0.033425 0.856000 11565615
-0.273743 -0.028600 0.858000 8192281
-0.273743 -0.023697 0.858000 8587779
-0.275019 -0.018882 0.862000 8589067
-0.275019 -0.013956 0.862000 7806223
-0.275976 -0.009062 0.865000 4805169
-0.276614 -0.004129 0.867000 3754282
-0.277252 0.000828 0.869000 3552275
-0.278529 0.005820 0.873000 6496523
-0.278529 0.010809 0.873000 7938066
-0.279167 0.015833 0.875000 7866882
-0.280124 0.020905 0.878000 7931150
-0.280762 0.025981 0.880000 7932678
-0.282038 0.031150 0.884000 7937038
-0.265449 -0.118774 0.837000 10551898
-0.266717 -0.114536 0.841000 10552887
-0.266717 -0.109730 0.841000 10882844
-0.266083 -0.104675 0.839000 10816289
-0.266083 -0.099881 0.839000 10881564
-0.266083 -0.095087 0.839000 3087146
-0.266717 -0.090508 0.841000 4075069
-0.266717 -0.085702 0.841000 4862011
-0.266717 -0.080896 0.841000 2562092
-0.266717 -0.076090 0.841000 1643296
-0.266717 -0.071285 0.841000 1642772
-0.267351 -0.066637 0.843000 1115409
-0.267351 -0.061820 0.843000 8587783
-0.268937 -0.057341 0.848000 9044503
-0.268937 -0.052495 0.848000 9634117
-0.269571 -0.047762 0.850000 9777941
-0.270206 -0.043006 0.852000 11626261
-0.270840 -0.038227 0.854000 10892062
-0.271474 -0.033425 0.856000 11174710
-0.272109 -0.028600 0.858000 8061483
-0.272109 -0.023697 0.858000 8586754
-0.272743 -0.018838 0.860000 8785162
-0.273377 -0.013956 0.862000 7543843
-0.274329 -0.009062 0.865000 5067566
-0.274963 -0.004129 0.867000 3489581
-0.275597 0.000828 0.869000 3420694
-0.276231 0.005807 0.871000 5191696
-0.276866 0.010809 0.873000 7616545
-0.277500 0.015833 0.875000 7933489
-0.278451 0.020905 0.878000 7871511
-0.279086 0.025981 0.880000 7802387
-0.280354 0.031150 0.884000 8067599
-0.265746 -0.114809 0.843000 11010377
-0.265115 -0.109730 0.841000 10683921
-0.265115 -0.104925 0.841000 10553640
-0.265115 -0.100119 0.841000 10294562
-0.264485 -0.095087 0.839000 2887216
-0.265115 -0.090508 0.841000 3680824
-0.265115 -0.085702 0.841000 4140857
-0.265115 -0.080896 0.841000 2760756
-0.265115 -0.076090 0.841000 1906210
-0.265115 -0.071285 0.841000 1774101
-0.266376 -0.066795 0.845000 1705235
-0.265746 -0.061820 0.843000 7013900
-0.267322 -0.057341 0.848000 9306905
-0.267322 -0.052495 0.848000 9503505
-0.267952 -0.047762 0.850000 10112809
-0.268583 -0.043006 0.852000 11764242
-0.269844 -0.038316 0.856000 11152919
-0.269844 -0.033425 0.856000 11042620
-0.270474 -0.028600 0.858000 10027325
-0.270474 -0.023697 0.858000 9518593
-0.271735 -0.018882 0.862000 8915210
-0.272681 -0.014005 0.865000 7808567
-0.272681 -0.009062 0.865000 4806187
-0.273311 -0.004129 0.867000 3290927
-0.273942 0.000828 0.869000 2697497
-0.274572 0.005807 0.871000 4737045
-0.275203 0.010809 0.873000 7892528
-0.276779 0.015888 0.878000 8217952
-0.276779 0.020905 0.878000 7622433
-0.277410 0.025981 0.880000 7280928
-0.278670 0.031150 0.884000 8264209
-0.264140 -0.114809 0.843000 11494532
-0.264140 -0.109991 0.843000 10486617
-0.264140 -0.105174 0.843000 10225471
-0.264140 -0.100357 0.843000 9772573
-0.263513 -0.095313 0.841000 2626345
-0.262887 -0.090292 0.839000 3285557
-0.263513 -0.085702 0.841000 3352630
-0.263513 -0.080896 0.841000 2958389
-0.263513 -0.076090 0.841000 2103332
-0.264140 -0.071454 0.843000 1905944
-0.264767 -0.066795 0.845000 2231316
-0.264767 -0.061967 0.845000 5374998
-0.265707 -0.057341 0.848000 9504530
-0.266333 -0.052619 0.850000 9438997
-0.266333 -0.047762 0.850000 10372652
-0.266960 -0.043006 0.852000 11900965
-0.268213 -0.038316 0.856000 11432740
-0.268213 -0.033425 0.856000 10912809
-0.268840 -0.028600 0.858000 12016209
-0.268840 -0.023697 0.858000 10451020
-0.270093 -0.018882 0.862000 8979741
-0.271033 -0.014005 0.865000 8130351
-0.271033 -0.009062 0.865000 4481589
-0.271660 -0.004129 0.867000 3093041
-0.272287 0.000828 0.869000 1911843
-0.272913 0.005807 0.871000 4281112
-0.273540 0.010809 0.873000 8087603
-0.275107 0.015888 0.878000 8552275
-0.275107 0.020905 0.878000 7292703
-0.275733 0.025981 0.880000 6825237
-0.276360 0.031080 0.882000 8393489
-0.262534 -0.109991 0.843000 11693472
-0.262534 -0.105174 0.843000 11142998
-0.263157 -0.100595 0.845000 7672600
-0.261911 -0.095313 0.841000 3020322
-0.261289 -0.090292 0.839000 3154225
-0.261911 -0.085702 0.841000 3023667
-0.261911 -0.080896 0.841000 3154486
-0.261911 -0.076090 0.841000 2431527
-0.262534 -0.071454 0.843000 2103067
-0.264091 -0.067032 0.848000 2231828
-0.263157 -0.061967 0.845000 3802911
-0.264091 -0.057341 0.848000 9964043
-0.264714 -0.052619 0.850000 9438745
-0.264714 -0.047762 0.850000 11689776
-0.265337 -0.043006 0.852000 11896120
-0.266583 -0.038316 0.856000 11704370
-0.266583 -0.033425 0.856000 11561237
-0.267206 -0.028600 0.858000 13419109
-0.267829 -0.023752 0.860000 12030359
-0.268451 -0.018882 0.862000 9045041
-0.269386 -0.014005 0.865000 8402214
-0.270009 -0.009083 0.867000 4812095
-0.270009 -0.004129 0.867000 3622194
-0.270631 0.000828 0.869000 2307374
-0.271254 0.005807 0.871000 5784858
-0.271877 0.010809 0.873000 7755831
-0.273434 0.015888 0.878000 8409925
-0.273434 0.020905 0.878000 7607580
-0.274057 0.025981 0.880000 7806986
-0.274680 0.031080 0.882000 8587794
-0.260929 -0.109991 0.843000 12958641
-0.260929 -0.105174 0.843000 12087950
-0.262476 -0.100952 0.848000 5578597
-0.260929 -0.095540 0.843000 3412017
-0.260310 -0.080896 0.841000 3350066
-0.261548 -0.076452 0.845000 2759722
-0.262476 -0.071878 0.848000 2299938
-0.262476 -0.067032 0.848000 2167576
-0.261548 -0.061967 0.845000 2297883
-0.262476 -0.057341 0.848000 10357774
-0.263095 -0.052619 0.850000 9505302
-0.263095 -0.047762 0.850000 12935454
-0.263714 -0.043006 0.852000 11829306
-0.264952 -0.038316 0.856000 11947033
-0.264952 -0.033425 0.856000 12276747
-0.265571 -0.028600 0.858000 14794334
-0.266190 -0.023752 0.860000 13609804
-0.266810 -0.018882 0.862000 9059383
-0.267738 -0.014005 0.865000 8739411
-0.267738 -0.009062 0.865000 5072704
-0.268357 -0.004129 0.867000 4151610
-0.268976 0.000828 0.869000 2699813
-0.269595 0.005807 0.871000 7287313
-0.270833 0.010833 0.875000 7423521
-0.271762 0.015888 0.878000 8204858
-0.271762 0.020905 0.878000 7932701
-0.272381 0.025981 0.880000 8789270
-0.273619 0.031150 0.884000 8797456
-0.260861 -0.100952 0.848000 8745393
-0.259938 -0.076452 0.845000 2825006
-0.260861 -0.071878 0.848000 2299945
-0.260861 -0.067032 0.848000 2167835
-0.260861 -0.062187 0.848000 2232087
-0.261476 -0.057476 0.850000 7605009
-0.261476 -0.052619 0.850000 9964306
-0.262091 -0.047874 0.852000 13003788
-0.262707 -0.043107 0.854000 11495739
-0.263322 -0.038316 0.856000 10944769
-0.263322 -0.033425 0.856000 12414977
-0.263937 -0.028600 0.858000 13873496
-0.264552 -0.023752 0.860000 13212161
-0.265168 -0.018882 0.862000 8737341
-0.266090 -0.014005 0.865000 8483200
-0.266090 -0.009062 0.865000 6310465
-0.266706 -0.004129 0.867000 5003073
-0.267321 0.000828 0.869000 5451037
-0.267936 0.005807 0.871000 8329991
-0.268551 0.010809 0.873000 8862219
-0.269167 0.015833 0.875000 8460335
-0.270090 0.020905 0.878000 8390942
-0.270705 0.025981 0.880000 9248545
-0.271320 0.031080 0.882000 10584334
-0.259246 -0.076724 0.848000 2825001
-0.259246 -0.071878 0.848000 2364968
-0.259246 -0.067032 0.848000 2168605
-0.259857 -0.062333 0.850000 2168346
-0.260469 -0.057611 0.852000 4851992
-0.260469 -0.052743 0.852000 10423062
-0.261080 -0.047987 0.854000 13011740
-0.261080 -0.043107 0.854000 11102021
-0.261691 -0.038316 0.856000 9900809
-0.262303 -0.033503 0.858000 12561230
-0.262303 -0.028600 0.858000 12886076
-0.262914 -0.023752 0.860000 12799013
-0.263526 -0.018882 0.862000 8413745
-0.264443 -0.014005 0.865000 8280925
-0.265054 -0.009083 0.867000 7549479
-0.265054 -0.004129 0.867000 5920559
-0.265666 0.000828 0.869000 8202524
-0.266277 0.005807 0.871000 9437960
-0.266889 0.010809 0.873000 10310201
-0.267500 0.015833 0.875000 8783655
-0.268417 0.020905 0.878000 8784154
-0.269029 0.025981 0.880000 9702930
-0.269640 0.031080 0.882000 12352526
-0.257630 -0.076724 0.848000 2757924
-0.257630 -0.071878 0.848000 2431783
-0.258238 -0.067190 0.850000 2496287
-0.258238 -0.062333 0.850000 2234397
-0.259453 -0.057747 0.854000 3081248
-0.259453 -0.052867 0.854000 8848666
-0.259453 -0.047987 0.854000 13281324
-0.260061 -0.043208 0.856000 11229519
-0.260669 -0.038406 0.858000 10034706
-0.260669 -0.033503 0.858000 12426650
-0.260669 -0.028600 0.858000 13213473
-0.261276 -0.023752 0.860000 11954761
-0.261884 -0.018882 0.862000 8021285
-0.262795 -0.014005 0.865000 8729401
-0.263403 -0.009083 0.867000 8657421
-0.263403 -0.004129 0.867000 6841628
-0.264010 0.000828 0.869000 8589851
-0.265226 0.005820 0.873000 10895625
-0.265833 0.010833 0.875000 11236968
-0.265833 0.015833 0.875000 9113886
-0.266745 0.020905 0.878000 9046294
-0.267352 0.025981 0.880000 9639171
-0.267960 0.031080 0.882000 12093710
-0.256619 -0.076905 0.850000 2693673
-0.256619 -0.072048 0.850000 2496807
-0.256619 -0.067190 0.850000 2759711
-0.257223 -0.062480 0.852000 2300706
-0.257827 -0.057747 0.854000 1314338
-0.258430 -0.052990 0.856000 7340827
-0.258430 -0.048099 0.856000 13531420
-0.258430 -0.043208 0.856000 11420968
-0.259034 -0.038406 0.858000 10107696
-0.259034 -0.033503 0.858000 12236151
-0.259638 -0.028667 0.860000 13535291
-0.260242 -0.023808 0.862000 11100758
-0.261148 -0.018948 0.865000 7625511
-0.261751 -0.014037 0.867000 9178675
-0.261751 -0.009083 0.867000 9769490
-0.262355 -0.004138 0.869000 7762773
-0.262959 0.000830 0.871000 8985898
-0.263563 0.005820 0.873000 12355399
-0.263563 0.010809 0.873000 12160897
-0.264167 0.015833 0.875000 9440535
-0.265072 0.020905 0.878000 9243415
-0.265676 0.025981 0.880000 9634322
-0.266280 0.031080 0.882000 11820837
-0.255000 -0.076905 0.850000 2824495
-0.255000 -0.072048 0.850000 2432038
-0.255000 -0.067190 0.850000 2629152
-0.256200 -0.062627 0.854000 2366502
-0.256200 -0.057747 0.854000 1906211
-0.256800 -0.052990 0.856000 4458011
-0.256800 -0.048099 0.856000 11280397
-0.257400 -0.043309 0.858000 10625793
-0.258000 -0.038495 0.860000 12422222
-0.258000 -0.033581 0.860000 12746324
-0.258000 -0.028667 0.860000 13539157
-0.258600 -0.023808 0.862000 10645858
-0.259500 -0.018948 0.865000 8536873
-0.260100 -0.014037 0.867000 9639725
-0.260100 -0.009083 0.867000 9965079
-0.260700 -0.004138 0.869000 8749198
-0.261300 0.000830 0.871000 10227002
-0.261900 0.005820 0.873000 13080708
-0.261900 0.010809 0.873000 12431515
-0.262500 0.015833 0.875000 9575695
-0.262500 0.020833 0.875000 9440279
-0.263400 0.025922 0.878000 9374241
-0.264600 0.031080 0.882000 9243452
-0.253381 -0.072048 0.850000 2366762
-0.253381 -0.067190 0.850000 2432290
-0.254573 -0.062627 0.854000 2497575
-0.255170 -0.057882 0.856000 2497063
-0.255170 -0.052990 0.856000 1642015
-0.255170 -0.048099 0.856000 9046289
-0.255766 -0.043309 0.858000 9896193
-0.256362 -0.038495 0.860000 14721633
-0.256362 -0.033581 0.860000 13256767
-0.256958 -0.028733 0.862000 13536075
-0.257852 -0.023890 0.865000 10188377
-0.257852 -0.018948 0.865000 9382695
-0.258449 -0.014037 0.867000 10163748
-0.258449 -0.009083 0.867000 10166813
-0.259641 -0.004148 0.871000 9806476
-0.259641 0.000830 0.871000 11492673
-0.260237 0.005820 0.873000 13741202
-0.260237 0.010809 0.873000 12619658
-0.260833 0.015833 0.875000 9708046
-0.260833 0.020833 0.875000 9638173
-0.261728 0.025922 0.878000 9116177
-0.262920 0.031080 0.882000 6693671
-0.251762 -0.072048 0.850000 2760237
-0.251762 -0.067190 0.850000 2563365
-0.252354 -0.062480 0.852000 2563111
-0.252947 -0.057747 0.854000 2563370
-0.252947 -0.052867 0.854000 2233379
-0.253539 -0.048099 0.856000 4784405
-0.253539 -0.043208 0.856000 10557953
-0.254131 -0.038406 0.858000 15256948
-0.254724 -0.033581 0.860000 13334313
-0.255316 -0.028733 0.862000 12811330
-0.255316 -0.023808 0.862000 10047568
-0.256205 -0.018948 0.865000 9639461
-0.256797 -0.014037 0.867000 10361370
-0.257390 -0.009104 0.869000 10563876
-0.257982 -0.004148 0.871000 10194825
-0.257982 0.000830 0.871000 12290376
-0.257982 0.005807 0.871000 13674912
-0.258574 0.010809 0.873000 11962490
-0.258574 0.015797 0.873000 9837580
-0.259167 0.020833 0.875000 9770020
-0.259167 0.025833 0.875000 10701569
-0.261240 0.031080 0.882000 9263633
-0.250143 -0.067190 0.850000 2628652
-0.251320 -0.062627 0.854000 2628642
-0.251320 -0.057747 0.854000 2563624
-0.251909 -0.052990 0.856000 2759718
-0.252497 -0.048211 0.858000 461592
-0.253086 -0.043410 0.860000 11162370
-0.253086 -0.038495 0.860000 15711368
-0.253086 -0.033581 0.860000 13399104
-0.253674 -0.028733 0.862000 12032080
-0.254557 -0.023890 0.865000 9907517
-0.254557 -0.018948 0.865000 9836581
-0.255146 -0.014037 0.867000 10557715
-0.255734 -0.009104 0.869000 10894630
-0.256323 -0.004148 0.871000 10594442
-0.256323 0.000830 0.871000 13005881
-0.256911 0.005820 0.873000 13674110
-0.256911 0.010809 0.873000 11292995
-0.256911 0.015797 0.873000 9968408
-0.257500 0.020833 0.875000 9904162
-0.257500 0.025833 0.875000 12281360
-0.258971 0.031010 0.880000 11757851
-0.249693 -0.062627 0.854000 2628381
-0.249693 -0.057747 0.854000 2563621
-0.250278 -0.052990 0.856000 2825000
-0.250863 -0.048211 0.858000 1708571
-0.250863 -0.043309 0.858000 8012547
-0.250863 -0.038406 0.858000 16240284
-0.251448 -0.033581 0.860000 13469527
-0.252032 -0.028733 0.862000 12696158
-0.252910 -0.023890 0.865000 10496810
-0.252910 -0.018948 0.865000 10687782
-0.253494 -0.014037 0.867000 10489612
-0.254079 -0.009104 0.869000 10893865
-0.254664 -0.004148 0.871000 10522250
-0.254664 0.000830 0.871000 12152106
-0.255249 0.005820 0.873000 12085339
-0.255249 0.010809 0.873000 10694156
-0.255833 0.015833 0.875000 10164772
-0.255833 0.020833 0.875000 10100256
-0.256710 0.025922 0.878000 11620638
-0.248648 -0.062773 0.856000 2694182
-0.248067 -0.057747 0.854000 2563369
-0.249229 -0.053114 0.858000 2890537
-0.249810 -0.048324 0.860000 2890017
-0.249810 -0.043410 0.860000 4856341
-0.249810 -0.038495 0.860000 16691296
-0.250390 -0.033659 0.862000 13611361
-0.251262 -0.028833 0.865000 13273665
-0.251262 -0.023890 0.865000 11085362
-0.251843 -0.018991 0.867000 11544626
-0.251843 -0.014037 0.867000 10487843
-0.253005 -0.009125 0.871000 10891049
-0.253005 -0.004148 0.871000 10458753
-0.253586 0.000831 0.873000 11221028
-0.253586 0.005820 0.873000 10559024
-0.253586 0.010809 0.873000 10031629
-0.254167 0.015833 0.875000 10361375
-0.255038 0.020905 0.878000 10233119
-0.255038 0.025922 0.878000 11030055
-0.247017 -0.062773 0.856000 2562863
-0.247017 -0.057882 0.856000 2366509
-0.247594 -0.053114 0.858000 2759721
-0.248171 -0.048324 0.860000 2890280
-0.248171 -0.043410 0.860000 3215910
-0.248171 -0.038495 0.860000 11044133
-0.248749 -0.033659 0.862000 14598250
-0.249614 -0.028833 0.865000 12483875
-0.249614 -0.023890 0.865000 11352378
-0.250191 -0.018991 0.867000 11686974
-0.250769 -0.014070 0.869000 11418938
-0.251346 -0.009125 0.871000 10820138
-0.251346 -0.004148 0.871000 10448759
-0.251923 0.000831 0.873000 10882847
-0.251923 0.005820 0.873000 10161156
-0.251923 0.010809 0.873000 9830670
-0.252500 0.015833 0.875000 10098714
-0.253366 0.020905 0.878000 10037789
-0.253366 0.025922 0.878000 11561519
-0.245387 -0.057882 0.856000 2170158
-0.246533 -0.053238 0.860000 2694692
-0.246533 -0.048324 0.860000 2890792
-0.247107 -0.043510 0.862000 1578788
-0.247107 -0.038585 0.862000 5390364
-0.247967 -0.033776 0.865000 15648058
-0.248540 -0.028900 0.867000 11621673
-0.248540 -0.023946 0.867000 11618354
-0.249113 -0.019035 0.869000 11818031
-0.249113 -0.014070 0.869000 12347717
-0.249687 -0.009125 0.871000 10693689
-0.249687 -0.004148 0.871000 10514016
-0.250260 0.000831 0.873000 10556202
-0.250833 0.005833 0.875000 9765379
-0.250833 0.010833 0.875000 9643811
-0.251693 0.015888 0.878000 9899834
-0.251693 0.020905 0.878000 9777459
-0.252267 0.025981 0.880000 12027678
-0.244895 -0.053238 0.860000 2628895
-0.245465 -0.048436 0.862000 2760233
-0.245465 -0.043510 0.862000 2169122
-0.245465 -0.038585 0.862000 3539220
-0.246319 -0.033776 0.865000 10319113
-0.246889 -0.028900 0.867000 11342126
-0.246889 -0.023946 0.867000 11681322
-0.247458 -0.019035 0.869000 12474145
-0.248028 -0.014102 0.871000 13338447
-0.248028 -0.009125 0.871000 11354697
-0.248597 -0.004157 0.873000 10437961
-0.248597 0.000831 0.873000 10753078
-0.249167 0.005833 0.875000 9831425
-0.249167 0.010833 0.875000 12884536
-0.250021 0.015888 0.878000 11821401
-0.250590 0.020952 0.880000 10758729
-0.250590 0.025981 0.880000 12024588
-0.243823 -0.048436 0.862000 2563367
-0.244671 -0.043662 0.865000 2759970
-0.245237 -0.038809 0.867000 1642010
-0.245237 -0.033854 0.867000 4981255
-0.245237 -0.028900 0.867000 11080483
-0.245237 -0.023946 0.867000 11812396
-0.245803 -0.019035 0.869000 13137208
-0.246369 -0.014102 0.871000 14329927
-0.246369 -0.009125 0.871000 12020828
-0.246934 -0.004157 0.873000 10369854
-0.246934 0.000831 0.873000 10890817
-0.247500 0.005833 0.875000 9961731
-0.248349 0.010870 0.878000 16037168
-0.248914 0.015924 0.880000 13742733
-0.248914 0.020952 0.880000 11695711
-0.249480 0.026040 0.882000 12085040
-0.243024 -0.043662 0.865000 2694690
-0.243586 -0.038809 0.867000 2169377
-0.243586 -0.033854 0.867000 3606789
-0.243586 -0.028900 0.867000 6291735
-0.243586 -0.023946 0.867000 10958126
-0.244148 -0.019035 0.869000 14063694
-0.244710 -0.014102 0.871000 14855486
-0.245271 -0.009146 0.873000 13670767
-0.245271 -0.004157 0.873000 11359027
-0.245833 0.000833 0.875000 11359309
-0.246676 0.005853 0.878000 11352580
-0.246676 0.010870 0.878000 14791465
-0.247238 0.015924 0.880000 13682113
-0.247238 0.020952 0.880000 12752245
-0.247800 0.026040 0.882000 12689236
-0.241376 -0.043662 0.865000 2694184
-0.242492 -0.038898 0.869000 2695201
-0.242492 -0.033932 0.869000 2234386
-0.242492 -0.028967 0.869000 1510688
-0.242492 -0.024001 0.869000 10166311
-0.242492 -0.019035 0.869000 14913074
-0.243050 -0.014102 0.871000 15382110
-0.243609 -0.009146 0.873000 15317894
-0.244167 -0.004167 0.875000 12418924
-0.245004 0.000836 0.878000 11818074
-0.245562 0.005867 0.880000 12736820
-0.245004 0.010870 0.878000 13549898
-0.245562 0.015924 0.880000 13619657
-0.245562 0.020952 0.880000 13735782
-0.246120 0.026040 0.882000 13348437
-0.240837 -0.038898 0.869000 2695458
-0.240837 -0.033932 0.869000 2497566
-0.240837 -0.028967 0.869000 2366250
-0.240837 -0.024001 0.869000 5638943
-0.241391 -0.019079 0.871000 11765270
-0.241946 -0.014134 0.873000 15254910
-0.241946 -0.009146 0.873000 16048797
-0.242500 -0.004167 0.875000 14132389
-0.243886 0.000838 0.880000 12734056
-0.243886 0.005867 0.880000 13667427
-0.243331 0.010870 0.878000 14540908
-0.243886 0.015924 0.880000 14469584
-0.243886 0.020952 0.880000 14262102
-0.244440 0.026040 0.882000 8804950
-0.239182 -0.038898 0.869000 2629156
-0.239182 -0.033932 0.869000 2760739
-0.239732 -0.029033 0.871000 3153192
-0.239182 -0.024001 0.869000 1116708
-0.239732 -0.019079 0.871000 8602647
-0.240283 -0.014134 0.873000 15123008
-0.240283 -0.009146 0.873000 16699501
-0.240833 -0.004167 0.875000 15844772
-0.242210 0.000838 0.880000 13671566
-0.242210 0.005867 0.880000 14526597
-0.242210 0.010895 0.880000 15515748
-0.242210 0.015924 0.880000 15391892
-0.242760 0.021000 0.882000 14784310
-0.242760 0.026040 0.882000 4260140
-0.238073 -0.034010 0.871000 2498088
-0.238073 -0.029033 0.871000 3021862
-0.237527 -0.024001 0.869000 2102312
-0.238620 -0.019123 0.873000 4784409
-0.239167 -0.014167 0.875000 8344065
-0.239167 -0.009167 0.875000 13216828
-0.239987 -0.004181 0.878000 14862754
-0.240533 0.000838 0.880000 15131572
-0.240533 0.005867 0.880000 15252390
-0.240533 0.010895 0.880000 14723164
-0.241080 0.015960 0.882000 13214296
-0.241080 0.021000 0.882000 7500053
-0.241080 0.026040 0.882000 2885377
-0.236414 -0.029033 0.871000 2890790
-0.235871 -0.024001 0.869000 3087398
-0.237500 -0.019167 0.875000 986654
-0.237500 -0.014167 0.875000 1507607
-0.238314 -0.009198 0.878000 9718559
-0.238857 -0.004190 0.880000 13933906
-0.238857 0.000838 0.880000 16497519
-0.238857 0.005867 0.880000 15911526
-0.238857 0.010895 0.880000 13929531
-0.239400 0.015960 0.882000 11031341
-0.239400 0.021000 0.882000 139790
-0.239400 0.026040 0.882000 1510674
-0.234755 -0.024056 0.871000 3022115
-0.235833 -0.019167 0.875000 2038564
-0.236642 -0.014215 0.878000 2297388
-0.237181 -0.009219 0.880000 5308673
-0.237720 -0.004200 0.882000 7024385
-0.237720 0.000840 0.882000 8484394
-0.237720 0.005880 0.882000 8222246
-0.237720 0.010920 0.882000 7163419
-0.238259 0.015996 0.884000 5772801
-0.238259 0.021048 0.884000 1639175
-0.237720 0.026040 0.882000 2102562
-0.234167 -0.019167 0.875000 3022371
-0.235505 -0.014248 0.880000 3088169
-0.236040 -0.009240 0.882000 920341
-0.236575 -0.004210 0.884000 196888
-0.236575 0.000842 0.884000 401437
-0.237378 0.005913 0.887000 524565
-0.237378 0.010982 0.887000 399389
-0.237913 0.016087 0.889000 524562
-0.237913 0.021167 0.889000 3085079
-0.236575 0.026099 0.884000 2759458
-0.232500 -0.019167 0.875000 2891555
-0.233829 -0.014248 0.880000 2957093
-0.234891 -0.009261 0.884000 1972008
-0.234891 -0.004210 0.884000 1578031
-0.234891 0.000842 0.884000 1837328
-0.235689 0.005913 0.887000 2034436
-0.235689 0.010982 0.887000 1642272
-0.236220 0.016087 0.889000 1840674
-0.236220 0.021167 0.889000 3087910
-0.230833 -0.019167 0.875000 2758165
-0.232152 -0.014248 0.880000 2760233
-0.232680 -0.009240 0.882000 3021863
-0.233999 -0.004224 0.887000 3022891
-0.233999 0.000845 0.887000 3283996
-0.234527 0.005927 0.889000 3547670
-0.233999 0.010982 0.887000 2891814
-0.234527 0.016087 0.889000 3088677
-0.235054 0.021214 0.891000 3022887
-0.229167 -0.014167 0.875000 2299693
-0.231524 -0.009261 0.884000 3022117
-0.232310 -0.004224 0.887000 2826535
-0.232833 0.000847 0.889000 3153703
-0.232833 0.005927 0.889000 3285287
-0.232310 0.010982 0.887000 3023917
-0.232833 0.016087 0.889000 3088679
-0.233357 0.021214 0.891000 3088679
-0.229840 -0.009261 0.884000 3019800
-0.230620 -0.004224 0.887000 2696224
-0.230620 0.000845 0.887000 3022890
-0.231140 0.005927 0.889000 3088679
-0.231140 0.011007 0.889000 3088938
-0.231660 0.016123 0.891000 3088680
-0.231660 0.021214 0.891000 3088683
-0.228156 -0.009261 0.884000 1704715
-0.228930 -0.004224 0.887000 1709081
-0.228930 0.000845 0.887000 2563885
-0.229447 0.005927 0.889000 3088167
-0.229447 0.011007 0.889000 3220008
-0.229963 0.016123 0.891000 3219496
-0.229963 0.021214 0.891000 3022895
-0.227241 0.000845 0.887000 2102299
-0.227753 0.005927 0.889000 3087126
-0.227753 0.011007 0.889000 3283736
-0.228266 0.016123 0.891000 3284508
-0.228266 0.021214 0.891000 2956062
-0.226060 0.005927 0.889000 2099972
-0.226060 0.011007 0.889000 2231048
-0.226569 0.016123 0.891000 2297615
-0.226569 0.021214 0.891000 2231054
-0.224367 0.005927 0.889000 1114687
-0.223862 0.010982 0.887000 1186105
-0.224367 0.016087 0.889000 1246004
-0.224871 0.021214 0.891000 1514290
-0.222172 0.010982 0.887000 5920106
-0.222673 0.016087 0.889000 5721177
-0.313367 -0.116620 0.833000 9175312
-0.313367 -0.111860 0.833000 10512997
-0.311031 -0.116340 0.831000 7209498
-0.311031 -0.111591 0.831000 7995699
-0.308704 -0.116060 0.829000 7734053
-0.308704 -0.111323 0.829000 7602433
-0.308704 -0.106586 0.829000 8519964
-0.308607 -0.126140 0.833000 10701688
-0.307866 -0.121089 0.831000 9572892
-0.307125 -0.116060 0.829000 8192539
-0.304902 -0.110517 0.823000 7275016
-0.307125 -0.106586 0.829000 5833236
-0.307020 -0.130900 0.833000 12494007
-0.307020 -0.126140 0.833000 10761841
-0.306283 -0.121089 0.831000 9704721
-0.304809 -0.115780 0.827000 8454418
-0.303334 -0.110517 0.823000 7734031
-0.304809 -0.106329 0.827000 6423308
-0.306283 -0.102094 0.831000 6947585
-0.305433 -0.130900 0.833000 12495542
-0.305433 -0.126140 0.833000 10766182
-0.304700 -0.121089 0.831000 9900811
-0.303233 -0.115780 0.827000 8716559
-0.301767 -0.110517 0.823000 8126989
-0.303233 -0.106329 0.827000 7013387
-0.304700 -0.102094 0.831000 6555400
-0.306167 -0.097814 0.835000 5702153
-0.304576 -0.126443 0.835000 10832732
-0.303117 -0.121089 0.831000 9965829
-0.300929 -0.115500 0.825000 8847629
-0.300199 -0.110517 0.823000 8454922
-0.301658 -0.106329 0.827000 7209994
-0.302388 -0.101849 0.829000 6817038
-0.303117 -0.097346 0.831000 6357776
-0.306035 -0.093489 0.839000 6488833
-0.302986 -0.126443 0.835000 10828883
-0.302260 -0.121380 0.833000 10029572
-0.299357 -0.115500 0.825000 8913164
-0.298631 -0.110517 0.823000 8782348
-0.300083 -0.106329 0.827000 7341066
-0.300809 -0.101849 0.829000 7078668
-0.301534 -0.097346 0.831000 7013643
-0.303711 -0.093266 0.837000 7014149
-0.304437 -0.088694 0.839000 1967624
-0.302260 -0.083300 0.833000 1051147
-0.302260 -0.078540 0.833000 919561
-0.305163 -0.074489 0.841000 723210
-0.305163 -0.069683 0.841000 591112
-0.307703 -0.065417 0.848000 394247
-0.301395 -0.126443 0.835000 10899018
-0.299230 -0.120797 0.829000 10095619
-0.297786 -0.115500 0.825000 8978700
-0.296342 -0.110249 0.821000 8520206
-0.297786 -0.106071 0.825000 7537673
-0.298508 -0.101603 0.827000 7209737
-0.299230 -0.097111 0.829000 7144710
-0.301395 -0.093043 0.835000 7013896
-0.300673 -0.088060 0.833000 2624527
-0.300673 -0.083300 0.833000 1313300
-0.300673 -0.078540 0.833000 1116688
-0.303561 -0.074489 0.841000 985362
-0.303561 -0.069683 0.841000 985614
-0.306088 -0.065417 0.848000 985100
-0.311141 -0.041869 0.862000 2688021
-0.311141 -0.036943 0.862000 2819879
-0.312946 -0.032203 0.867000 2491137
-0.299805 -0.126443 0.835000 10963534
-0.296932 -0.120506 0.827000 10160134
-0.296214 -0.115500 0.825000 8978699
-0.294778 -0.110249 0.821000 8323340
-0.296214 -0.106071 0.825000 7734025
-0.296932 -0.101603 0.827000 7406346
-0.297650 -0.097111 0.829000 7275526
-0.299805 -0.093043 0.835000 7078920
-0.299087 -0.088060 0.833000 3213582
-0.299087 -0.083300 0.833000 1509136
-0.299805 -0.078729 0.835000 1247245
-0.301959 -0.074489 0.841000 1246990
-0.301959 -0.069683 0.841000 1312778
-0.301959 -0.064877 0.841000 1509129
-0.308063 -0.051480 0.858000 5245708
-0.308063 -0.046577 0.858000 5508626
-0.308781 -0.041771 0.860000 5313044
-0.309499 -0.036943 0.862000 5182496
-0.311294 -0.032203 0.867000 4788232
-0.312012 -0.022346 0.869000 1247493
-0.312730 -0.017420 0.871000 459015
-0.295357 -0.120506 0.827000 10225416
-0.293929 -0.115220 0.823000 9306378
-0.293214 -0.110249 0.821000 8651273
-0.294643 -0.106071 0.825000 7930634
-0.295357 -0.101603 0.827000 7602699
-0.295357 -0.096877 0.827000 7472135
-0.297500 -0.092820 0.833000 7210248
-0.297500 -0.088060 0.833000 3082508
-0.297500 -0.083300 0.833000 1312267
-0.298929 -0.078917 0.837000 1049866
-0.300357 -0.074489 0.841000 1246729
-0.299643 -0.069517 0.839000 1378054
-0.300357 -0.064877 0.841000 1312261
-0.306429 -0.051480 0.858000 6425099
-0.306429 -0.046577 0.858000 6425355
-0.307143 -0.041771 0.860000 7486228
-0.307857 -0.036943 0.862000 6625048
-0.309643 -0.032203 0.867000 6230031
-0.310357 -0.027311 0.869000 5904650
-0.310357 -0.022346 0.869000 4659465
-0.311071 -0.017420 0.871000 4001549
-0.312500 -0.012500 0.875000 3149342
-0.313571 -0.007526 0.878000 2687490
-0.293782 -0.120506 0.827000 10289416
-0.292361 -0.115220 0.823000 9568522
-0.292361 -0.110517 0.823000 9044236
-0.293071 -0.106071 0.825000 8126986
-0.293782 -0.101603 0.827000 7864843
-0.293782 -0.096877 0.827000 7668488
-0.295913 -0.092820 0.833000 7406342
-0.295913 -0.088060 0.833000 2885133
-0.296624 -0.083500 0.835000 1050119
-0.297334 -0.078917 0.837000 853770
-0.298755 -0.074489 0.841000 1246474
-0.298755 -0.069683 0.841000 1444101
-0.298755 -0.064877 0.841000 1114890
-0.303373 -0.056120 0.854000 7539465
-0.304084 -0.051360 0.856000 7604494
-0.304794 -0.046577 0.858000 7407889
-0.305505 -0.041771 0.860000 9653532
-0.306215 -0.036943 0.862000 8005675
-0.307281 -0.032129 0.865000 7605522
-0.307991 -0.027249 0.867000 7803406
-0.308702 -0.022346 0.869000 8066829
-0.309412 -0.017420 0.871000 7607566
-0.310833 -0.012500 0.875000 6165780
-0.313320 -0.007560 0.882000 3081483
-0.292207 -0.120506 0.827000 10421255
-0.290793 -0.115220 0.823000 9765130
-0.290793 -0.110517 0.823000 9175566
-0.290793 -0.105814 0.823000 8389130
-0.291500 -0.101357 0.825000 8061707
-0.292207 -0.096877 0.827000 7865096
-0.294327 -0.092820 0.833000 7537668
-0.294327 -0.088060 0.833000 2557710
-0.294327 -0.083300 0.833000 1115906
-0.295033 -0.078729 0.835000 919306
-0.297153 -0.074489 0.841000 1115658
-0.296447 -0.069517 0.839000 1509893
-0.297153 -0.064877 0.841000 2688270
-0.300333 -0.060714 0.850000 7748407
-0.301040 -0.055989 0.852000 7541519
-0.301747 -0.051240 0.854000 7406354
-0.303160 -0.046577 0.858000 7473942
-0.303867 -0.041771 0.860000 10119461
-0.304573 -0.036943 0.862000 8007486
-0.305633 -0.032129 0.865000 7473428
-0.306340 -0.027249 0.867000 7605266
-0.307047 -0.022346 0.869000 7869458
-0.307753 -0.017420 0.871000 7542542
-0.309167 -0.012500 0.875000 7084555
-0.311640 -0.007560 0.882000 6039828
-0.312347 -0.002526 0.884000 5461783
-0.313407 0.002534 0.887000 2627860
-0.289929 -0.120214 0.825000 10551560
-0.288523 -0.114940 0.821000 9961997
-0.288523 -0.110249 0.821000 9241105
-0.289226 -0.105814 0.823000 8585739
-0.289226 -0.101111 0.823000 8258313
-0.289929 -0.096643 0.825000 8061448
-0.292037 -0.092597 0.831000 7668487
-0.292037 -0.087849 0.831000 2229514
-0.292037 -0.083100 0.831000 1115911
-0.292740 -0.078540 0.833000 919563
-0.294849 -0.074311 0.839000 984585
-0.294849 -0.069517 0.839000 1509382
-0.295551 -0.064877 0.841000 4260886
-0.298011 -0.060571 0.848000 8794933
-0.298011 -0.055726 0.848000 7616060
-0.298714 -0.051000 0.850000 7213351
-0.300120 -0.046360 0.854000 7604769
-0.301526 -0.041674 0.858000 10577180
-0.302229 -0.036857 0.860000 7999035
-0.303986 -0.032129 0.865000 7342354
-0.304689 -0.027249 0.867000 7473680
-0.305391 -0.022346 0.869000 7605521
-0.305391 -0.017380 0.869000 7542030
-0.306797 -0.012471 0.873000 7936784
-0.309960 -0.007560 0.882000 9057300
-0.310663 -0.002526 0.884000 10249491
-0.311717 0.002534 0.887000 5005091
-0.287658 -0.124626 0.823000 11224662
-0.287658 -0.119923 0.823000 10617353
-0.286959 -0.114940 0.821000 10093328
-0.286959 -0.110249 0.821000 9306900
-0.287658 -0.105814 0.823000 8782092
-0.288357 -0.101357 0.825000 8454919
-0.289056 -0.096877 0.827000 8257799
-0.290454 -0.092597 0.831000 7930889
-0.290454 -0.087849 0.831000 1639431
-0.291153 -0.083300 0.833000 1050635
-0.291153 -0.078540 0.833000 1116171
-0.293250 -0.074311 0.839000 1116167
-0.293250 -0.069517 0.839000 1180936
-0.293950 -0.064877 0.841000 5113629
-0.296396 -0.060571 0.848000 8797235
-0.296396 -0.055726 0.848000 9066857
-0.297095 -0.051000 0.850000 7945021
-0.297794 -0.046251 0.852000 7802411
-0.299192 -0.041577 0.856000 10190355
-0.299891 -0.036771 0.858000 8269879
-0.300590 -0.031943 0.860000 7472913
-0.302338 -0.027186 0.865000 7407886
-0.302338 -0.022243 0.865000 7604752
-0.303037 -0.017340 0.867000 7541006
-0.304435 -0.012443 0.871000 8067604
-0.306882 -0.007526 0.878000 8995859
-0.307581 -0.002514 0.880000 10187792
-0.308280 0.002520 0.882000 7893810
-0.308280 0.007560 0.882000 5788458
-0.286090 -0.124626 0.823000 11288142
-0.285395 -0.119631 0.821000 10748183
-0.285395 -0.114940 0.821000 10224399
-0.285395 -0.110249 0.821000 9437715
-0.286090 -0.105814 0.823000 8978957
-0.287481 -0.101603 0.827000 8651785
-0.288176 -0.097111 0.829000 8454666
-0.288871 -0.092597 0.831000 8127240
-0.288871 -0.087849 0.831000 1050375
-0.289567 -0.083300 0.833000 985355
-0.289567 -0.078540 0.833000 1312521
-0.291652 -0.074311 0.839000 1247242
-0.291652 -0.069517 0.839000 787978
-0.292348 -0.064877 0.841000 6031644
-0.293738 -0.060357 0.845000 8798017
-0.294781 -0.055726 0.848000 10582123
-0.295476 -0.051000 0.850000 8670289
-0.296171 -0.046251 0.852000 8064814
-0.296867 -0.041480 0.854000 9789461
-0.297562 -0.036686 0.856000 8540700
-0.298257 -0.031869 0.858000 7537680
-0.299648 -0.027091 0.862000 7407373
-0.301386 -0.022294 0.867000 7539468
-0.301386 -0.017340 0.867000 7606542
-0.302776 -0.012443 0.871000 8132111
-0.305210 -0.007526 0.878000 8995601
-0.305905 -0.002514 0.880000 10118415
-0.306600 0.002520 0.882000 10776101
-0.306600 0.007560 0.882000 10580257
-0.307295 0.012629 0.884000 4016143
-0.284523 -0.124626 0.823000 11484231
-0.283831 -0.119631 0.821000 10748453
-0.284523 -0.115220 0.823000 10355726
-0.284523 -0.110517 0.823000 9568785
-0.285214 -0.106071 0.825000 9110029
-0.285906 -0.101603 0.827000 8782602
-0.285214 -0.096643 0.825000 8651532
-0.286597 -0.092374 0.829000 8258566
-0.287980 -0.088060 0.833000 853255
-0.288671 -0.083500 0.835000 1051146
-0.288671 -0.078729 0.835000 1180936
-0.290054 -0.074311 0.839000 1181964
-0.290746 -0.069683 0.841000 721932
-0.290746 -0.064877 0.841000 6556698
-0.292129 -0.060357 0.845000 9197390
-0.293166 -0.055726 0.848000 10185837
-0.293166 -0.050880 0.848000 8733029
-0.293857 -0.046143 0.850000 7937329
-0.295240 -0.041480 0.854000 9326614
-0.295931 -0.036686 0.856000 8600833
-0.296623 -0.031869 0.858000 7733775
-0.297314 -0.027029 0.860000 7472908
-0.299043 -0.022243 0.865000 7474184
-0.299043 -0.017300 0.865000 7605517
-0.300426 -0.012414 0.869000 7801611
-0.302500 -0.007500 0.875000 8662030
-0.304229 -0.002514 0.880000 9328143
-0.304229 0.002514 0.880000 10183447
-0.304920 0.007560 0.882000 10583320
-0.305611 0.012629 0.884000 7762965
-0.304920 0.017640 0.882000 4269863
-0.282955 -0.124626 0.823000 11614790
-0.282955 -0.119923 0.823000 10813739
-0.283643 -0.115500 0.825000 10487059
-0.283643 -0.110786 0.825000 9699860
-0.284330 -0.106329 0.827000 9175567
-0.284330 -0.101603 0.827000 8979216
-0.285018 -0.097111 0.829000 8847883
-0.285018 -0.092374 0.829000 8454922
-0.285706 -0.087849 0.831000 591116
-0.286393 -0.083300 0.833000 1116940
-0.287081 -0.078729 0.835000 985098
-0.288456 -0.074311 0.839000 1182220
-0.288456 -0.069517 0.839000 591117
-0.289144 -0.064877 0.841000 7146510
-0.290519 -0.060357 0.845000 9587035
-0.291550 -0.055726 0.848000 9727360
-0.291550 -0.050880 0.848000 8732774
-0.292926 -0.046251 0.852000 7803955
-0.293613 -0.041480 0.854000 8864800
-0.294301 -0.036686 0.856000 8667403
-0.294989 -0.031869 0.858000 7944477
-0.295676 -0.027029 0.860000 7537931
-0.297395 -0.022243 0.865000 7342346
-0.297395 -0.017300 0.865000 7670793
-0.298083 -0.012386 0.867000 7479320
-0.300146 -0.007483 0.873000 8333581
-0.301865 -0.002509 0.878000 8470805
-0.302552 0.002514 0.880000 9656869
-0.303240 0.007560 0.882000 10515220
-0.303928 0.012629 0.884000 11504420
-0.303928 0.017680 0.884000 8349251
-0.282071 -0.120214 0.825000 10945072
-0.282071 -0.115500 0.825000 10553113
-0.282071 -0.110786 0.825000 9896471
-0.282755 -0.106329 0.827000 9437714
-0.283439 -0.101849 0.829000 9175829
-0.284123 -0.097346 0.831000 9044491
-0.284123 -0.092597 0.831000 8389645
-0.284123 -0.087849 0.831000 590866
-0.284807 -0.083300 0.833000 1116941
-0.284807 -0.078540 0.833000 1051149
-0.286174 -0.074134 0.837000 1313036
-0.287542 -0.069683 0.841000 525071
-0.287542 -0.064877 0.841000 7735810
-0.288910 -0.060357 0.845000 9459559
-0.289935 -0.055726 0.848000 9926291
-0.289935 -0.050880 0.848000 8993127
-0.290619 -0.046143 0.850000 8067893
-0.291987 -0.041480 0.854000 8999466
-0.292670 -0.036686 0.856000 8735252
-0.293354 -0.031869 0.858000 9403692
-0.294038 -0.027029 0.860000 7475466
-0.294722 -0.022166 0.862000 7604492
-0.295748 -0.017300 0.865000 8532996
-0.296431 -0.012386 0.867000 8671526
-0.298483 -0.007483 0.873000 8666636
-0.299167 -0.002500 0.875000 8007196
-0.300876 0.002514 0.880000 8467762
-0.300876 0.007543 0.880000 9594639
-0.301560 0.012600 0.882000 11174962
-0.302244 0.017680 0.884000 9935711
-0.303270 0.022809 0.887000 4537422
-0.279820 -0.124626 0.823000 12071755
-0.280500 -0.120214 0.825000 11141682
-0.280500 -0.115500 0.825000 10617885
-0.280500 -0.110786 0.825000 10092824
-0.281180 -0.106329 0.827000 9700114
-0.281860 -0.101849 0.829000 9437972
-0.281860 -0.097111 0.829000 9175563
-0.282540 -0.092597 0.831000 8389133
-0.282540 -0.087849 0.831000 525844
-0.283220 -0.083300 0.833000 1116685
-0.283900 -0.078729 0.835000 1116685
-0.284580 -0.074134 0.837000 1509389
-0.285260 -0.069517 0.839000 459795
-0.285940 -0.064877 0.841000 8323586
-0.287300 -0.060357 0.845000 9263460
-0.288320 -0.055726 0.848000 10120838
-0.288320 -0.050880 0.848000 9261415
-0.289000 -0.046143 0.850000 8389169
-0.289680 -0.041383 0.852000 9129495
-0.291040 -0.036686 0.856000 8800274
-0.291720 -0.031869 0.858000 10776620
-0.292400 -0.027029 0.860000 7471883
-0.294100 -0.022243 0.865000 7867915
-0.294100 -0.017300 0.865000 9458970
-0.294780 -0.012386 0.867000 9852464
-0.296140 -0.007466 0.871000 8998419
-0.297500 -0.002500 0.875000 7550492
-0.298520 0.002509 0.878000 7279392
-0.299200 0.007543 0.880000 8666376
-0.299880 0.012600 0.882000 10843938
-0.299880 0.017640 0.882000 11502925
-0.300560 0.022731 0.884000 8421207
-0.300560 0.027783 0.884000 71201
-0.278252 -0.124626 0.823000 12464721
-0.278252 -0.119923 0.823000 11273524
-0.278929 -0.115500 0.825000 10748705
-0.278929 -0.110786 0.825000 10289689
-0.279605 -0.106329 0.827000 9896979
-0.280281 -0.101849 0.829000 9634835
-0.280281 -0.097111 0.829000 9372171
-0.280957 -0.092597 0.831000 8193037
-0.280957 -0.087849 0.831000 591639
-0.281633 -0.083300 0.833000 1182477
-0.282310 -0.078729 0.835000 1116942
-0.283662 -0.074311 0.839000 1444109
-0.284338 -0.069683 0.841000 590359
-0.284338 -0.064877 0.841000 8588802
-0.285690 -0.060357 0.845000 9261666
-0.286705 -0.055726 0.848000 10251640
-0.287381 -0.051000 0.850000 9652072
-0.287381 -0.046143 0.850000 8789037
-0.288733 -0.041480 0.854000 9854213
-0.289410 -0.036686 0.856000 9127440
-0.290086 -0.031869 0.858000 10449708
-0.290086 -0.026966 0.858000 7542796
-0.291438 -0.022166 0.862000 7538955
-0.292452 -0.017300 0.865000 9525808
-0.293129 -0.012386 0.867000 9460026
-0.293805 -0.007449 0.869000 8799257
-0.295157 -0.002494 0.873000 6833180
-0.296848 0.002509 0.878000 7280653
-0.297524 0.007543 0.880000 8323329
-0.297524 0.012571 0.880000 9125394
-0.298200 0.017640 0.882000 10577468
-0.298876 0.022731 0.884000 9929823
-0.298876 0.027783 0.884000 3749173
-0.278030 -0.125231 0.827000 12790345
-0.277357 -0.120214 0.825000 11470126
-0.277357 -0.115500 0.825000 10814502
-0.277357 -0.110786 0.825000 10486553
-0.278702 -0.106586 0.829000 10093847
-0.278702 -0.101849 0.829000 9831703
-0.279374 -0.097346 0.831000 9503502
-0.279374 -0.092597 0.831000 7996169
-0.279374 -0.087849 0.831000 657433
-0.280047 -0.083300 0.833000 1248270
-0.280719 -0.078729 0.835000 1117198
-0.281391 -0.074134 0.837000 1444110
-0.282064 -0.069517 0.839000 721940
-0.282736 -0.064877 0.841000 8848391
-0.284081 -0.060357 0.845000 9263203
-0.285090 -0.055726 0.848000 10450034
-0.285762 -0.051000 0.850000 10051953
-0.285762 -0.046143 0.850000 9175319
-0.286434 -0.041383 0.852000 10510095
-0.287779 -0.036686 0.856000 9389070
-0.287779 -0.031794 0.856000 10052631
-0.288451 -0.026966 0.858000 7603991
-0.289796 -0.022166 0.862000 7148561
-0.290805 -0.017300 0.865000 9657646
-0.291477 -0.012386 0.867000 9060906
-0.292150 -0.007449 0.869000 8599581
-0.293494 -0.002494 0.873000 6115107
-0.295175 0.002509 0.878000 7282701
-0.295175 0.007526 0.878000 8007444
-0.295848 0.012571 0.880000 7346197
-0.296520 0.017640 0.882000 9585710
-0.297192 0.022731 0.884000 11370569
-0.297192 0.027783 0.884000 7430456
-0.298201 0.032946 0.887000 919052
-0.277123 -0.125534 0.829000 12461121
-0.275786 -0.120214 0.825000 11602471
-0.275786 -0.115500 0.825000 10946347
-0.276454 -0.111054 0.827000 10618137
-0.277123 -0.106586 0.829000 10291227
-0.277123 -0.101849 0.829000 10093595
-0.277791 -0.097346 0.831000 9765906
-0.277791 -0.092597 0.831000 7801348
-0.278460 -0.088060 0.833000 788764
-0.278460 -0.083300 0.833000 1248270
-0.279129 -0.078729 0.835000 1379086
-0.280466 -0.074311 0.839000 1379086
-0.280466 -0.069517 0.839000 590353
-0.281803 -0.065031 0.843000 9051916
-0.282471 -0.060357 0.845000 9719909
-0.283474 -0.055726 0.848000 10513004
-0.284143 -0.051000 0.850000 10116730
-0.284143 -0.046143 0.850000 9115137
-0.284811 -0.041383 0.852000 10376473
-0.285480 -0.036600 0.854000 9520907
-0.286149 -0.031794 0.856000 10044419
-0.286817 -0.026966 0.858000 7606306
-0.288154 -0.022166 0.862000 6691095
-0.289157 -0.017300 0.865000 8208172
-0.289826 -0.012386 0.867000 8000538
-0.290494 -0.007449 0.869000 8132129
-0.291831 -0.002494 0.873000 6840874
-0.292500 0.002500 0.875000 7675660
-0.293503 0.007526 0.878000 9661478
-0.293503 0.012543 0.878000 7873559
-0.294840 0.017640 0.882000 8792352
-0.295509 0.022731 0.884000 10512947
-0.295509 0.027783 0.884000 9541179
-0.296511 0.032946 0.887000 2299649
-0.275544 -0.125534 0.829000 12066622
-0.274214 -0.120214 0.825000 11733288
-0.274214 -0.115500 0.825000 11077670
-0.275544 -0.111323 0.829000 10815260
-0.275544 -0.106586 0.829000 10488096
-0.276209 -0.102094 0.831000 10356000
-0.276873 -0.097580 0.833000 9962775
-0.276873 -0.092820 0.833000 7607560
-0.276873 -0.088060 0.833000 854816
-0.276873 -0.083300 0.833000 1248274
-0.277538 -0.078729 0.835000 1575696
-0.278868 -0.074311 0.839000 1248271
-0.278868 -0.069517 0.839000 459793
-0.279532 -0.064877 0.841000 9242383
-0.280862 -0.060357 0.845000 10180464
-0.281859 -0.055726 0.848000 10646903
-0.281859 -0.050880 0.848000 10118265
-0.282524 -0.046143 0.850000 9044227
-0.283189 -0.041383 0.852000 10250528
-0.284518 -0.036686 0.856000 9578249
-0.284518 -0.031794 0.856000 10051858
-0.285183 -0.026966 0.858000 7602451
-0.286512 -0.022166 0.862000 6234132
-0.287510 -0.017300 0.865000 6830644
-0.288174 -0.012386 0.867000 6886685
-0.288839 -0.007449 0.869000 7669265
-0.289504 -0.002489 0.871000 7560218
-0.290833 0.002500 0.875000 7996172
-0.290833 0.007500 0.875000 11302191
-0.291830 0.012543 0.878000 8401702
-0.292495 0.017600 0.880000 8005154
-0.293160 0.022680 0.882000 9654574
-0.293825 0.027783 0.884000 11567923
-0.294822 0.032946 0.887000 3678260
-0.273965 -0.125534 0.829000 12130875
-0.273304 -0.120506 0.827000 11864361
-0.273304 -0.115780 0.827000 11142178
-0.273965 -0.111323 0.829000 10881054
-0.274626 -0.106843 0.831000 10619941
-0.275287 -0.102340 0.833000 10487845
-0.275287 -0.097580 0.833000 10159644
-0.275287 -0.092820 0.833000 7148300
-0.275287 -0.088060 0.833000 1510949
-0.275948 -0.083500 0.835000 1313813
-0.276609 -0.078917 0.837000 1444625
-0.277270 -0.074311 0.839000 1248271
-0.277270 -0.069517 0.839000 459282
-0.277930 -0.064877 0.841000 9182993
-0.279252 -0.060357 0.845000 10644860
-0.280244 -0.055726 0.848000 10839937
-0.280905 -0.051000 0.850000 10250617
-0.280905 -0.046143 0.850000 8983300
-0.281566 -0.041383 0.852000 10715688
-0.282888 -0.036686 0.856000 9648135
-0.282888 -0.031794 0.856000 10183201
-0.283549 -0.026966 0.858000 7734787
-0.284870 -0.022166 0.862000 7084817
-0.285862 -0.017300 0.865000 7030588
-0.285862 -0.012357 0.865000 6821664
-0.286523 -0.007431 0.867000 7278849
-0.287184 -0.002483 0.869000 6577675
-0.289167 0.002500 0.875000 7476492
-0.289167 0.007500 0.875000 11173943
-0.290158 0.012543 0.878000 8734005
-0.290819 0.017600 0.880000 8003877
-0.291480 0.022680 0.882000 8924201
-0.292141 0.027783 0.884000 11105835
-0.293132 0.032946 0.887000 5851751
-0.273043 -0.125837 0.831000 12129336
-0.272386 -0.120797 0.829000 11994406
-0.272386 -0.116060 0.829000 11207707
-0.273043 -0.111591 0.831000 10946334
-0.273043 -0.106843 0.831000 10750498
-0.273700 -0.102340 0.833000 10684964
-0.274357 -0.097814 0.835000 10357280
-0.274357 -0.093043 0.835000 6626578
-0.274357 -0.088271 0.835000 2167344
-0.275014 -0.083700 0.837000 1379609
-0.275671 -0.079106 0.839000 1248276
-0.275671 -0.074311 0.839000 1314063
-0.276329 -0.069683 0.841000 460043
-0.276329 -0.064877 0.841000 9047835
-0.277643 -0.060357 0.845000 11105144
-0.278629 -0.055726 0.848000 11098243
-0.278629 -0.050880 0.848000 10309754
-0.279286 -0.046143 0.850000 8978704
-0.279943 -0.041383 0.852000 11174439
-0.280600 -0.036600 0.854000 9699616
-0.281257 -0.031794 0.856000 10314534
-0.281914 -0.026966 0.858000 7799557
-0.282571 -0.022114 0.860000 7869969
-0.284214 -0.017300 0.865000 7227952
-0.284214 -0.012357 0.865000 6763547
-0.284871 -0.007431 0.867000 6951697
-0.285529 -0.002483 0.869000 5526801
-0.287500 0.002500 0.875000 6949907
-0.287500 0.007500 0.875000 10970679
-0.287500 0.012500 0.875000 8994629
-0.288486 0.017560 0.878000 7937306
-0.289800 0.022680 0.882000 8198178
-0.290457 0.027783 0.884000 10638369
-0.291443 0.032946 0.887000 8020291
-0.270807 -0.125534 0.829000 11996214
-0.270807 -0.120797 0.829000 11798051
-0.270807 -0.116060 0.829000 11141908
-0.271460 -0.111591 0.831000 10946334
-0.272113 -0.107100 0.833000 10815519
-0.272767 -0.102586 0.835000 10750242
-0.272767 -0.097814 0.835000 10555173
-0.273420 -0.093266 0.837000 6559256
-0.273420 -0.088483 0.837000 2562619
-0.274073 -0.083900 0.839000 1511196
-0.274073 -0.079106 0.839000 1444887
-0.274073 -0.074311 0.839000 1314063
-0.274727 -0.069683 0.841000 459268
-0.274727 -0.064877 0.841000 9053477
-0.276033 -0.060357 0.845000 10906740
-0.277013 -0.055726 0.848000 11308164
-0.277667 -0.051000 0.850000 9982587
-0.277667 -0.046143 0.850000 9576476
-0.278320 -0.041383 0.852000 11373350
-0.279627 -0.036686 0.856000 9643576
-0.279627 -0.031794 0.856000 10518571
-0.280280 -0.026966 0.858000 7930886
-0.280933 -0.022114 0.860000 8065552
-0.282567 -0.017300 0.865000 7547940
-0.282567 -0.012357 0.865000 6179349
-0.283220 -0.007431 0.867000 6105121
-0.283873 -0.002483 0.869000 5199384
-0.285180 0.002494 0.873000 6623513
-0.285833 0.007500 0.875000 10378551
-0.285833 0.012500 0.875000 9194068
-0.286813 0.017560 0.878000 7935504
-0.287467 0.022629 0.880000 8199963
-0.288120 0.027720 0.882000 9251606
-0.289753 0.032946 0.887000 7881246
-0.269877 -0.125837 0.831000 11799344
-0.269228 -0.120797 0.829000 11601702
-0.269877 -0.116340 0.831000 11076891
-0.270527 -0.111860 0.833000 10946588
-0.271176 -0.107357 0.835000 10815261
-0.271176 -0.102586 0.835000 10749729
-0.271176 -0.097814 0.835000 10685725
-0.271826 -0.093266 0.837000 6426153
-0.271826 -0.088483 0.837000 2958661
-0.272475 -0.083900 0.839000 1708071
-0.272475 -0.079106 0.839000 1576473
-0.272475 -0.074311 0.839000 1379347
-0.273125 -0.069683 0.841000 460043
-0.273125 -0.064877 0.841000 9053971
-0.274424 -0.060357 0.845000 10641009
-0.275398 -0.055726 0.848000 11502967
-0.276048 -0.051000 0.850000 9651060
-0.276048 -0.046143 0.850000 10160151
-0.277347 -0.041480 0.854000 11497510
-0.277996 -0.036686 0.856000 9586216
-0.277996 -0.031794 0.856000 10708271
-0.278646 -0.026966 0.858000 8061456
-0.278646 -0.022063 0.858000 8262160
-0.279945 -0.017240 0.862000 7936025
-0.280919 -0.012357 0.865000 5586450
-0.281569 -0.007431 0.867000 5258788
-0.282218 -0.002483 0.869000 4870423
-0.283517 0.002494 0.873000 6297616
-0.283517 0.007483 0.873000 9714722
-0.284167 0.012500 0.875000 9327659
-0.285141 0.017560 0.878000 7934481
-0.285790 0.022629 0.880000 8200218
-0.286440 0.027720 0.882000 7805974
-0.287090 0.032834 0.884000 7744278
-0.268940 -0.126140 0.833000 11470635
-0.268294 -0.121089 0.831000 11471144
-0.269586 -0.116900 0.835000 11077410
-0.270231 -0.112397 0.837000 11011866
-0.270231 -0.107614 0.837000 10815259
-0.270231 -0.102831 0.837000 10749728
-0.270231 -0.098049 0.837000 10684950
-0.270231 -0.093266 0.837000 6036538
-0.270877 -0.088694 0.839000 3422799
-0.270877 -0.083900 0.839000 2101810
-0.270877 -0.079106 0.839000 1642523
-0.270877 -0.074311 0.839000 1445143
-0.271523 -0.069683 0.841000 1245970
-0.272169 -0.065031 0.843000 7480577
-0.272814 -0.060357 0.845000 10635374
-0.273783 -0.055726 0.848000 11167593
-0.274429 -0.051000 0.850000 9977453
-0.274429 -0.046143 0.850000 10501906
-0.275074 -0.041383 0.852000 11490086
-0.276366 -0.036686 0.856000 10114328
-0.276366 -0.031794 0.856000 10969652
-0.277011 -0.026966 0.858000 8258330
-0.277011 -0.022063 0.858000 8459536
