# .PCD v.7 - Point Cloud Data file format
VERSION .7
FIELDS x y z rgb
SIZE 4 4 4 4
TYPE F F F I
COUNT 1 1 1 1
WIDTH 1274
HEIGHT 1
POINTS 1274
DATA ascii
-0.323757 -0.091443 0.865000 1706765
-0.327695 -0.158400 0.880000 11154511
-0.319503 -0.149537 0.858000 11615818
-0.317269 -0.143623 0.852000 11339057
-0.315779 -0.138103 0.848000 10683160
-0.316524 -0.133571 0.850000 10027533
-0.317269 -0.129017 0.852000 9502990
-0.318013 -0.124440 0.854000 9241100
-0.318758 -0.119840 0.856000 9044746
-0.319503 -0.115217 0.858000 7538957
-0.320248 -0.110571 0.860000 853780
-0.320992 -0.105903 0.862000 1248521
-0.322110 -0.101329 0.865000 1248268
-0.322110 -0.096386 0.865000 1510149
-0.322854 -0.091654 0.867000 1640716
-0.326019 -0.158400 0.880000 11090770
-0.319350 -0.150234 0.862000 11811147
-0.315646 -0.143623 0.852000 11535413
-0.314164 -0.138103 0.848000 10879772
-0.314905 -0.133571 0.850000 10224149
-0.315646 -0.129017 0.852000 9634068
-0.316387 -0.124440 0.854000 9371920
-0.317128 -0.119840 0.856000 9241099
-0.317869 -0.115217 0.858000 7604491
-0.318610 -0.110571 0.860000 788501
-0.318610 -0.105657 0.860000 1117452
-0.319350 -0.100977 0.862000 1248268
-0.320462 -0.096386 0.865000 1575433
-0.321203 -0.091654 0.867000 1575439
-0.322685 -0.072169 0.871000 1182478
-0.323426 -0.067346 0.873000 1378828
-0.326019 -0.057829 0.880000 1379088
-0.326760 -0.052920 0.882000 1182479
-0.326760 -0.047880 0.882000 1838094
-0.315497 -0.149189 0.856000 12072525
-0.314023 -0.143623 0.852000 11668024
-0.312549 -0.138103 0.848000 11142176
-0.313286 -0.133571 0.850000 10486556
-0.314760 -0.129320 0.854000 9961753
-0.314760 -0.124440 0.854000 9634068
-0.315497 -0.119840 0.856000 9437708
-0.315497 -0.114949 0.856000 7538952
-0.316971 -0.110571 0.860000 919831
-0.316971 -0.105657 0.860000 1182734
-0.317709 -0.100977 0.862000 1248524
-0.319551 -0.096609 0.867000 1444364
-0.319551 -0.091654 0.867000 1444882
-0.321026 -0.087100 0.871000 1313549
-0.321026 -0.082123 0.871000 1444881
-0.321763 -0.077323 0.873000 1378835
-0.321763 -0.072334 0.873000 1510415
-0.321763 -0.067346 0.873000 1510410
-0.323606 -0.057697 0.878000 1510672
-0.324343 -0.052800 0.880000 1576211
-0.325080 -0.047880 0.882000 1838354
-0.326923 -0.043083 0.887000 2034451
-0.327660 -0.038100 0.889000 1314067
-0.327660 -0.033020 0.889000 1182740
-0.313867 -0.149189 0.856000 12268110
-0.312400 -0.143623 0.852000 11864888
-0.311667 -0.138429 0.850000 11339301
-0.311667 -0.133571 0.850000 10748699
-0.313133 -0.129320 0.854000 10224155
-0.313133 -0.124440 0.854000 9896215
-0.313133 -0.119560 0.854000 9634319
-0.313867 -0.114949 0.856000 7474185
-0.315333 -0.110571 0.860000 985115
-0.315333 -0.105657 0.860000 1313811
-0.316067 -0.100977 0.862000 1182735
-0.317900 -0.096609 0.867000 1379343
-0.317900 -0.091654 0.867000 1248277
-0.318633 -0.086900 0.869000 1314317
-0.319367 -0.082123 0.871000 1707027
-0.320100 -0.077323 0.873000 1379347
-0.320100 -0.072334 0.873000 1772560
-0.320100 -0.067346 0.873000 1641740
-0.320833 -0.062500 0.875000 1510669
-0.321933 -0.057697 0.878000 1708050
-0.322667 -0.052800 0.880000 1903891
-0.323400 -0.047880 0.882000 1773075
-0.325233 -0.043083 0.887000 1969940
-0.325967 -0.038100 0.889000 1642772
-0.325233 -0.032946 0.887000 1970193
-0.325967 -0.027940 0.889000 2232074
-0.312236 -0.149189 0.856000 12399183
-0.310777 -0.143623 0.852000 11931447
-0.310048 -0.138429 0.850000 11405354
-0.310777 -0.133886 0.852000 11010842
-0.311507 -0.129320 0.854000 10552093
-0.311507 -0.124440 0.854000 10158873
-0.311507 -0.119560 0.854000 9896467
-0.312236 -0.114949 0.856000 7342345
-0.313695 -0.110571 0.860000 1181984
-0.313695 -0.105657 0.860000 1510935
-0.314425 -0.100977 0.862000 1444883
-0.316249 -0.096609 0.867000 1576722
-0.316249 -0.091654 0.867000 1510679
-0.316249 -0.086700 0.867000 1510925
-0.317708 -0.082123 0.871000 1706518
-0.318437 -0.077323 0.873000 1641746
-0.318437 -0.072334 0.873000 1903633
-0.318437 -0.067346 0.873000 1642253
-0.320261 -0.062714 0.878000 1706767
-0.320990 -0.057829 0.880000 1707795
-0.320990 -0.052800 0.880000 1969426
-0.322450 -0.047989 0.884000 1904148
-0.323544 -0.043083 0.887000 2035477
-0.324273 -0.038100 0.889000 1773588
-0.323544 -0.032946 0.887000 1970190
-0.324273 -0.027940 0.889000 1969422
-0.325003 -0.022911 0.891000 1576211
-0.312783 -0.155160 0.862000 11289693
-0.310606 -0.149189 0.856000 12530251
-0.309154 -0.143623 0.852000 11996214
-0.308429 -0.138429 0.850000 11470893
-0.309154 -0.133886 0.852000 11207710
-0.309880 -0.129320 0.854000 10815268
-0.310606 -0.124731 0.856000 10421277
-0.310606 -0.119840 0.856000 10093587
-0.310606 -0.114949 0.856000 7277320
-0.311331 -0.110314 0.858000 1380389
-0.312057 -0.105657 0.860000 1774109
-0.312783 -0.100977 0.862000 1642775
-0.313871 -0.096386 0.865000 1708566
-0.314597 -0.091654 0.867000 1708310
-0.315323 -0.086900 0.869000 1642004
-0.316049 -0.082123 0.871000 1642261
-0.316774 -0.077323 0.873000 1838612
-0.316774 -0.072334 0.873000 1969426
-0.316774 -0.067346 0.873000 1708305
-0.318589 -0.062714 0.878000 1904144
-0.318589 -0.057697 0.878000 1773076
-0.319314 -0.052800 0.880000 2035478
-0.320766 -0.047989 0.884000 2035477
-0.321854 -0.043083 0.887000 2035478
-0.321854 -0.038014 0.887000 1969685
-0.320766 -0.032834 0.884000 1969934
-0.322580 -0.027940 0.889000 1707534
-0.324394 -0.022989 0.894000 1903889
-0.311141 -0.155160 0.862000 11354202
-0.308975 -0.149189 0.856000 12661575
-0.307531 -0.143623 0.852000 11996469
-0.306810 -0.138429 0.850000 11405872
-0.307531 -0.133886 0.852000 11274274
-0.308253 -0.129320 0.854000 11078700
-0.308975 -0.124731 0.856000 10618144
-0.308975 -0.119840 0.856000 10290963
-0.309697 -0.115217 0.858000 7016711
-0.309697 -0.110314 0.858000 2103082
-0.310419 -0.105657 0.860000 2037282
-0.311141 -0.100977 0.862000 1905691
-0.312946 -0.096609 0.867000 1840409
-0.312946 -0.091654 0.867000 1840149
-0.313668 -0.086900 0.869000 1838874
-0.314390 -0.082123 0.871000 1774101
-0.315111 -0.077323 0.873000 1904917
-0.315111 -0.072334 0.873000 2035219
-0.315111 -0.067346 0.873000 1839124
-0.316916 -0.062714 0.878000 2101265
-0.317638 -0.057829 0.880000 1904149
-0.317638 -0.052800 0.880000 1577243
-0.319082 -0.047989 0.884000 1576469
-0.320165 -0.043083 0.887000 1642008
-0.320165 -0.038014 0.887000 2297621
-0.320165 -0.032946 0.887000 2166030
-0.320887 -0.027940 0.889000 1904397
-0.322691 -0.022989 0.894000 1969166
-0.325218 -0.007723 0.901000 1902370
-0.309499 -0.155160 0.862000 11420503
-0.307345 -0.149189 0.856000 12790339
-0.305909 -0.143623 0.852000 11995444
-0.305190 -0.138429 0.850000 11340077
-0.305909 -0.133886 0.852000 11405606
-0.306627 -0.129320 0.854000 11342905
-0.307345 -0.124731 0.856000 10880803
-0.307345 -0.119840 0.856000 10488088
-0.308781 -0.115486 0.860000 6756878
-0.308781 -0.110571 0.860000 2825260
-0.308781 -0.105657 0.860000 2365734
-0.309499 -0.100977 0.862000 2102815
-0.310576 -0.096386 0.865000 1971998
-0.311294 -0.091654 0.867000 1971736
-0.312012 -0.086900 0.869000 2035226
-0.312730 -0.082123 0.871000 1840151
-0.313449 -0.077323 0.873000 1905946
-0.313449 -0.072334 0.873000 2034966
-0.313449 -0.067346 0.873000 2035471
-0.315244 -0.062714 0.878000 2296842
-0.315962 -0.057829 0.880000 2034700
-0.316680 -0.052920 0.882000 1116686
-0.318475 -0.048151 0.887000 1182220
-0.318475 -0.043083 0.887000 1247757
-0.318475 -0.038014 0.887000 2625037
-0.318475 -0.032946 0.887000 2362645
-0.319193 -0.027940 0.889000 2101268
-0.320989 -0.022989 0.894000 1969680
-0.322425 -0.017960 0.898000 2035982
-0.322425 -0.012829 0.898000 1707793
-0.323502 -0.007723 0.901000 2493467
-0.307857 -0.155160 0.862000 11418964
-0.305000 -0.148840 0.854000 12527167
-0.304286 -0.143623 0.852000 11995698
-0.304286 -0.138754 0.852000 11076906
-0.305000 -0.134200 0.854000 11471913
-0.305714 -0.129623 0.856000 11872070
-0.305714 -0.124731 0.856000 11012389
-0.305714 -0.119840 0.856000 10685214
-0.307143 -0.115486 0.860000 6558229
-0.307143 -0.110571 0.860000 2892335
-0.307143 -0.105657 0.860000 2431530
-0.307857 -0.100977 0.862000 2234403
-0.308929 -0.096386 0.865000 2103330
-0.309643 -0.091654 0.867000 2234139
-0.310357 -0.086900 0.869000 2232857
-0.311071 -0.082123 0.871000 2298650
-0.312500 -0.077500 0.875000 1642271
-0.311786 -0.072334 0.873000 1444377
-0.312500 -0.067500 0.875000 1247241
-0.314286 -0.062857 0.880000 1836292
-0.314286 -0.057829 0.880000 2819331
-0.315000 -0.052920 0.882000 3408898
-0.316786 -0.048151 0.887000 3605506
-0.316786 -0.043083 0.887000 3277826
-0.316786 -0.038014 0.887000 2491909
-0.316786 -0.032946 0.887000 1771804
-0.317500 -0.027940 0.889000 1641242
-0.319286 -0.022989 0.894000 2166290
-0.320714 -0.017960 0.898000 2035726
-0.320714 -0.012829 0.898000 1708046
-0.321786 -0.007723 0.901000 2034963
-0.321786 -0.002574 0.901000 1839383
-0.306215 -0.155160 0.862000 11483730
-0.303373 -0.148840 0.854000 12262459
-0.303373 -0.143960 0.854000 11995442
-0.303373 -0.139080 0.854000 10814502
-0.304084 -0.134514 0.856000 11536680
-0.304084 -0.129623 0.856000 12396092
-0.304084 -0.124731 0.856000 11144743
-0.305505 -0.120400 0.860000 10882592
-0.305505 -0.115486 0.860000 6425633
-0.305505 -0.110571 0.860000 2958129
-0.306215 -0.105903 0.862000 2562604
-0.307281 -0.101329 0.865000 2365735
-0.307281 -0.096386 0.865000 2234917
-0.307991 -0.091654 0.867000 2496030
-0.307991 -0.086700 0.867000 2430238
-0.309412 -0.082123 0.871000 2691356
-0.310123 -0.077323 0.873000 1377301
-0.310123 -0.072334 0.873000 789015
-0.310123 -0.067346 0.873000 459052
-0.312610 -0.062857 0.880000 1379109
-0.313320 -0.057960 0.882000 3604768
-0.313320 -0.052920 0.882000 5640488
-0.314030 -0.047989 0.884000 6029617
-0.314030 -0.042937 0.884000 5312300
-0.315096 -0.038014 0.887000 2359581
-0.315096 -0.032946 0.887000 1116690
-0.316517 -0.028003 0.891000 1245710
-0.317583 -0.022989 0.894000 2362642
-0.319004 -0.017960 0.898000 2100757
-0.319004 -0.012829 0.898000 1642769
-0.320070 -0.007723 0.901000 1577235
-0.320070 -0.002574 0.901000 1577490
-0.321490 0.007757 0.905000 2235417
-0.305633 -0.155700 0.865000 11614032
-0.302453 -0.149189 0.856000 12260663
-0.301747 -0.143960 0.854000 11929649
-0.301747 -0.139080 0.854000 10682914
-0.303160 -0.134829 0.858000 11471142
-0.303867 -0.130229 0.860000 12068402
-0.303160 -0.125023 0.858000 11144745
-0.304573 -0.120680 0.862000 10949410
-0.304573 -0.115754 0.862000 5969709
-0.304573 -0.110829 0.862000 2958643
-0.304573 -0.105903 0.862000 2694702
-0.305633 -0.101329 0.865000 2497323
-0.305633 -0.096386 0.865000 2366247
-0.306340 -0.091654 0.867000 2561313
-0.307047 -0.086900 0.869000 2298146
-0.307753 -0.082123 0.871000 2034206
-0.309167 -0.077500 0.875000 4262154
-0.309167 -0.072500 0.875000 5315094
-0.309167 -0.067500 0.875000 5905743
-0.310933 -0.062857 0.880000 6235719
-0.311640 -0.057960 0.882000 7613756
-0.311640 -0.052920 0.882000 8732238
-0.313407 -0.048151 0.887000 8794463
-0.313407 -0.043083 0.887000 8271190
-0.314113 -0.038100 0.889000 6496309
-0.314113 -0.033020 0.889000 5053449
-0.314820 -0.028003 0.891000 3736065
-0.316587 -0.023040 0.896000 1378834
-0.317293 -0.017960 0.898000 1706779
-0.317293 -0.012829 0.898000 1970964
-0.318353 -0.007723 0.901000 1773331
-0.318353 -0.002574 0.901000 1905422
-0.320827 0.002594 0.908000 2559509
-0.319767 0.007757 0.905000 2756370
-0.303986 -0.155700 0.865000 11810639
-0.300823 -0.149189 0.856000 12193331
-0.300823 -0.144297 0.856000 11797550
-0.301526 -0.139731 0.858000 10551833
-0.302229 -0.135143 0.860000 11405346
-0.302229 -0.130229 0.860000 11736624
-0.302931 -0.125606 0.862000 11209766
-0.302931 -0.120680 0.862000 10950175
-0.302931 -0.115754 0.862000 5575985
-0.302931 -0.110829 0.862000 2958641
-0.303986 -0.106271 0.865000 2826284
-0.303986 -0.101329 0.865000 2628650
-0.303986 -0.096386 0.865000 2497831
-0.304689 -0.091654 0.867000 2561828
-0.305391 -0.086900 0.869000 2165022
-0.306094 -0.082123 0.871000 1379365
-0.307500 -0.077500 0.875000 7147817
-0.307500 -0.072500 0.875000 9777981
-0.307500 -0.067500 0.875000 11363685
-0.309960 -0.063000 0.882000 11093084
-0.309960 -0.057960 0.882000 11683925
-0.310663 -0.053040 0.884000 11750240
-0.311717 -0.048151 0.887000 11620444
-0.311717 -0.043083 0.887000 11224669
-0.312420 -0.038100 0.889000 10689574
-0.312420 -0.033020 0.889000 8981512
-0.313123 -0.028003 0.891000 6226284
-0.315583 -0.023091 0.898000 328731
-0.316637 -0.018020 0.901000 1377311
-0.315583 -0.012829 0.898000 2297366
-0.316637 -0.007723 0.901000 2035219
-0.317340 -0.002580 0.903000 2167311
-0.319097 0.002594 0.908000 2231826
-0.319097 0.007783 0.908000 3282193
-0.319097 0.012971 0.908000 4201745
-0.302338 -0.155700 0.865000 12070989
-0.299891 -0.149537 0.858000 12125231
-0.299891 -0.144634 0.858000 11732523
-0.300590 -0.140057 0.860000 10879249
-0.301290 -0.135457 0.862000 11405342
-0.301290 -0.130531 0.862000 11668527
-0.301290 -0.125606 0.862000 11144226
-0.302338 -0.121100 0.865000 10886428
-0.302338 -0.116157 0.865000 4921140
-0.301290 -0.110829 0.862000 2958384
-0.302338 -0.106271 0.865000 2957098
-0.302338 -0.101329 0.865000 2826026
-0.303037 -0.096609 0.867000 2694694
-0.303736 -0.091866 0.869000 2431015
-0.304435 -0.087100 0.871000 4328730
-0.304435 -0.082123 0.871000 6496813
-0.306882 -0.077766 0.878000 9647687
-0.306882 -0.072749 0.878000 10968933
-0.306882 -0.067731 0.878000 11689850
-0.308280 -0.063000 0.882000 11490161
-0.308280 -0.057960 0.882000 11620206
-0.308979 -0.053040 0.884000 11688562
-0.310028 -0.048151 0.887000 11423064
-0.310727 -0.043180 0.889000 11158629
-0.310727 -0.038100 0.889000 10556439
-0.311426 -0.033094 0.891000 8978696
-0.312474 -0.028097 0.894000 10189527
-0.313872 -0.023091 0.898000 5112867
-0.313872 -0.017960 0.898000 4066339
-0.313872 -0.012829 0.898000 1509655
-0.314921 -0.007723 0.901000 1773075
-0.315620 -0.002580 0.903000 2232847
-0.317368 0.002594 0.908000 2101263
-0.317368 0.007783 0.908000 2692112
-0.317368 0.012971 0.908000 3741984
-0.301386 -0.156060 0.867000 12332366
-0.298952 -0.149886 0.860000 12060208
-0.298952 -0.144971 0.860000 11666728
-0.298952 -0.140057 0.860000 11141654
-0.299648 -0.135457 0.862000 11404322
-0.299648 -0.130531 0.862000 11536680
-0.299648 -0.125606 0.862000 11143713
-0.300690 -0.121100 0.865000 10821142
-0.300690 -0.116157 0.865000 4330804
-0.300690 -0.111214 0.865000 2892333
-0.300690 -0.106271 0.865000 3087914
-0.301386 -0.101563 0.867000 2956841
-0.301386 -0.096609 0.867000 2891812
-0.302081 -0.091866 0.869000 2297386
-0.303471 -0.087300 0.873000 6554679
-0.303471 -0.082311 0.873000 11605809
-0.304167 -0.077500 0.875000 12212321
-0.305210 -0.072749 0.878000 12081512
-0.305905 -0.067886 0.880000 12081526
-0.306600 -0.063000 0.882000 11884657
-0.306600 -0.057960 0.882000 11619439
-0.307295 -0.053040 0.884000 11556210
-0.308338 -0.048151 0.887000 11292767
-0.309033 -0.043180 0.889000 11027045
-0.309033 -0.038100 0.889000 10486580
-0.309729 -0.033094 0.891000 8982603
-0.310771 -0.028097 0.894000 14150862
-0.311467 -0.023040 0.896000 9903425
-0.312162 -0.017960 0.898000 6820903
-0.312162 -0.012829 0.898000 723481
-0.313205 -0.007723 0.901000 1575966
-0.315638 0.002594 0.908000 1904915
-0.315638 0.007783 0.908000 2102290
-0.299043 -0.155700 0.865000 12132430
-0.297314 -0.149886 0.860000 12059953
-0.297314 -0.144971 0.860000 11666981
-0.298006 -0.140383 0.862000 11470108
-0.298006 -0.135457 0.862000 11736102
-0.299043 -0.130986 0.865000 11405346
-0.299043 -0.126043 0.865000 11012384
-0.299734 -0.121380 0.867000 10755857
-0.299043 -0.116157 0.865000 3413812
-0.299043 -0.111214 0.865000 2761002
-0.299734 -0.106517 0.867000 3022122
-0.299734 -0.101563 0.867000 2957096
-0.300426 -0.096831 0.869000 2563618
-0.301117 -0.092077 0.871000 4784941
-0.301809 -0.087300 0.873000 9317459
-0.301809 -0.082311 0.873000 11536437
-0.302500 -0.077500 0.875000 12146811
-0.303537 -0.072749 0.878000 12013675
-0.304229 -0.067886 0.880000 12080498
-0.304920 -0.063000 0.882000 11888496
-0.304920 -0.057960 0.882000 11751535
-0.305611 -0.053040 0.884000 11687025
-0.306649 -0.048151 0.887000 11424102
-0.307340 -0.043180 0.889000 11224166
-0.307340 -0.038100 0.889000 11224656
-0.308031 -0.033094 0.891000 9831310
-0.309069 -0.028097 0.894000 13750469
-0.309760 -0.023040 0.896000 9834590
-0.310451 -0.017960 0.898000 8656682
-0.310451 -0.012829 0.898000 5380635
-0.311489 -0.007723 0.901000 2230057
-0.313909 0.002594 0.908000 2101783
-0.313909 0.007783 0.908000 1970452
-0.297395 -0.155700 0.865000 11998270
-0.296364 -0.150234 0.862000 11995180
-0.296364 -0.145309 0.862000 11732783
-0.296364 -0.140383 0.862000 11738419
-0.297395 -0.135929 0.865000 12062249
-0.297395 -0.130986 0.865000 11208732
-0.297395 -0.126043 0.865000 10945567
-0.298083 -0.121380 0.867000 10622226
-0.298083 -0.116426 0.867000 2561073
-0.298083 -0.111471 0.867000 2563366
-0.298083 -0.106517 0.867000 2890534
-0.298770 -0.101797 0.869000 2957094
-0.299458 -0.097054 0.871000 2170407
-0.300146 -0.092289 0.873000 7214887
-0.300833 -0.087500 0.875000 12138307
-0.300146 -0.082311 0.873000 11480394
-0.300833 -0.077500 0.875000 12147322
-0.301865 -0.072749 0.878000 11948660
-0.302552 -0.067886 0.880000 12014451
-0.303240 -0.063000 0.882000 11819886
-0.303240 -0.057960 0.882000 11948654
-0.303928 -0.053040 0.884000 11751794
-0.304959 -0.048151 0.887000 11620971
-0.305647 -0.043180 0.889000 11421281
-0.306334 -0.038186 0.891000 12016489
-0.306334 -0.033094 0.891000 10636947
-0.307366 -0.028097 0.894000 13425867
-0.308053 -0.023040 0.896000 9707104
-0.308741 -0.017960 0.898000 10489905
-0.309772 -0.012871 0.901000 10033708
-0.309772 -0.007723 0.901000 2884129
-0.312179 -0.002594 0.908000 2560282
-0.312179 0.002594 0.908000 2232599
-0.312179 0.007783 0.908000 1774614
-0.294722 -0.150234 0.862000 11731751
-0.294722 -0.145309 0.862000 11536185
-0.294722 -0.140383 0.862000 11607114
-0.295748 -0.135929 0.865000 11734060
-0.295748 -0.130986 0.865000 11142422
-0.295748 -0.126043 0.865000 11012638
-0.296431 -0.121380 0.867000 9440788
-0.296431 -0.116426 0.867000 2363693
-0.296431 -0.111471 0.867000 2562594
-0.297115 -0.106763 0.869000 2759970
-0.297115 -0.101797 0.869000 2956836
-0.298483 -0.097277 0.873000 3345963
-0.298483 -0.092289 0.873000 9645345
-0.299167 -0.087500 0.875000 11737650
-0.299167 -0.082500 0.875000 11946846
-0.300876 -0.077943 0.880000 12410489
-0.300876 -0.072914 0.880000 12210812
-0.300876 -0.067886 0.880000 12146292
-0.301560 -0.063000 0.882000 11883628
-0.301560 -0.057960 0.882000 12014189
-0.302244 -0.053040 0.884000 11881843
-0.303953 -0.048260 0.889000 11751791
-0.303953 -0.043180 0.889000 11618653
-0.304637 -0.038186 0.891000 12216962
-0.305663 -0.033206 0.894000 10960025
-0.305663 -0.028097 0.894000 13088976
-0.306347 -0.023040 0.896000 9972834
-0.307030 -0.017960 0.898000 10625335
-0.308056 -0.012871 0.901000 10630973
-0.308056 -0.007723 0.901000 6032409
-0.310450 -0.002594 0.908000 1642265
-0.310450 0.002594 0.908000 2363671
-0.311133 0.007800 0.910000 2036760
-0.293080 -0.150234 0.862000 11479389
-0.293080 -0.145309 0.862000 11339061
-0.294100 -0.140871 0.865000 11473467
-0.294100 -0.135929 0.865000 11340074
-0.294100 -0.130986 0.865000 11077408
-0.294780 -0.126334 0.867000 11012381
-0.295460 -0.121660 0.869000 8194839
-0.294780 -0.116426 0.867000 2167083
-0.295460 -0.111729 0.869000 2496544
-0.295460 -0.106763 0.869000 2694689
-0.295460 -0.101797 0.869000 2890531
-0.296820 -0.097277 0.873000 4456739
-0.298520 -0.092817 0.878000 12072262
-0.298520 -0.087800 0.878000 11404119
-0.297500 -0.082500 0.875000 12403803
-0.299200 -0.077943 0.880000 12606593
-0.299200 -0.072914 0.880000 12410493
-0.299880 -0.068040 0.882000 12342902
-0.299880 -0.063000 0.882000 11883378
-0.300560 -0.058091 0.884000 12146293
-0.301580 -0.053220 0.887000 11947892
-0.302260 -0.048260 0.889000 11947892
-0.302940 -0.043277 0.891000 11748959
-0.303960 -0.038314 0.894000 12483972
-0.304640 -0.033280 0.896000 11237535
-0.304640 -0.028160 0.896000 12828870
-0.304640 -0.023040 0.896000 10231908
-0.305320 -0.017960 0.898000 10763592
-0.306340 -0.012871 0.901000 11152966
-0.306340 -0.007723 0.901000 9178174
-0.308720 -0.002594 0.908000 723749
-0.308720 0.002594 0.908000 2429471
-0.309400 0.007800 0.910000 2298904
-0.291438 -0.150234 0.862000 12087187
-0.291438 -0.145309 0.862000 11347761
-0.292452 -0.140871 0.865000 11208749
-0.292452 -0.135929 0.865000 11143207
-0.293129 -0.131289 0.867000 11012651
-0.294481 -0.126917 0.871000 11013403
-0.294481 -0.121940 0.871000 5964314
-0.294481 -0.116963 0.871000 2429480
-0.294481 -0.111986 0.871000 2299678
-0.294481 -0.107009 0.871000 2497823
-0.294481 -0.102031 0.871000 2955298
-0.298200 -0.098280 0.882000 5375258
-0.296848 -0.092817 0.878000 13331308
-0.296848 -0.087800 0.878000 12405116
-0.295833 -0.082500 0.875000 12472663
-0.297524 -0.077943 0.880000 12608392
-0.298200 -0.073080 0.882000 12609150
-0.298200 -0.068040 0.882000 12541815
-0.298200 -0.063000 0.882000 12343672
-0.299890 -0.058289 0.887000 12342652
-0.299890 -0.053220 0.887000 12078965
-0.300567 -0.048260 0.889000 12145785
-0.301243 -0.043277 0.891000 11813473
-0.302257 -0.038314 0.894000 12945541
-0.302933 -0.033280 0.896000 11758502
-0.302933 -0.028160 0.896000 12756667
-0.303610 -0.023091 0.898000 10360422
-0.303610 -0.017960 0.898000 10958169
-0.304624 -0.012871 0.901000 11287376
-0.305300 -0.007740 0.903000 10499683
-0.306990 -0.002594 0.908000 4658993
-0.306990 0.002594 0.908000 2035751
-0.307667 0.007800 0.910000 2233881
-0.289796 -0.150234 0.862000 12623018
-0.290805 -0.145814 0.865000 11301242
-0.290805 -0.140871 0.865000 10891873
-0.290805 -0.135929 0.865000 10945338
-0.292150 -0.131591 0.869000 10947115
-0.293494 -0.127209 0.873000 11013152
-0.293494 -0.122220 0.873000 3738911
-0.295175 -0.117903 0.878000 2692393
-0.293494 -0.112243 0.873000 2037533
-0.293494 -0.107254 0.873000 2366750
-0.292822 -0.102031 0.871000 2954022
-0.296520 -0.098280 0.882000 6227995
-0.295848 -0.093029 0.880000 14522244
-0.295848 -0.088000 0.880000 13406883
-0.295175 -0.082783 0.878000 12472933
-0.295848 -0.077943 0.880000 12610943
-0.296520 -0.073080 0.882000 12738428
-0.296520 -0.068040 0.882000 12805502
-0.297192 -0.063143 0.884000 12739201
-0.298201 -0.058289 0.887000 12603263
-0.298873 -0.053340 0.889000 12144761
-0.298873 -0.048260 0.889000 12279418
-0.299546 -0.043277 0.891000 11812190
-0.300554 -0.038314 0.894000 13478794
-0.301227 -0.033280 0.896000 12291749
-0.301227 -0.028160 0.896000 12690116
-0.301227 -0.023040 0.896000 10428515
-0.302908 -0.018020 0.901000 11158365
-0.302908 -0.012871 0.901000 11350090
-0.303580 -0.007740 0.903000 11818595
-0.305261 -0.002594 0.908000 8528445
-0.305261 0.002594 0.908000 1642537
-0.305933 0.007800 0.910000 2168349
-0.289157 -0.145814 0.865000 12164034
-0.289157 -0.140871 0.865000 11760789
-0.289157 -0.135929 0.865000 11155020
-0.291163 -0.131894 0.871000 10749740
-0.291831 -0.127209 0.873000 10295588
-0.291831 -0.122220 0.873000 3082532
-0.293503 -0.117903 0.878000 2758185
-0.292500 -0.112500 0.875000 2299421
-0.292500 -0.107500 0.875000 2431005
-0.292500 -0.102500 0.875000 2363434
-0.294840 -0.098280 0.882000 7935772
-0.294840 -0.093240 0.882000 14136732
-0.294171 -0.088000 0.880000 13076425
-0.293503 -0.082783 0.878000 12344691
-0.294840 -0.078120 0.882000 12540022
-0.294840 -0.073080 0.882000 12737658
-0.295509 -0.068194 0.884000 12936581
-0.296511 -0.063357 0.887000 12870282
-0.297180 -0.058420 0.889000 12804738
-0.297180 -0.053340 0.889000 12339324
-0.297849 -0.048369 0.891000 12541819
-0.297849 -0.043277 0.891000 11678043
-0.299520 -0.038400 0.896000 12214927
-0.299520 -0.033280 0.896000 13014181
-0.299520 -0.028160 0.896000 12750796
-0.299520 -0.023040 0.896000 10687328
-0.301191 -0.018020 0.901000 11284832
-0.301191 -0.012871 0.901000 11619396
-0.301860 -0.007740 0.903000 11885154
-0.303531 -0.002594 0.908000 9775688
-0.304200 0.002600 0.910000 3149354
-0.304200 0.007800 0.910000 2365217
-0.287510 -0.145814 0.865000 13087934
-0.287510 -0.140871 0.865000 12623528
-0.287510 -0.135929 0.865000 11370114
-0.289504 -0.131894 0.871000 10499935
-0.290169 -0.127209 0.873000 9644328
-0.290169 -0.122220 0.873000 2428967
-0.291830 -0.117903 0.878000 2759214
-0.291830 -0.112886 0.878000 2495776
-0.291830 -0.107869 0.878000 2495772
-0.292495 -0.103086 0.880000 1706784
-0.293160 -0.098280 0.882000 9638691
-0.293160 -0.093240 0.882000 13733272
-0.293160 -0.088200 0.882000 12803275
-0.293160 -0.083160 0.882000 12211312
-0.293160 -0.078120 0.882000 12468082
-0.293825 -0.073246 0.884000 12671351
-0.293825 -0.068194 0.884000 13067394
-0.294822 -0.063357 0.887000 12935044
-0.296151 -0.058551 0.891000 12941967
-0.296151 -0.053460 0.891000 12539772
-0.296151 -0.048369 0.891000 12739464
-0.296151 -0.043277 0.891000 11547737
-0.297813 -0.038400 0.896000 11018833
-0.297813 -0.033280 0.896000 13672112
-0.297813 -0.028160 0.896000 12743354
-0.298478 -0.023091 0.898000 10956892
-0.299475 -0.018020 0.901000 11351897
-0.299475 -0.012871 0.901000 11813461
-0.300140 -0.007740 0.903000 11949927
-0.301802 -0.002594 0.908000 10954049
-0.302467 0.002600 0.910000 4655653
-0.302467 0.007800 0.910000 2561572
-0.285862 -0.140871 0.865000 12562108
-0.287845 -0.131894 0.871000 11499666
-0.288506 -0.127209 0.873000 8141356
-0.288506 -0.122220 0.873000 2561066
-0.290158 -0.117903 0.878000 3022898
-0.290158 -0.112886 0.878000 2561316
-0.290158 -0.107869 0.878000 2561051
-0.290819 -0.103086 0.880000 1574166
-0.291480 -0.098280 0.882000 10361129
-0.291480 -0.093240 0.882000 13990036
-0.292141 -0.088400 0.884000 12609741
-0.292141 -0.083349 0.884000 12144493
-0.291480 -0.078120 0.882000 12340334
-0.293132 -0.073494 0.887000 12604788
-0.293132 -0.068426 0.887000 12870526
-0.293793 -0.063500 0.889000 12867198
-0.294454 -0.058551 0.891000 13070235
-0.294454 -0.053460 0.891000 12673916
-0.294454 -0.048369 0.891000 13001620
-0.295446 -0.043423 0.894000 11675478
-0.296107 -0.038400 0.896000 11275794
-0.296768 -0.033354 0.898000 14144700
-0.296107 -0.028160 0.896000 12678312
-0.297759 -0.023169 0.901000 11350361
-0.297759 -0.018020 0.901000 11481169
-0.297759 -0.012871 0.901000 11948901
-0.299081 -0.007757 0.905000 12015211
-0.300072 -0.002594 0.908000 10815545
-0.300733 0.002600 0.910000 6362912
-0.300733 0.007800 0.910000 2168616
-0.288486 -0.112886 0.878000 2627625
-0.288486 -0.107869 0.878000 2561309
-0.289143 -0.103086 0.880000 1443862
-0.289800 -0.098280 0.882000 11153741
-0.290457 -0.093451 0.884000 14194091
-0.290457 -0.088400 0.884000 12481694
-0.290457 -0.083349 0.884000 12011629
-0.289800 -0.078120 0.882000 12210016
-0.291443 -0.073494 0.887000 12538479
-0.292100 -0.068580 0.889000 12739198
-0.292100 -0.063500 0.889000 12802940
-0.292757 -0.058551 0.891000 13199753
-0.293743 -0.053640 0.894000 12803452
-0.292757 -0.048369 0.891000 13263753
-0.293743 -0.043423 0.894000 11743831
-0.294400 -0.038400 0.896000 11536173
-0.295057 -0.033354 0.898000 14599095
-0.295057 -0.028223 0.898000 12608160
-0.296043 -0.023169 0.901000 11678807
-0.296700 -0.018060 0.903000 11677759
-0.297357 -0.012929 0.905000 12079467
-0.297357 -0.007757 0.905000 12081013
-0.298343 -0.002594 0.908000 10688056
-0.299000 0.002600 0.910000 8134430
-0.299986 0.007826 0.913000 1708074
-0.287467 -0.113143 0.880000 2627887
-0.287467 -0.108114 0.880000 2627614
-0.287467 -0.103086 0.880000 1573654
-0.288120 -0.098280 0.882000 11753585
-0.288773 -0.093451 0.884000 14260673
-0.288773 -0.088400 0.884000 12277615
-0.289753 -0.083631 0.887000 11813741
-0.288773 -0.078297 0.884000 12143185
-0.290407 -0.073660 0.889000 12405866
-0.290407 -0.068580 0.889000 12539774
-0.291060 -0.063643 0.891000 12670841
-0.292040 -0.058749 0.894000 12870262
-0.292040 -0.053640 0.894000 12866941
-0.292040 -0.048531 0.894000 13001086
-0.292693 -0.043520 0.896000 11938136
-0.293347 -0.038486 0.898000 12002887
-0.293347 -0.033354 0.898000 14343346
-0.293347 -0.028223 0.898000 12010648
-0.294327 -0.023169 0.901000 11743829
-0.294980 -0.018060 0.903000 11610156
-0.295633 -0.012929 0.905000 12275824
-0.296613 -0.007783 0.908000 12015486
-0.297267 -0.002600 0.910000 10945848
-0.297267 0.002600 0.910000 9051676
-0.285790 -0.113143 0.880000 2561572
-0.285790 -0.108114 0.880000 2693923
-0.286440 -0.103320 0.882000 1640216
-0.286440 -0.098280 0.882000 12410977
-0.288064 -0.093769 0.887000 14261915
-0.288713 -0.088900 0.889000 12063601
-0.288713 -0.083820 0.889000 11619692
-0.288064 -0.078563 0.887000 12076126
-0.288713 -0.073660 0.889000 12209770
-0.289363 -0.068734 0.891000 12341365
-0.289363 -0.063643 0.891000 12472687
-0.290337 -0.058749 0.894000 12607095
-0.290987 -0.053760 0.896000 12867450
-0.290337 -0.048531 0.894000 12738692
-0.290987 -0.043520 0.896000 12135506
-0.291636 -0.038486 0.898000 12465247
-0.292610 -0.033466 0.901000 14061462
-0.292610 -0.028317 0.901000 11403646
-0.292610 -0.023169 0.901000 11741009
-0.293260 -0.018060 0.903000 11600151
-0.293910 -0.012929 0.905000 12473456
-0.294884 -0.007783 0.908000 12017787
-0.295533 -0.002600 0.910000 11142707
-0.295533 0.002600 0.910000 10033708
-0.284114 -0.113143 0.880000 1642010
-0.284760 -0.108360 0.882000 2824743
-0.284760 -0.103320 0.882000 1573914
-0.285406 -0.098503 0.884000 11550544
-0.287020 -0.093980 0.889000 12949365
-0.287020 -0.088900 0.889000 11944818
-0.287666 -0.084009 0.891000 11751276
-0.287020 -0.078740 0.889000 12011882
-0.287666 -0.073826 0.891000 12210026
-0.288634 -0.068966 0.894000 12275819
-0.287666 -0.063643 0.891000 12340326
-0.289280 -0.058880 0.896000 12473207
-0.289280 -0.053760 0.896000 12671351
-0.289280 -0.048640 0.896000 12541578
-0.289926 -0.043617 0.898000 11997516
-0.289926 -0.038486 0.898000 12601974
-0.290894 -0.033466 0.901000 13652857
-0.291540 -0.028380 0.903000 12137572
-0.291540 -0.023220 0.903000 12067405
-0.292186 -0.018100 0.905000 12130305
-0.293154 -0.012971 0.908000 12213873
-0.293154 -0.007783 0.908000 11551864
-0.293800 -0.002600 0.910000 11011375
-0.294769 0.002609 0.913000 10425659
-0.283080 -0.108360 0.882000 3020586
-0.283080 -0.103320 0.882000 1510429
-0.284685 -0.098837 0.887000 10690089
-0.285327 -0.093980 0.889000 11549247
-0.285969 -0.089100 0.891000 11817331
-0.285969 -0.084009 0.891000 11817073
-0.285969 -0.078917 0.891000 11947119
-0.286931 -0.074074 0.894000 12144489
-0.286931 -0.068966 0.894000 12145261
-0.286931 -0.063857 0.894000 12210545
-0.287573 -0.058880 0.896000 12273777
-0.288215 -0.053880 0.898000 12407403
-0.288215 -0.048749 0.898000 12412011
-0.288215 -0.043617 0.898000 11801425
-0.289178 -0.038614 0.901000 12802170
-0.289820 -0.033540 0.903000 13263484
-0.289820 -0.028380 0.903000 12934012
-0.289820 -0.023220 0.903000 12336737
-0.290462 -0.018100 0.905000 12734787
-0.291425 -0.012971 0.908000 11959221
-0.291425 -0.007783 0.908000 11093414
-0.292067 -0.002600 0.910000 10814007
-0.293030 0.002609 0.913000 10749250
-0.281400 -0.103320 0.882000 1903648
-0.283633 -0.099060 0.889000 10097921
-0.284271 -0.094191 0.891000 10879242
-0.284271 -0.089100 0.891000 11883380
-0.284271 -0.084009 0.891000 12013430
-0.285229 -0.079183 0.894000 11881843
-0.285229 -0.074074 0.894000 12013160
-0.285867 -0.069120 0.896000 12079471
-0.285229 -0.063857 0.894000 12344444
-0.285867 -0.058880 0.896000 12142954
-0.286505 -0.053880 0.898000 12272735
-0.286505 -0.048749 0.898000 12207180
-0.287462 -0.043763 0.901000 12000855
-0.288100 -0.038700 0.903000 12736894
-0.288100 -0.033540 0.903000 13199487
-0.288100 -0.028380 0.903000 13003155
-0.288738 -0.023271 0.905000 12810869
-0.288738 -0.018100 0.905000 13929093
-0.289695 -0.012971 0.908000 14337273
-0.289695 -0.007783 0.908000 13266900
-0.290333 -0.002600 0.910000 11600191
-0.291290 0.002609 0.913000 11214408
-0.281306 -0.098837 0.887000 9574420
-0.281940 -0.093980 0.889000 10225178
-0.281940 -0.088900 0.889000 11952242
-0.281940 -0.083820 0.889000 12145011
-0.282574 -0.078917 0.891000 11882097
-0.283526 -0.074074 0.894000 11882081
-0.283526 -0.068966 0.894000 12013425
-0.283526 -0.063857 0.894000 12474998
-0.284160 -0.058880 0.896000 12077933
-0.284160 -0.053760 0.896000 12076905
-0.284794 -0.048749 0.898000 12072275
-0.285746 -0.043763 0.901000 12136540
-0.286380 -0.038700 0.903000 12671863
-0.286380 -0.033540 0.903000 13068159
-0.286380 -0.028380 0.903000 13070221
-0.286380 -0.023220 0.903000 13195885
-0.287014 -0.018100 0.905000 15129532
-0.287014 -0.012929 0.905000 16705784
-0.287966 -0.007783 0.908000 15457001
-0.287966 -0.002594 0.908000 12351903
-0.288600 0.002600 0.910000 11685772
-0.280247 -0.099060 0.889000 7278375
-0.280247 -0.093980 0.889000 10685738
-0.280877 -0.089100 0.891000 11883887
-0.280877 -0.084009 0.891000 12013167
-0.281823 -0.079183 0.894000 11618158
-0.282453 -0.074240 0.896000 11884378
-0.282453 -0.069120 0.896000 11948402
-0.281823 -0.063857 0.894000 12343664
-0.282453 -0.058880 0.896000 12012144
-0.283084 -0.053880 0.898000 12013428
-0.283084 -0.048749 0.898000 11940186
-0.284660 -0.043860 0.903000 12075874
-0.284660 -0.038700 0.903000 12473712
-0.284660 -0.033540 0.903000 12936830
-0.285290 -0.028443 0.905000 12869510
-0.285290 -0.023271 0.905000 12537445
-0.285290 -0.018100 0.905000 15062002
-0.286236 -0.012971 0.908000 16642039
-0.286236 -0.007783 0.908000 16119038
-0.286867 -0.002600 0.910000 14547710
-0.287812 0.002609 0.913000 13670608
-0.278553 -0.099060 0.889000 5047318
-0.279180 -0.094191 0.891000 11085868
-0.280120 -0.089400 0.894000 11817589
-0.280120 -0.084291 0.894000 11882863
-0.280747 -0.079360 0.896000 11357544
-0.281373 -0.074406 0.898000 11816291
-0.281373 -0.069274 0.898000 11882861
-0.280747 -0.064000 0.896000 12145775
-0.281373 -0.059011 0.898000 12012144
-0.281373 -0.053880 0.898000 11947378
-0.282313 -0.048911 0.901000 11802701
-0.283567 -0.043957 0.905000 12012139
-0.283567 -0.038786 0.905000 12341871
-0.283567 -0.033614 0.905000 12738171
-0.283567 -0.028443 0.905000 12668021
-0.284507 -0.023349 0.908000 11807595
-0.284507 -0.018160 0.908000 15072760
-0.285133 -0.013000 0.910000 16576502
-0.284507 -0.007783 0.908000 16710396
-0.286073 -0.002609 0.913000 16699883
-0.286073 0.002609 0.913000 15591911
-0.279040 -0.094720 0.896000 9841199
-0.279040 -0.089600 0.896000 11883899
-0.279040 -0.084480 0.896000 11884399
-0.279663 -0.079537 0.898000 11483233
-0.279663 -0.074406 0.898000 11885163
-0.280597 -0.069506 0.901000 11883880
-0.279040 -0.064000 0.896000 12079726
-0.279663 -0.059011 0.898000 11947631
-0.280597 -0.054060 0.901000 11881840
-0.281220 -0.049020 0.903000 11742016
-0.281843 -0.043957 0.905000 12012404
-0.281843 -0.038786 0.905000 12210541
-0.281843 -0.033614 0.905000 12605560
-0.282777 -0.028537 0.908000 12471396
-0.282777 -0.023349 0.908000 11403633
-0.282777 -0.018160 0.908000 15396606
-0.283400 -0.013000 0.910000 16645110
-0.283400 -0.007800 0.910000 15129337
-0.284957 -0.002614 0.915000 14466264
-0.284957 0.002614 0.915000 15198462
-0.277952 -0.094931 0.898000 8525855
-0.277952 -0.089800 0.898000 11950147
-0.278881 -0.084951 0.901000 11819628
-0.278881 -0.079803 0.901000 11608418
-0.278881 -0.074654 0.901000 11949929
-0.278881 -0.069506 0.901000 11885417
-0.277952 -0.064143 0.898000 12014190
-0.278881 -0.059209 0.901000 11882607
-0.278881 -0.054060 0.901000 11815529
-0.280119 -0.049129 0.905000 11676500
-0.281048 -0.044103 0.908000 11948141
-0.281048 -0.038914 0.908000 12144738
-0.281048 -0.033726 0.908000 12474489
-0.281048 -0.028537 0.908000 12338532
-0.281048 -0.023349 0.908000 10957679
-0.281667 -0.018200 0.910000 15726835
-0.281667 -0.013000 0.910000 16710137
-0.282595 -0.007826 0.913000 13550577
-0.283214 -0.002614 0.915000 12165312
-0.283214 0.002614 0.915000 14799845
-0.276242 -0.094931 0.898000 4587791
-0.277165 -0.090100 0.901000 9513482
-0.277165 -0.084951 0.901000 11885929
-0.278395 -0.080157 0.905000 11547490
-0.277780 -0.074820 0.903000 11753575
-0.278395 -0.069814 0.905000 11817322
-0.277780 -0.064500 0.903000 11818094
-0.277780 -0.059340 0.903000 11882863
-0.278395 -0.054300 0.905000 11815522
-0.278395 -0.049129 0.905000 11747432
-0.279318 -0.044103 0.908000 11882599
-0.279318 -0.038914 0.908000 11879767
-0.279318 -0.033726 0.908000 12213115
-0.279318 -0.028537 0.908000 12010084
-0.279933 -0.023400 0.910000 12256109
-0.280856 -0.018260 0.913000 15523304
-0.280856 -0.013043 0.913000 16710652
-0.280856 -0.007826 0.913000 13348584
-0.282087 -0.002620 0.917000 11375272
-0.282087 0.002620 0.917000 14203852
-0.275449 -0.090100 0.901000 7012870
-0.276060 -0.085140 0.903000 11946807
-0.276671 -0.080157 0.905000 11482981
-0.277589 -0.075234 0.908000 11488096
-0.277589 -0.070046 0.908000 11750504
-0.276060 -0.064500 0.903000 11550817
-0.276671 -0.059471 0.905000 11883381
-0.277589 -0.054480 0.908000 11746149
-0.277589 -0.049291 0.908000 11816561
-0.278200 -0.044200 0.910000 11818086
-0.278200 -0.039000 0.910000 11678816
-0.278200 -0.033800 0.910000 11947628
-0.278200 -0.028600 0.910000 11747934
-0.279117 -0.023477 0.913000 13593978
-0.279729 -0.018300 0.915000 15387116
-0.279729 -0.013071 0.915000 16710395
-0.279729 -0.007843 0.915000 13145031
-0.280340 -0.002620 0.917000 10591671
-0.280340 0.002620 0.917000 13686487
-0.273732 -0.090100 0.901000 5510146
-0.274340 -0.085140 0.903000 9316614
-0.275859 -0.080423 0.908000 11620455
-0.276467 -0.075400 0.910000 11416408
-0.276467 -0.070200 0.910000 11620454
-0.277378 -0.065214 0.913000 11146324
-0.277378 -0.059997 0.913000 11883899
-0.277378 -0.054780 0.913000 11413352
-0.277378 -0.049563 0.913000 11882873
-0.276467 -0.044200 0.910000 11819366
-0.276467 -0.039000 0.910000 11749225
-0.276467 -0.033800 0.910000 11547998
-0.277378 -0.028694 0.913000 11284311
-0.277986 -0.023529 0.915000 14730376
-0.277986 -0.018300 0.915000 15457776
-0.277986 -0.013071 0.915000 16709371
-0.277986 -0.007843 0.915000 12161445
-0.278593 -0.002620 0.917000 10921927
-0.272016 -0.090100 0.901000 3951701
-0.272620 -0.085140 0.903000 6622495
-0.274130 -0.080423 0.908000 11821114
-0.274733 -0.075400 0.910000 11288148
-0.275639 -0.070431 0.913000 11424883
-0.276243 -0.065357 0.915000 10694742
-0.276243 -0.060129 0.915000 11884905
-0.276243 -0.054900 0.915000 11026013
-0.275639 -0.049563 0.913000 12014705
-0.274733 -0.044200 0.910000 11815004
-0.276243 -0.039214 0.915000 11815523
-0.276243 -0.033986 0.915000 11156060
-0.276243 -0.028757 0.915000 10892340
-0.276243 -0.023529 0.915000 15840175
-0.276847 -0.018340 0.917000 15524329
-0.276847 -0.013100 0.917000 16642550
-0.276847 -0.007860 0.917000 11111098
-0.277752 -0.002629 0.920000 11247556
-0.270900 -0.085140 0.903000 6291767
-0.272400 -0.080423 0.908000 9185037
-0.273000 -0.075400 0.910000 11354705
-0.273900 -0.070431 0.913000 11491711
-0.274500 -0.065357 0.915000 11092313
-0.275100 -0.060260 0.917000 11686486
-0.275100 -0.055020 0.917000 11421522
-0.274500 -0.049671 0.915000 11883880
-0.274500 -0.044443 0.915000 11614034
-0.275100 -0.039300 0.917000 11749469
-0.275100 -0.034060 0.917000 11419226
-0.275100 -0.028820 0.917000 11607313
-0.275100 -0.023580 0.917000 15651799
-0.275100 -0.018340 0.917000 14994145
-0.276000 -0.013143 0.920000 16119793
-0.276000 -0.007886 0.920000 11969231
-0.276600 -0.002634 0.922000 12425666
-0.271267 -0.080600 0.910000 6619450
-0.271267 -0.075400 0.910000 11349295
-0.272757 -0.070586 0.915000 11625069
-0.273353 -0.065500 0.917000 11421537
-0.273353 -0.060260 0.917000 11556947
-0.274248 -0.055200 0.920000 11749980
-0.273353 -0.049780 0.917000 11817825
-0.273353 -0.044540 0.917000 11352922
-0.274248 -0.039429 0.920000 11685468
-0.274248 -0.034171 0.920000 11615835
-0.274248 -0.028914 0.920000 12255530
-0.274248 -0.023657 0.920000 15393513
-0.274248 -0.018400 0.920000 14469091
-0.274844 -0.013171 0.922000 15522280
-0.274248 -0.007886 0.920000 12891603
-0.275738 -0.002643 0.925000 13615567
-0.269533 -0.080600 0.910000 7748966
-0.270422 -0.075649 0.913000 8913166
-0.271014 -0.070586 0.915000 10569050
-0.271607 -0.065500 0.917000 11691369
-0.272495 -0.060457 0.920000 11352656
-0.272495 -0.055200 0.920000 11687014
-0.272495 -0.049943 0.920000 11554138
-0.272495 -0.044686 0.920000 11417699
-0.273088 -0.039514 0.922000 11618138
-0.273088 -0.034246 0.922000 11617885
-0.273088 -0.028977 0.922000 12998467
-0.272495 -0.023657 0.920000 16055804
-0.273088 -0.018440 0.922000 15326180
-0.273088 -0.013171 0.922000 14138847
-0.273088 -0.007903 0.922000 12299223
-0.273976 -0.002643 0.925000 14343133
-0.267800 -0.080600 0.910000 8947848
-0.269271 -0.075814 0.915000 6430535
-0.269860 -0.070740 0.917000 9516846
-0.270743 -0.065714 0.920000 11947078
-0.271331 -0.060589 0.922000 11147074
-0.270743 -0.055200 0.920000 11551566
-0.270743 -0.049943 0.920000 11293023
-0.271331 -0.044783 0.922000 11485287
-0.272214 -0.039643 0.925000 11618654
-0.272214 -0.034357 0.925000 11616090
-0.271331 -0.028977 0.922000 13726031
-0.271331 -0.023709 0.922000 16708851
-0.271331 -0.018440 0.922000 16180721
-0.272214 -0.013214 0.925000 12761307
-0.272214 -0.007929 0.925000 11772115
-0.267529 -0.075814 0.915000 9199488
-0.268113 -0.070740 0.917000 7739649
-0.269575 -0.065857 0.922000 9118499
-0.270452 -0.060786 0.925000 10819380
-0.270452 -0.055500 0.925000 11614775
-0.269575 -0.050051 0.922000 11488868
-0.270452 -0.044929 0.925000 11553899
-0.271037 -0.039729 0.927000 11814498
-0.271037 -0.034431 0.927000 11551830
-0.270452 -0.029071 0.925000 12871002
-0.270452 -0.023786 0.925000 15001835
-0.270452 -0.018500 0.925000 15854590
-0.271037 -0.013243 0.927000 12168152
-0.271037 -0.007946 0.927000 12629198
-0.265786 -0.075814 0.915000 11899285
-0.266367 -0.070740 0.917000 5974349
-0.270143 -0.066429 0.930000 6294831
-0.269271 -0.060917 0.927000 10495003
-0.270143 -0.055800 0.930000 11681595
-0.269271 -0.050323 0.927000 11682922
-0.269271 -0.045026 0.927000 11620200
-0.270143 -0.039857 0.930000 11946333
-0.270143 -0.034543 0.930000 11414096
-0.269271 -0.029134 0.927000 12018049
-0.269271 -0.023837 0.927000 13207711
-0.269271 -0.018540 0.927000 15526873
-0.269271 -0.013243 0.927000 11579090
-0.269271 -0.007946 0.927000 13548751
-0.264620 -0.070740 0.917000 9600152
-0.268371 -0.066429 0.930000 7143740
-0.268371 -0.061114 0.930000 6425089
-0.268371 -0.055800 0.930000 9781055
-0.267506 -0.050323 0.927000 11686512
-0.268371 -0.045171 0.930000 11818086
-0.268949 -0.039943 0.932000 11881816
-0.268371 -0.034543 0.930000 11010891
-0.268371 -0.029229 0.930000 12353191
-0.268371 -0.023914 0.930000 12648788
-0.268371 -0.018600 0.930000 13800883
-0.267506 -0.013243 0.927000 12893900
-0.268371 -0.007971 0.930000 14271184
-0.267173 -0.066571 0.932000 8021875
-0.266600 -0.061114 0.930000 2294085
-0.266600 -0.055800 0.930000 7805988
-0.266600 -0.050486 0.930000 11753274
-0.266600 -0.045171 0.930000 11948380
-0.267173 -0.039943 0.932000 11751764
-0.267173 -0.034617 0.932000 10556227
-0.267173 -0.029291 0.932000 12753316
-0.267173 -0.023966 0.932000 12077934
-0.267173 -0.018640 0.932000 12134282
-0.267173 -0.013314 0.932000 14119272
-0.267173 -0.007989 0.932000 14928312
-0.265398 -0.066571 0.932000 10923178
-0.264829 -0.061114 0.930000 7166088
-0.264829 -0.055800 0.930000 6553865
-0.264829 -0.050486 0.930000 7083780
-0.265398 -0.045269 0.932000 9584979
-0.266252 -0.040071 0.935000 11287119
-0.266252 -0.034729 0.935000 10820156
-0.266252 -0.029386 0.935000 12546721
-0.266252 -0.024043 0.935000 13079433
-0.266252 -0.018700 0.935000 11412833
-0.265398 -0.013314 0.932000 12189956
-0.265398 -0.007989 0.932000 11693984
-0.263623 -0.050594 0.932000 2490685
-0.265037 -0.045511 0.937000 7214640
-0.265037 -0.040157 0.937000 10823720
-0.264471 -0.034729 0.935000 11022913
-0.265037 -0.029449 0.937000 12347985
-0.264471 -0.024043 0.935000 13991791
-0.264471 -0.018700 0.935000 10748210
-0.264471 -0.013357 0.935000 10290192
-0.261848 -0.050594 0.932000 6966646
-0.263252 -0.045511 0.937000 6226190
-0.263252 -0.040157 0.937000 5573377
-0.263252 -0.034803 0.937000 8661575
-0.263252 -0.029449 0.937000 9844737
-0.262690 -0.024043 0.935000 11370070
-0.263252 -0.018740 0.937000 9178371
-0.262690 -0.013357 0.935000 8520988
-0.261468 -0.045511 0.937000 5196630
-0.262305 -0.040286 0.940000 393534
-0.261468 -0.034803 0.937000 6228781
-0.261468 -0.029449 0.937000 7340545
-0.261468 -0.024094 0.937000 8661547
-0.261468 -0.018740 0.937000 7672600
-0.261468 -0.013386 0.937000 6688792
-0.260514 -0.045657 0.940000 9675679
-0.260514 -0.040286 0.940000 5984122
-0.259683 -0.034803 0.937000 6291732
-0.260514 -0.029543 0.940000 4260097
-0.260514 -0.024171 0.940000 4522241
-0.260514 -0.018800 0.940000 4065069
-0.259683 -0.013386 0.937000 4329749
-0.258724 -0.040286 0.940000 11639952
-0.257898 -0.034803 0.937000 6314845
-0.258724 -0.029543 0.940000 1179969
-0.260100 -0.024300 0.945000 397615
-0.258724 -0.018800 0.940000 525095
-0.257898 -0.013386 0.937000 1970188
-0.256933 -0.029543 0.940000 6973312
-0.259667 -0.024429 0.950000 5062493
-0.256933 -0.018800 0.940000 4005408
-0.257857 -0.024429 0.950000 9667456
-0.256048 -0.024429 0.950000 11447204
-0.334280 -0.142333 0.854000 8716572
-0.332653 -0.142333 0.854000 8978973
-0.330316 -0.136488 0.848000 8455176
-0.331802 -0.147558 0.856000 11158622
-0.330251 -0.142000 0.852000 9306910
-0.328701 -0.136488 0.848000 8717069
-0.329476 -0.131952 0.850000 7471883
-0.332577 -0.128291 0.858000 7340545
-0.330171 -0.147558 0.856000 11357525
-0.328629 -0.142000 0.852000 9634851
-0.327086 -0.136488 0.848000 8978959
-0.328629 -0.132263 0.852000 8061710
-0.330171 -0.127992 0.856000 7734023
-0.330943 -0.123389 0.858000 7078406
-0.329309 -0.147903 0.858000 11289676
-0.326238 -0.141667 0.850000 10027561
-0.325470 -0.136488 0.848000 9306641
-0.327006 -0.132263 0.852000 8454930
-0.328541 -0.127992 0.856000 7995917
-0.329309 -0.123389 0.858000 7471883
-0.330844 -0.119038 0.862000 7209474
-0.327674 -0.147903 0.858000 11224656
-0.324619 -0.141667 0.850000 10420766
-0.323855 -0.136488 0.848000 9634320
-0.325383 -0.132263 0.852000 8782607
-0.325383 -0.127394 0.852000 8258062
-0.327674 -0.123389 0.858000 7865099
-0.329202 -0.119038 0.862000 7537673
-0.329202 -0.114112 0.862000 5506314
-0.325280 -0.147558 0.856000 11351636
-0.323000 -0.141667 0.850000 10420500
-0.322240 -0.136488 0.848000 9896462
-0.323760 -0.132263 0.852000 9175820
-0.324520 -0.127693 0.854000 8520462
-0.325280 -0.123101 0.856000 8192779
-0.327560 -0.119038 0.862000 7799823
-0.327560 -0.114112 0.862000 5572881
-0.328700 -0.109567 0.865000 986399
-0.323650 -0.147558 0.856000 11549514
-0.321381 -0.141667 0.850000 10420507
-0.320625 -0.136488 0.848000 10093070
-0.321381 -0.131952 0.850000 9503244
-0.322893 -0.127693 0.854000 8848142
-0.323650 -0.123101 0.856000 8454923
-0.325918 -0.119038 0.862000 8061965
-0.325918 -0.114112 0.862000 5572366
-0.325918 -0.109187 0.862000 1445914
-0.327052 -0.104624 0.865000 1707797
-0.327052 -0.099681 0.865000 1969428
-0.322019 -0.147558 0.856000 11546431
-0.319762 -0.141667 0.850000 10617122
-0.319010 -0.136488 0.848000 10158606
-0.320514 -0.132263 0.852000 9568525
-0.320514 -0.127394 0.852000 9044494
-0.322019 -0.123101 0.856000 8782604
-0.323524 -0.118762 0.860000 8455435
-0.323524 -0.113848 0.860000 5835532
-0.323524 -0.108933 0.860000 1248533
-0.324276 -0.104261 0.862000 1511440
-0.325405 -0.099681 0.865000 1641487
-0.328623 -0.156368 0.878000 11286863
-0.320389 -0.147558 0.856000 11483201
-0.318143 -0.141667 0.850000 10813731
-0.317394 -0.136488 0.848000 10289427
-0.318143 -0.131952 0.850000 9634061
-0.318891 -0.127394 0.852000 9306638
-0.320389 -0.123101 0.856000 9110027
-0.321137 -0.118486 0.858000 8782604
-0.321886 -0.113848 0.860000 6031630
-0.321886 -0.108933 0.860000 1116948
-0.322634 -0.104261 0.862000 1314318
-0.323757 -0.099681 0.865000 1313804
-0.323757 -0.094738 0.865000 1641228
-0.326950 -0.156368 0.878000 11287888
-0.318758 -0.147558 0.856000 11611715
-0.316524 -0.141667 0.850000 11076133
-0.316524 -0.136810 0.850000 10420759
-0.316524 -0.131952 0.850000 9830926
-0.317269 -0.127394 0.852000 9437710
-0.318013 -0.122813 0.854000 9241098
-0.319503 -0.118486 0.858000 9045004
-0.319503 -0.113583 0.858000 6031889
-0.320248 -0.108933 0.860000 1051155
-0.320992 -0.104261 0.862000 1117452
-0.322110 -0.099681 0.865000 1379081
-0.322110 -0.094738 0.865000 1575177
-0.322854 -0.090003 0.867000 1509900
-0.327695 -0.056152 0.880000 1247500
-0.323426 -0.155477 0.873000 11288146
-0.317128 -0.147558 0.856000 11809349
