# .PCD v.7 - Point Cloud Data file format
VERSION .7
FIELDS x y z rgb
SIZE 4 4 4 4
TYPE F F F I
COUNT 1 1 1 1
WIDTH 1310
HEIGHT 1
POINTS 1310
DATA ascii
-0.225687 0.039447 0.679000 1116428
-0.226684 0.043518 0.682000 1051148
-0.226684 0.047415 0.682000 1378567
-0.227349 0.051463 0.684000 1509643
-0.228346 0.055614 0.687000 1641226
-0.228346 0.059540 0.687000 2363662
-0.228346 0.063466 0.687000 3216156
-0.220097 -0.014589 0.666000 11079985
-0.221089 -0.010831 0.669000 10751018
-0.220428 -0.006988 0.667000 10555174
-0.221750 -0.003195 0.671000 10292766
-0.221750 0.000639 0.671000 9902096
-0.221419 0.004467 0.670000 3542803
-0.221419 0.008295 0.670000 1904413
-0.221750 0.012142 0.671000 1510929
-0.222080 0.016000 0.672000 1379600
-0.222741 0.019899 0.674000 1248271
-0.222741 0.023750 0.674000 1247761
-0.223071 0.027643 0.675000 1313294
-0.223402 0.031547 0.676000 1313549
-0.224393 0.035567 0.679000 1509650
-0.224393 0.039447 0.679000 1182478
-0.225385 0.043518 0.682000 1247756
-0.225715 0.047485 0.683000 1443847
-0.226707 0.051613 0.686000 1509896
-0.227037 0.055614 0.687000 1640967
-0.227037 0.059540 0.687000 2034955
-0.228029 0.063743 0.690000 2954005
-0.218829 -0.014589 0.666000 11276843
-0.220143 -0.010848 0.670000 10948145
-0.219157 -0.006988 0.667000 10686249
-0.220800 -0.003200 0.672000 10423840
-0.220471 0.000639 0.671000 10099220
-0.220471 0.004473 0.671000 2296859
-0.220471 0.008308 0.671000 1839644
-0.220800 0.012160 0.672000 1510931
-0.220800 0.016000 0.672000 1379855
-0.221786 0.019929 0.675000 1313293
-0.221786 0.023786 0.675000 1248014
-0.222114 0.027684 0.676000 1378574
-0.222771 0.031640 0.678000 1444363
-0.223100 0.035567 0.679000 1509648
-0.223429 0.039505 0.680000 1182222
-0.224086 0.043518 0.682000 1443852
-0.224414 0.047485 0.683000 1444105
-0.225400 0.051613 0.686000 1575691
-0.225729 0.055614 0.687000 1575688
-0.226386 0.059713 0.689000 1707274
-0.226386 0.063650 0.689000 2691345
-0.217560 -0.014589 0.666000 11342373
-0.218867 -0.010848 0.670000 11145016
-0.220500 -0.007071 0.675000 10818092
-0.220500 -0.003214 0.675000 10492450
-0.219193 0.000639 0.671000 6164760
-0.219193 0.004473 0.671000 2559778
-0.219193 0.008308 0.671000 1971739
-0.220500 0.012214 0.675000 1642773
-0.220500 0.016071 0.675000 1445390
-0.220500 0.019929 0.675000 1444618
-0.220827 0.023821 0.676000 1247756
-0.221480 0.027766 0.678000 1313294
-0.221807 0.031687 0.679000 1378570
-0.222133 0.035619 0.680000 1509645
-0.222133 0.039505 0.680000 1379342
-0.222787 0.043518 0.682000 1444108
-0.223440 0.047554 0.684000 1313290
-0.224093 0.051613 0.686000 1509902
-0.224420 0.055614 0.687000 1575433
-0.224420 0.059540 0.687000 1706761
-0.225073 0.063650 0.689000 2297614
-0.226380 0.067980 0.693000 2627087
-0.216291 -0.014589 0.666000 11416921
-0.219214 -0.010929 0.675000 11341347
-0.219539 -0.007082 0.676000 10885417
-0.219539 -0.003219 0.676000 10561065
-0.217915 0.000639 0.671000 2167843
-0.217915 0.004473 0.671000 2822434
-0.220513 0.008407 0.679000 2036766
-0.220189 0.012269 0.678000 1774361
-0.219214 0.016071 0.675000 1510927
-0.219539 0.019958 0.676000 1510155
-0.220189 0.023891 0.678000 1248012
-0.220513 0.027807 0.679000 1247502
-0.220838 0.031733 0.680000 1247499
-0.220838 0.035619 0.680000 1509645
-0.220838 0.039505 0.680000 1575436
-0.221812 0.043582 0.683000 1509644
-0.222787 0.047693 0.686000 1182474
-0.222787 0.051613 0.686000 1509645
-0.223111 0.055614 0.687000 1575689
-0.223761 0.059713 0.689000 1706508
-0.224086 0.063743 0.690000 1903885
-0.225060 0.067980 0.693000 2495247
-0.225385 0.072044 0.694000 3283222
-0.217929 -0.010929 0.675000 11284238
-0.218251 -0.007082 0.676000 10822182
-0.218251 -0.003219 0.676000 8264495
-0.216637 0.000639 0.671000 2888750
-0.219543 0.004533 0.680000 2823458
-0.219543 0.008419 0.680000 2102049
-0.219220 0.012287 0.679000 1904925
-0.218897 0.016143 0.678000 1642257
-0.219220 0.020047 0.679000 1576460
-0.219220 0.023927 0.679000 1510412
-0.219543 0.027848 0.680000 1379342
-0.219543 0.031733 0.680000 1509644
-0.219543 0.035619 0.680000 1575181
-0.220189 0.039621 0.682000 1575435
-0.220834 0.043646 0.684000 1509644
-0.221480 0.047693 0.686000 1248521
-0.221480 0.051613 0.686000 1444108
-0.221803 0.055614 0.687000 1575432
-0.222449 0.059713 0.689000 1510158
-0.222771 0.063743 0.690000 1575692
-0.223094 0.067784 0.691000 2166542
-0.224063 0.072044 0.694000 2955026
-0.216643 -0.007071 0.675000 10756659
-0.216643 -0.003214 0.675000 5968425
-0.215359 0.000639 0.671000 3611188
-0.218248 0.004533 0.680000 2757929
-0.218248 0.008419 0.680000 2167846
-0.217927 0.012287 0.679000 2035489
-0.217927 0.016167 0.679000 1708052
-0.218248 0.020076 0.680000 1642765
-0.218248 0.023962 0.680000 1707279
-0.218248 0.027848 0.680000 1576208
-0.218248 0.031733 0.680000 1706510
-0.218890 0.035724 0.682000 1640718
-0.218890 0.039621 0.682000 1575435
-0.219531 0.043646 0.684000 1509645
-0.220173 0.047693 0.686000 1248521
-0.220173 0.051613 0.686000 1444875
-0.220494 0.055614 0.687000 1575434
-0.221136 0.059713 0.689000 1379342
-0.221457 0.063743 0.690000 1248012
-0.221778 0.067784 0.691000 1903628
-0.222741 0.072044 0.694000 2561043
-0.221778 0.075681 0.691000 3349011
-0.215676 -0.007082 0.676000 9836095
-0.215038 -0.003210 0.674000 4526114
-0.214081 0.000639 0.671000 3481914
-0.216952 0.004533 0.680000 3152687
-0.216952 0.008419 0.680000 2627115
-0.216633 0.012287 0.679000 2298148
-0.216952 0.016190 0.680000 1970967
-0.217590 0.020135 0.682000 1643022
-0.217590 0.024032 0.682000 1707027
-0.216952 0.027848 0.680000 1510930
-0.217590 0.031827 0.682000 1706512
-0.217590 0.035724 0.682000 1640718
-0.217910 0.039679 0.683000 1640972
-0.218867 0.043773 0.686000 1575438
-0.219186 0.047763 0.687000 1314314
-0.219186 0.051689 0.687000 1379081
-0.219186 0.055614 0.687000 1444876
-0.219824 0.059713 0.689000 1510158
-0.220143 0.063743 0.690000 1444107
-0.220462 0.067784 0.691000 1772553
-0.221419 0.072044 0.694000 2298132
-0.221100 0.075900 0.693000 3086101
-0.214389 -0.007082 0.676000 8872306
-0.213754 -0.003210 0.674000 3084371
-0.215657 0.008419 0.680000 3021871
-0.215340 0.012287 0.679000 2626344
-0.216291 0.016238 0.682000 2167326
-0.216291 0.020135 0.682000 1708564
-0.216291 0.024032 0.682000 1707541
-0.216291 0.027930 0.682000 1511443
-0.216291 0.031827 0.682000 1706767
-0.216609 0.035776 0.683000 1706511
-0.216926 0.039737 0.684000 1640973
-0.217560 0.043773 0.686000 1640975
-0.217877 0.047763 0.687000 1313803
-0.217877 0.051689 0.687000 1379340
-0.218511 0.055776 0.689000 1248267
-0.218829 0.059800 0.690000 1640972
-0.218829 0.063743 0.690000 1641227
-0.219780 0.067980 0.693000 1706764
-0.220097 0.072044 0.694000 1969681
-0.219780 0.075900 0.693000 2758673
-0.214992 0.004547 0.682000 3480626
-0.214362 0.008419 0.680000 3481908
-0.214047 0.012287 0.679000 2955307
-0.214992 0.016238 0.682000 2561062
-0.214992 0.020135 0.682000 1970714
-0.214992 0.024032 0.682000 1969687
-0.214992 0.027930 0.682000 1708052
-0.215308 0.031873 0.683000 1706510
-0.215308 0.035776 0.683000 1706768
-0.216253 0.039853 0.686000 1706511
-0.216253 0.043773 0.686000 1706767
-0.216569 0.047763 0.687000 1379341
-0.216569 0.051689 0.687000 1445134
-0.216569 0.055614 0.687000 1248011
-0.217514 0.059800 0.690000 1575690
-0.218460 0.064020 0.693000 1707018
-0.218775 0.068078 0.694000 1706767
-0.218775 0.072044 0.694000 1706766
-0.218775 0.076010 0.694000 2495500
-0.213693 0.004547 0.682000 3348036
-0.212753 0.008407 0.679000 3874611
-0.213067 0.012305 0.680000 3350579
-0.213693 0.016238 0.682000 2956075
-0.213693 0.020135 0.682000 2298657
-0.213693 0.024032 0.682000 2166559
-0.213693 0.027930 0.682000 1969692
-0.214320 0.031920 0.684000 1707284
-0.214007 0.035776 0.683000 1772051
-0.214947 0.039853 0.686000 1706513
-0.215260 0.043837 0.687000 1706768
-0.215260 0.047763 0.687000 1379597
-0.215260 0.051689 0.687000 1576717
-0.215887 0.055776 0.689000 1182731
-0.216513 0.059887 0.691000 1575946
-0.217140 0.064020 0.693000 1706765
-0.217453 0.068078 0.694000 1706511
-0.217453 0.072044 0.694000 1379341
-0.217453 0.076010 0.694000 2297611
-0.211460 0.008407 0.679000 3480114
-0.211771 0.012305 0.680000 3350843
-0.212394 0.016238 0.682000 3548208
-0.211771 0.020076 0.680000 2890791
-0.212394 0.024032 0.682000 2560807
-0.212394 0.027930 0.682000 2232611
-0.212706 0.031873 0.683000 2100507
-0.212706 0.035776 0.683000 1903382
-0.213640 0.039853 0.686000 1837587
-0.213640 0.043773 0.686000 1707024
-0.213951 0.047763 0.687000 1380366
-0.213951 0.051689 0.687000 1576972
-0.214574 0.055776 0.689000 1379339
-0.214886 0.059800 0.690000 1641482
-0.215197 0.063835 0.691000 1706512
-0.215820 0.067980 0.693000 1706767
-0.215820 0.071940 0.693000 1575949
-0.216131 0.076010 0.694000 2035210
-0.210476 0.012305 0.680000 3284524
-0.211095 0.020135 0.682000 3548720
-0.211095 0.024032 0.682000 2891306
-0.211095 0.027930 0.682000 2561573
-0.211714 0.031920 0.684000 2429728
-0.211714 0.035829 0.684000 2034719
-0.212333 0.039853 0.686000 1969176
-0.212333 0.043773 0.686000 1641496
-0.212643 0.047763 0.687000 1380114
-0.213262 0.051839 0.689000 1643021
-0.213571 0.055857 0.690000 1510925
-0.213881 0.059887 0.691000 1706764
-0.214810 0.064112 0.694000 1706510
-0.215119 0.068176 0.695000 1772301
-0.214810 0.072044 0.694000 1772811
-0.215119 0.076119 0.695000 1772554
-0.215738 0.080321 0.697000 2428938
-0.209796 0.020135 0.682000 3549240
-0.209796 0.024032 0.682000 3680558
-0.209796 0.027930 0.682000 3220007
-0.210411 0.031920 0.684000 2890278
-0.211027 0.035933 0.686000 2495527
-0.211334 0.039911 0.687000 2362910
-0.211334 0.043837 0.687000 2035488
-0.211950 0.047902 0.689000 1904151
-0.211950 0.051839 0.689000 1838862
-0.212257 0.055857 0.690000 1642511
-0.212565 0.059887 0.691000 1707022
-0.213488 0.064112 0.694000 1706509
-0.213795 0.068176 0.695000 1772811
-0.213488 0.072044 0.694000 1773832
-0.213795 0.076119 0.695000 1707530
-0.215333 0.080667 0.700000 2166534
-0.215641 0.084788 0.701000 2494988
-0.208497 0.024032 0.682000 4401961
-0.208497 0.027930 0.682000 3943463
-0.209720 0.032013 0.686000 3286060
-0.210026 0.035986 0.687000 3022889
-0.210026 0.039911 0.687000 2693153
-0.210026 0.043837 0.687000 2429219
-0.210637 0.047902 0.689000 2363676
-0.210943 0.051914 0.690000 2035481
-0.211249 0.055938 0.691000 1707540
-0.211860 0.060060 0.693000 1772561
-0.212166 0.064112 0.694000 1707024
-0.212471 0.068176 0.695000 1838604
-0.212471 0.072148 0.695000 1773065
-0.212471 0.076119 0.695000 1576971
-0.214306 0.080782 0.701000 1904392
-0.214917 0.085030 0.703000 2362893
-0.207502 0.027970 0.683000 3547942
-0.208413 0.032013 0.686000 3353138
-0.208717 0.035986 0.687000 3614762
-0.209325 0.040028 0.689000 3285541
-0.209325 0.043965 0.689000 2956325
-0.209629 0.047971 0.690000 2823714
-0.209932 0.051990 0.691000 2298659
-0.210540 0.056100 0.693000 2100761
-0.210540 0.060060 0.693000 2035219
-0.211148 0.064205 0.695000 1903636
-0.211148 0.068176 0.695000 1904140
-0.211148 0.072148 0.695000 1707019
-0.211148 0.076119 0.695000 1838860
-0.212970 0.080782 0.701000 1838602
-0.213578 0.085030 0.703000 2166285
-0.213882 0.089173 0.704000 2495757
-0.215097 0.093726 0.708000 2758923
-0.207409 0.035986 0.687000 4206118
-0.208012 0.040028 0.689000 3811369
-0.208012 0.043965 0.689000 3417900
-0.208616 0.048041 0.691000 3219495
-0.209522 0.052215 0.694000 2628136
-0.209220 0.056100 0.693000 2429725
-0.209824 0.060233 0.695000 2298138
-0.210428 0.064390 0.697000 2101020
-0.209824 0.068176 0.695000 1969685
-0.209824 0.072148 0.695000 1576465
-0.210428 0.076338 0.697000 2101007
-0.211635 0.080782 0.701000 1773067
-0.211635 0.084788 0.701000 1969677
-0.212239 0.089047 0.703000 2167563
-0.213749 0.093726 0.708000 2627855
-0.213749 0.097771 0.708000 2955279
-0.206700 0.040028 0.689000 3483693
-0.207300 0.048041 0.691000 3680301
-0.208500 0.052290 0.695000 3154732
-0.210000 0.056667 0.700000 2825250
-0.210000 0.060667 0.700000 2693408
-0.210000 0.064667 0.700000 2429476
-0.210000 0.068667 0.700000 2363677
-0.209400 0.072459 0.698000 1904151
-0.209400 0.076448 0.698000 2035474
-0.210300 0.080782 0.701000 1904140
-0.210900 0.085030 0.703000 1969932
-0.210300 0.088793 0.701000 2035722
-0.212100 0.093593 0.707000 2430226
-0.212400 0.097771 0.708000 2888974
-0.207176 0.052290 0.695000 3681330
-0.208965 0.056748 0.701000 3221033
-0.208965 0.060753 0.701000 3153959
-0.208965 0.064759 0.701000 2759464
-0.208965 0.068765 0.701000 2692386
-0.208070 0.072459 0.698000 2232864
-0.208965 0.076776 0.701000 2035738
-0.209561 0.081012 0.703000 1969939
-0.209561 0.085030 0.703000 1969680
-0.209561 0.089047 0.703000 1904652
-0.210157 0.093329 0.705000 2166804
-0.211051 0.097771 0.708000 2822671
-0.207630 0.056748 0.701000 3353647
-0.207630 0.060753 0.701000 3483437
-0.207630 0.064759 0.701000 3154732
-0.207630 0.068765 0.701000 3022375
-0.207333 0.072667 0.700000 2561576
-0.208222 0.076995 0.703000 2364449
-0.208222 0.081012 0.703000 2166809
-0.208518 0.085150 0.704000 2166804
-0.208814 0.089300 0.705000 2035982
-0.208814 0.093329 0.705000 2167061
-0.209703 0.097771 0.708000 2691088
-0.206883 0.060927 0.703000 3812138
-0.206294 0.064759 0.701000 3548979
-0.206294 0.068765 0.701000 3417390
-0.206000 0.072667 0.700000 2891820
-0.206883 0.076995 0.703000 2693926
-0.206883 0.081012 0.703000 2364960
-0.207471 0.085271 0.705000 2363673
-0.207471 0.089300 0.705000 2101779
-0.208943 0.093990 0.710000 2101525
-0.208943 0.098048 0.710000 2494737
-0.205544 0.060927 0.703000 3546918
-0.204959 0.064759 0.701000 3483962
-0.204959 0.068765 0.701000 3811637
-0.204667 0.072667 0.700000 3418160
-0.205544 0.076995 0.703000 3088938
-0.205544 0.081012 0.703000 2825255
-0.206129 0.085271 0.705000 2627614
-0.206713 0.089553 0.707000 2364696
-0.207006 0.093726 0.708000 2167061
-0.207590 0.098048 0.710000 2298387
-0.208760 0.102680 0.714000 2560271
-0.210222 0.107508 0.719000 2495247
-0.203624 0.064759 0.701000 3350072
-0.204205 0.068961 0.703000 4270909
-0.203624 0.072770 0.701000 3942711
-0.204205 0.076995 0.703000 3483440
-0.204786 0.081243 0.705000 3220266
-0.205657 0.085634 0.708000 2956834
-0.205657 0.089680 0.708000 2561822
-0.205657 0.093726 0.708000 2298649
-0.206529 0.098186 0.711000 2101521
-0.207400 0.102680 0.714000 2560017
-0.209143 0.107657 0.720000 2233357
-0.210595 0.112548 0.725000 2757650
-0.202866 0.068961 0.703000 3875396
-0.203443 0.081243 0.705000 3483694
-0.204309 0.085634 0.708000 3220774
-0.204309 0.089680 0.708000 2891044
-0.204886 0.093990 0.710000 2496029
-0.205174 0.098186 0.711000 2232591
-0.206040 0.102680 0.714000 2429714
-0.206906 0.107209 0.717000 2298891
-0.208637 0.112237 0.723000 2692373
-0.202100 0.081243 0.705000 3680817
-0.202673 0.085513 0.707000 3418667
-0.203533 0.089933 0.710000 3220266
-0.203820 0.094123 0.711000 2758436
-0.204680 0.098600 0.714000 2364183
-0.206400 0.103543 0.720000 2364438
-0.206113 0.107508 0.719000 2299151
-0.207260 0.112237 0.723000 2627346
-0.207260 0.116369 0.723000 2823445
-0.208693 0.121333 0.728000 2823699
-0.200757 0.081243 0.705000 4074036
-0.201327 0.085513 0.707000 3746608
-0.202181 0.089933 0.710000 3483696
-0.203035 0.094388 0.713000 3022379
-0.203320 0.098600 0.714000 2626847
-0.204744 0.103399 0.719000 2495257
-0.204744 0.107508 0.719000 2364691
-0.206452 0.112548 0.725000 2692623
-0.206452 0.116690 0.725000 2954774
-0.207307 0.121333 0.728000 2889488
-0.199980 0.085513 0.707000 4074038
-0.200829 0.089933 0.710000 3681073
-0.202809 0.094917 0.717000 3285547
-0.202526 0.098876 0.716000 2889764
-0.203657 0.103543 0.720000 2626075
-0.203657 0.107657 0.720000 2430227
-0.205354 0.112703 0.726000 2757904
-0.205071 0.116690 0.725000 3086102
-0.206769 0.121833 0.731000 2955793
-0.202005 0.095182 0.719000 3549227
-0.201443 0.099014 0.717000 3087914
-0.202848 0.103830 0.722000 2758429
-0.203129 0.108106 0.723000 2496020
-0.203690 0.112548 0.725000 2758160
-0.203971 0.116851 0.726000 2955030
-0.205376 0.121833 0.731000 2955794
-0.200914 0.095314 0.720000 3812399
-0.200635 0.099290 0.719000 3286060
-0.201751 0.103974 0.723000 2890275
-0.201751 0.108106 0.723000 2561561
-0.202310 0.112548 0.725000 2823955
-0.203147 0.117173 0.728000 2824213
-0.204263 0.122000 0.732000 3021331
-0.200097 0.095579 0.722000 4009267
-0.199543 0.099429 0.720000 3549742
-0.200929 0.104262 0.725000 3154473
-0.200929 0.108405 0.725000 2758942
-0.200929 0.112548 0.725000 2889494
-0.202037 0.117334 0.729000 2890261
-0.203977 0.122667 0.736000 3021587
-0.198722 0.095579 0.722000 4205624
-0.198722 0.099705 0.722000 3812402
-0.199548 0.104262 0.725000 3483436
-0.199548 0.108405 0.725000 2891297
-0.199823 0.112703 0.726000 2955544
-0.201474 0.117817 0.732000 2955542
-0.202575 0.122667 0.736000 3021844
-0.197347 0.095579 0.722000 4271164
-0.197620 0.099843 0.723000 4009270
-0.198167 0.104262 0.725000 3746607
-0.198167 0.108405 0.725000 3154468
-0.198440 0.112703 0.726000 3021081
-0.200080 0.117817 0.732000 2955287
-0.196243 0.099843 0.723000 4206135
-0.196786 0.104262 0.725000 4009520
-0.197057 0.108554 0.726000 3417896
-0.197057 0.112703 0.726000 3086874
-0.199771 0.118461 0.736000 2955799
-0.197291 0.101086 0.732000 4337720
-0.195674 0.104406 0.726000 4075568
-0.195674 0.108554 0.726000 3681325
-0.198639 0.114410 0.737000 3219226
-0.198370 0.118461 0.736000 3021592
-0.195897 0.101086 0.732000 4468795
-0.194291 0.104406 0.726000 4207154
-0.194291 0.108554 0.726000 3878193
-0.197235 0.114410 0.737000 3351076
-0.197235 0.118622 0.737000 3087645
-0.195831 0.101776 0.737000 4469054
-0.195831 0.105988 0.737000 4338227
-0.192909 0.108554 0.726000 4010037
-0.196363 0.114721 0.739000 3548717
-0.195831 0.118622 0.737000 3284514
-0.194428 0.101776 0.737000 4401985
-0.194428 0.105988 0.737000 4469559
-0.191526 0.108554 0.726000 4141110
-0.194955 0.114721 0.739000 3811888
-0.193810 0.102190 0.740000 4270404
-0.195119 0.107138 0.745000 4600634
-0.195119 0.111395 0.745000 4272438
-0.193810 0.114876 0.740000 4009523
-0.192140 0.102052 0.739000 4140865
-0.193700 0.107138 0.745000 4797497
-0.193700 0.111395 0.745000 4403766
-0.190732 0.102052 0.739000 4532030
-0.192281 0.107138 0.745000 4994872
-0.192281 0.111395 0.745000 4666167
-0.189325 0.102052 0.739000 4928570
-0.190862 0.107138 0.745000 5126718
-0.189443 0.107138 0.745000 4995139
-0.186510 0.106275 0.739000 4797239
-0.270093 -0.020680 0.658000 12085093
-0.269683 -0.016894 0.657000 12623751
-0.269657 -0.020743 0.660000 10682690
-0.268431 -0.016894 0.657000 11622229
-0.270840 -0.024737 0.666000 11538721
-0.267587 -0.020680 0.658000 11144734
-0.267180 -0.016894 0.657000 10682916
-0.269571 -0.024737 0.666000 11803949
-0.266333 -0.020680 0.658000 11675946
-0.265929 -0.016894 0.657000 9767725
-0.265929 -0.013140 0.657000 9709381
-0.269511 -0.028671 0.669000 11540274
-0.268303 -0.024737 0.666000 11673400
-0.265080 -0.020680 0.658000 11674933
-0.264677 -0.016894 0.657000 10490934
-0.264274 -0.013120 0.656000 9309198
-0.268237 -0.028671 0.669000 11543098
-0.267435 -0.024774 0.667000 11541816
-0.263827 -0.020680 0.658000 11738929
-0.263025 -0.016869 0.656000 11147830
-0.262624 -0.013100 0.655000 8848666
-0.266963 -0.028671 0.669000 11477313
-0.266165 -0.024774 0.667000 11475001
-0.262174 -0.020649 0.657000 11541804
-0.261376 -0.016843 0.655000 11348279
-0.260179 -0.013040 0.652000 8848422
-0.266086 -0.032543 0.670000 11542080
-0.264894 -0.028586 0.667000 11413056
-0.264497 -0.024737 0.666000 11345978
-0.260923 -0.020649 0.657000 11410482
-0.259334 -0.016791 0.653000 11543861
-0.258143 -0.013000 0.650000 8913439
-0.264810 -0.032543 0.670000 11539501
-0.263624 -0.028586 0.667000 11413566
-0.262043 -0.024626 0.663000 11412540
-0.259671 -0.020649 0.657000 11345975
-0.258881 -0.016843 0.655000 11676978
-0.256114 -0.012960 0.648000 8978968
-0.257695 -0.009314 0.652000 8455439
-0.263533 -0.032543 0.670000 11541044
-0.262353 -0.028586 0.667000 11413824
-0.260780 -0.024626 0.663000 11413310
-0.258027 -0.020617 0.656000 11280443
-0.256847 -0.016791 0.653000 11806257
-0.254487 -0.012940 0.647000 9044507
-0.255667 -0.009286 0.650000 8324880
-0.256847 -0.005597 0.653000 7605772
-0.262649 -0.032591 0.671000 11543867
-0.261866 -0.028671 0.669000 11413570
-0.260691 -0.024737 0.666000 11414335
-0.256777 -0.020617 0.656000 11216190
-0.254820 -0.016740 0.651000 11740975
-0.253254 -0.012940 0.647000 9044510
-0.254429 -0.009286 0.650000 8325138
-0.255603 -0.005597 0.653000 7604759
-0.256777 -0.001874 0.656000 7209485
-0.260981 -0.032543 0.670000 11543870
-0.260591 -0.028671 0.669000 11413319
-0.259423 -0.024737 0.666000 11348542
-0.255528 -0.020617 0.656000 11217469
-0.253190 -0.016714 0.650000 11609905
-0.252022 -0.012940 0.647000 9109789
-0.252411 -0.009257 0.648000 8324881
-0.254359 -0.005597 0.653000 7670037
-0.255528 -0.001874 0.656000 7603980
-0.256307 0.001880 0.658000 6750478
-0.257475 0.005666 0.661000 10702399
-0.259705 -0.032543 0.670000 11544642
-0.258542 -0.028586 0.667000 11413580
-0.256604 -0.024589 0.662000 11348029
-0.253890 -0.020586 0.655000 11283004
-0.251952 -0.016714 0.650000 11675954
-0.250790 -0.012940 0.647000 9109787
-0.251177 -0.009257 0.648000 8390416
-0.252728 -0.005589 0.652000 7669778
-0.254278 -0.001874 0.656000 7342091
-0.255053 0.001880 0.658000 7013914
-0.256216 0.005666 0.661000 8782857
-0.256216 0.009443 0.661000 10906704
-0.258429 -0.032543 0.670000 11478850
-0.257271 -0.028586 0.667000 11479367
-0.255343 -0.024589 0.662000 11282233
-0.253029 -0.020617 0.656000 11348541
-0.249943 -0.016663 0.648000 11675196
-0.249171 -0.012920 0.646000 9175311
-0.249943 -0.009257 0.648000 8389901
-0.251486 -0.005589 0.652000 7669778
-0.253029 -0.001874 0.656000 7080460
-0.254571 0.001886 0.660000 7342868
-0.254957 0.005666 0.661000 6817554
-0.256500 0.009500 0.665000 7937581
-0.257536 -0.032591 0.671000 11478850
-0.255617 -0.028543 0.666000 11413313
-0.253698 -0.024551 0.661000 11281205
-0.251779 -0.020617 0.656000 11348285
-0.248709 -0.016663 0.648000 11609926
-0.248325 -0.012940 0.647000 9175299
-0.248709 -0.009257 0.648000 8389642
-0.250244 -0.005589 0.652000 7669777
-0.251779 -0.001874 0.656000 7145998
-0.253314 0.001886 0.660000 7080462
-0.253698 0.005666 0.661000 7014939
-0.255233 0.009500 0.665000 7212041
-0.256258 -0.032591 0.671000 11412805
-0.254730 -0.028586 0.667000 11347009
-0.252821 -0.024589 0.662000 11215927
-0.250148 -0.020586 0.655000 11348287
-0.247474 -0.016663 0.648000 11543096
-0.246710 -0.012920 0.646000 9175308
-0.247092 -0.009243 0.647000 8389388
-0.249002 -0.005589 0.652000 7669519
-0.250148 -0.001871 0.655000 7145741
-0.251293 0.001880 0.658000 6884112
-0.252439 0.005666 0.661000 7146002
-0.253967 0.009500 0.665000 6556686
-0.253967 0.013300 0.665000 3086882
-0.257640 -0.036806 0.678000 11410754
-0.255360 -0.032640 0.672000 11412553
-0.253460 -0.028586 0.667000 11281217
-0.251560 -0.024589 0.662000 11281210
-0.248900 -0.020586 0.655000 11348033
-0.246240 -0.016663 0.648000 11477034
-0.245860 -0.012940 0.647000 8913173
-0.245860 -0.009243 0.647000 8389134
-0.247380 -0.005580 0.651000 7603725
-0.248900 -0.001871 0.655000 7145740
-0.250040 0.001880 0.658000 7014673
-0.251180 0.005666 0.661000 7145737
-0.251940 0.009471 0.663000 6754066
-0.253080 0.013320 0.666000 2228503
-0.256349 -0.036806 0.678000 11477567
-0.253702 -0.032591 0.671000 11412290
-0.251811 -0.028543 0.666000 11280959
-0.250299 -0.024589 0.662000 11347002
-0.247652 -0.020586 0.655000 11347777
-0.245006 -0.016663 0.648000 11409193
-0.244628 -0.012940 0.647000 8651029
-0.244628 -0.009243 0.647000 8389132
-0.246140 -0.005580 0.651000 7603214
-0.246896 -0.001866 0.653000 7144970
-0.248409 0.001877 0.657000 7080206
-0.249543 0.005657 0.660000 7080458
-0.250677 0.009471 0.663000 6950415
-0.251811 0.013320 0.666000 1377556
-0.255057 -0.036806 0.678000 11542588
-0.253552 -0.032737 0.674000 11412028
-0.249414 -0.028414 0.663000 11280957
-0.248662 -0.024551 0.661000 11346490
-0.246781 -0.020617 0.656000 11348289
-0.243771 -0.016663 0.648000 11274535
-0.243019 -0.012920 0.646000 8585493
-0.243395 -0.009243 0.647000 8323595
-0.244900 -0.005580 0.651000 7471886
-0.245652 -0.001866 0.653000 7144457
-0.247157 0.001877 0.657000 7144971
-0.248286 0.005657 0.660000 7080715
-0.250167 0.009500 0.665000 6885132
-0.250543 0.013320 0.666000 1574674
-0.253766 -0.036806 0.678000 11608378
-0.252269 -0.032737 0.674000 11346747
-0.248151 -0.028414 0.663000 11215422
-0.247403 -0.024551 0.661000 11346748
-0.245531 -0.020617 0.656000 11282501
-0.242537 -0.016663 0.648000 11144743
-0.241789 -0.012920 0.646000 8585488
-0.242163 -0.009243 0.647000 8258058
-0.243660 -0.005580 0.651000 7406348
-0.245157 -0.001871 0.655000 7144456
-0.245906 0.001877 0.657000 7144714
-0.247029 0.005657 0.660000 7014409
-0.248151 0.009471 0.663000 6819340
-0.249274 0.013320 0.666000 1707023
-0.249649 0.017151 0.667000 1968925
-0.252474 -0.036806 0.678000 11543096
-0.250240 -0.032640 0.672000 11216699
-0.248006 -0.028543 0.666000 11215678
-0.246144 -0.024551 0.661000 11412031
-0.244282 -0.020617 0.656000 11413833
-0.241303 -0.016663 0.648000 10879783
-0.240558 -0.012920 0.646000 8585738
-0.240930 -0.009243 0.647000 8192521
-0.242420 -0.005580 0.651000 7341065
-0.243910 -0.001871 0.655000 7144455
-0.244654 0.001877 0.657000 7079177
-0.245771 0.005657 0.660000 7013640
-0.246889 0.009471 0.663000 6950667
-0.248006 0.013320 0.666000 1773581
-0.248378 0.017151 0.667000 1837840
-0.251183 -0.036806 0.678000 11477306
-0.248960 -0.032640 0.672000 11020601
-0.246737 -0.028543 0.666000 11280956
-0.243773 -0.024440 0.658000 11412286
-0.242662 -0.020586 0.655000 11544388
-0.239698 -0.016637 0.647000 10554661
-0.239328 -0.012920 0.646000 8651278
-0.239698 -0.009243 0.647000 8126986
-0.241180 -0.005580 0.651000 7275532
-0.241921 -0.001866 0.653000 7078919
-0.243032 0.001874 0.656000 7013895
-0.243403 0.005631 0.657000 7013640
-0.244885 0.009443 0.661000 7146250
-0.246367 0.013300 0.665000 1773581
-0.247108 0.017151 0.667000 1772561
-0.247108 0.020963 0.667000 2231058
-0.249154 -0.036697 0.676000 11477563
-0.247680 -0.032640 0.672000 11217720
-0.244363 -0.028414 0.663000 11281466
-0.242520 -0.024440 0.658000 11478077
-0.241414 -0.020586 0.655000 11610175
-0.238466 -0.016637 0.647000 10420772
-0.238097 -0.012920 0.646000 8716818
-0.238834 -0.009257 0.648000 8192524
-0.239940 -0.005580 0.651000 7275534
-0.241414 -0.001871 0.655000 7013128
-0.241783 0.001874 0.656000 7013636
-0.242520 0.005640 0.658000 6948104
-0.243626 0.009443 0.661000 7015689
-0.245100 0.013300 0.665000 1706509
-0.245469 0.017126 0.666000 1772561
-0.245469 0.020931 0.666000 1903634
-0.248600 -0.040680 0.678000 11277646
-0.247867 -0.036697 0.676000 11543870
-0.247133 -0.032737 0.674000 11348794
-0.242733 -0.028371 0.662000 11281723
-0.241267 -0.024440 0.658000 11478077
-0.239433 -0.020523 0.653000 11675464
-0.236867 -0.016611 0.646000 10291746
-0.236867 -0.012920 0.646000 8782354
-0.237600 -0.009257 0.648000 8192524
-0.238700 -0.005580 0.651000 7340812
-0.240167 -0.001871 0.655000 6947848
-0.240533 0.001874 0.656000 7013638
-0.241267 0.005640 0.658000 6817289
-0.242367 0.009443 0.661000 6883345
-0.243833 0.013300 0.665000 1641228
-0.244200 0.017126 0.666000 1838350
-0.244200 0.020931 0.666000 1510926
-0.244200 0.024737 0.666000 2362640
-0.246579 -0.040560 0.676000 11211594
-0.246214 -0.036643 0.675000 11544129
-0.245120 -0.032640 0.672000 11349053
-0.241472 -0.028371 0.662000 11347004
-0.239649 -0.024403 0.657000 11477566
-0.238190 -0.020523 0.653000 11610448
-0.236001 -0.016637 0.647000 10027297
-0.236001 -0.012940 0.647000 8978961
-0.236366 -0.009257 0.648000 8258316
-0.237825 -0.005589 0.652000 7406345
-0.239284 -0.001874 0.656000 6882055
-0.239649 0.001877 0.657000 6948104
-0.240743 0.005657 0.660000 6817034
-0.241108 0.009443 0.661000 6818072
-0.242567 0.013300 0.665000 1378828
-0.242567 0.017100 0.665000 1772811
-0.242931 0.020931 0.666000 1445131
-0.244026 0.024849 0.669000 1904394
-0.244929 -0.040500 0.675000 11146059
-0.244929 -0.036643 0.675000 11609920
-0.243477 -0.032591 0.671000 11348795
-0.240574 -0.028414 0.663000 11412029
-0.238397 -0.024403 0.657000 11478074
-0.236946 -0.020523 0.653000 11610690
-0.234769 -0.016637 0.647000 9701402
-0.234769 -0.012940 0.647000 9175568
-0.235857 -0.009286 0.650000 8258315
-0.236583 -0.005589 0.652000 7537673
-0.238034 -0.001874 0.656000 6816775
-0.238397 0.001877 0.657000 6947848
-0.238760 0.005640 0.658000 6817288
-0.239849 0.009443 0.661000 6751764
-0.240211 0.013240 0.662000 1116174
-0.241300 0.017100 0.665000 1707274
-0.241663 0.020931 0.666000 1379850
-0.242751 0.024849 0.669000 1511434
-0.243114 0.028714 0.670000 2034449
-0.243643 -0.040500 0.675000 11210315
-0.243643 -0.036643 0.675000 11609663
-0.241838 -0.032543 0.670000 11479354
-0.238950 -0.028371 0.662000 11412285
-0.237146 -0.024403 0.657000 11543606
-0.235702 -0.020523 0.653000 11544116
-0.233536 -0.016637 0.647000 9568531
-0.233536 -0.012940 0.647000 9175822
-0.234619 -0.009286 0.650000 8323850
-0.234980 -0.005580 0.651000 7668745
-0.236785 -0.001874 0.656000 7144455
-0.237507 0.001880 0.658000 7013383
-0.237507 0.005640 0.658000 6817542
-0.238590 0.009443 0.661000 6555664
-0.239311 0.013260 0.663000 984849
-0.240755 0.017151 0.667000 1444616
-0.240755 0.020963 0.667000 1314057
-0.241477 0.024849 0.669000 1380106
-0.242199 0.028757 0.671000 1706764
-0.242357 -0.040500 0.675000 11211085
-0.242357 -0.036643 0.675000 11674435
-0.240562 -0.032543 0.670000 11545148
-0.237330 -0.028329 0.661000 11478592
-0.235894 -0.024403 0.657000 11609144
-0.234099 -0.020491 0.652000 11412783
-0.232304 -0.016637 0.647000 9437462
-0.232663 -0.012960 0.648000 9175563
-0.233381 -0.009286 0.650000 8323852
-0.234099 -0.005589 0.652000 7865354
-0.235894 -0.001877 0.657000 7406607
-0.236253 0.001880 0.658000 7144203
-0.236971 0.005657 0.660000 6817287
-0.237330 0.009443 0.661000 6358797
-0.238767 0.013300 0.665000 788495
-0.240203 0.017203 0.669000 1247755
-0.240203 0.021026 0.669000 1248266
-0.240203 0.024849 0.669000 1314314
-0.240921 0.028757 0.671000 1379595
-0.241280 0.032640 0.672000 1838095
-0.241071 -0.040500 0.675000 11209040
-0.241071 -0.036643 0.675000 11610182
-0.238929 -0.032494 0.669000 11610686
-0.236071 -0.028329 0.661000 11544131
-0.234643 -0.024403 0.657000 11740986
-0.232857 -0.020491 0.652000 11213354
-0.231429 -0.016663 0.648000 9568537
-0.232143 -0.013000 0.650000 9175816
-0.232143 -0.009286 0.650000 8323854
-0.233929 -0.005614 0.655000 7930891
-0.235000 -0.001880 0.658000 7603224
-0.235714 0.001886 0.660000 7275278
-0.235714 0.005657 0.660000 6948103
-0.236071 0.009443 0.661000 6097417
-0.236786 0.013260 0.663000 854029
-0.237857 0.017126 0.666000 1182477
-0.238929 0.021026 0.669000 1182476
-0.239286 0.024886 0.670000 1313801
-0.239643 0.028757 0.671000 1510922
-0.240714 0.032737 0.674000 1772554
-0.241071 0.036643 0.675000 2754583
-0.239786 -0.040500 0.675000 11144787
-0.239786 -0.036643 0.675000 11610701
-0.236589 -0.032349 0.666000 11609405
-0.234812 -0.028329 0.661000 11675459
-0.233391 -0.024403 0.657000 11806522
-0.231260 -0.020460 0.651000 10951202
-0.230194 -0.016663 0.648000 9634069
-0.230905 -0.013000 0.650000 9110283
-0.231260 -0.009300 0.651000 8323856
-0.233036 -0.005623 0.656000 7996429
-0.233747 -0.001880 0.658000 7800083
-0.234457 0.001886 0.660000 7406604
-0.234457 0.005657 0.660000 7013640
-0.235168 0.009457 0.662000 5900812
-0.236233 0.013300 0.665000 854030
-0.236944 0.017151 0.667000 1116682
-0.238010 0.021057 0.670000 1116685
-0.238010 0.024886 0.670000 1313547
-0.238365 0.028757 0.671000 1576202
-0.239430 0.032737 0.674000 1706762
-0.239430 0.036589 0.674000 2034448
-0.238500 -0.040500 0.675000 11273815
-0.238147 -0.036589 0.674000 11676243
-0.235320 -0.032349 0.666000 11673660
-0.233907 -0.028371 0.662000 11741506
-0.231787 -0.024366 0.656000 11938363
-0.230020 -0.020460 0.651000 10882842
-0.228960 -0.016663 0.648000 9765137
-0.230020 -0.013020 0.651000 9110542
-0.231433 -0.009357 0.655000 8323857
-0.231787 -0.005623 0.656000 8062222
-0.232493 -0.001880 0.658000 7931662
-0.233200 0.001886 0.660000 7603465
-0.233553 0.005666 0.661000 7275784
-0.234967 0.009500 0.665000 5507598
-0.235320 0.013320 0.666000 1312271
-0.236380 0.017203 0.669000 1116934
-0.236733 0.021057 0.670000 1116686
-0.236733 0.024886 0.670000 1116429
-0.237087 0.028757 0.671000 1509897
-0.238147 0.032737 0.674000 1706762
-0.238500 0.036643 0.675000 1837834
-0.238500 0.040500 0.675000 2887951
-0.237214 -0.040500 0.675000 11340887
-0.236160 -0.036480 0.672000 11676489
-0.234051 -0.032349 0.666000 11738935
-0.232646 -0.028371 0.662000 11807038
-0.230889 -0.024403 0.657000 12003390
-0.228780 -0.020460 0.651000 10814498
-0.228780 -0.016740 0.651000 9830931
-0.230537 -0.013120 0.656000 9110287
-0.230537 -0.009371 0.656000 8323855
-0.231240 -0.005640 0.658000 8128268
-0.231943 -0.001886 0.660000 7997196
-0.232294 0.001889 0.661000 7866123
-0.232646 0.005674 0.662000 7537929
-0.233700 0.009500 0.665000 5113353
-0.234051 0.013320 0.666000 1771278
-0.235457 0.017229 0.670000 1117194
-0.235457 0.021057 0.670000 1116683
-0.235457 0.024886 0.670000 985357
-0.235809 0.028757 0.671000 1378568
-0.236160 0.032640 0.672000 1640970
-0.236863 0.036589 0.674000 1641227
-0.237214 0.040500 0.675000 2231309
-0.237566 0.044423 0.676000 3741464
-0.234880 -0.036480 0.672000 11610174
-0.232783 -0.032349 0.666000 11803698
-0.231035 -0.028329 0.661000 12002106
-0.229288 -0.024366 0.656000 12201280
-0.227540 -0.020460 0.651000 10881066
-0.227190 -0.016714 0.650000 10093078
-0.229288 -0.013120 0.656000 9241615
-0.229637 -0.009386 0.657000 8454924
-0.230686 -0.005657 0.660000 8128009
-0.230686 -0.001886 0.660000 7997194
-0.231035 0.001889 0.661000 7866124
-0.231385 0.005674 0.662000 7734795
-0.232433 0.009500 0.665000 4852228
-0.232783 0.013320 0.666000 1705998
-0.234181 0.017229 0.670000 1313549
-0.234181 0.021057 0.670000 1050889
-0.234181 0.024886 0.670000 985356
-0.234530 0.028757 0.671000 1181960
-0.235579 0.032737 0.674000 1575177
-0.235929 0.036643 0.675000 1640716
-0.236278 0.040560 0.676000 1903370
-0.236977 0.044554 0.678000 3149328
-0.233252 -0.036426 0.671000 11609922
-0.231862 -0.032397 0.667000 11804727
-0.229776 -0.028329 0.661000 12197954
-0.228386 -0.024403 0.657000 12395322
-0.226648 -0.020491 0.652000 10945318
-0.226648 -0.016766 0.652000 10355734
-0.228386 -0.013140 0.657000 9372437
-0.228733 -0.009400 0.658000 8585999
-0.229429 -0.005657 0.660000 8193293
-0.229429 -0.001886 0.660000 7996939
-0.229776 0.001889 0.661000 7931658
-0.230124 0.005674 0.662000 7866128
-0.231514 0.009514 0.666000 4658183
-0.231862 0.013340 0.667000 1575182
-0.232905 0.017229 0.670000 1509645
-0.232905 0.021057 0.670000 919817
-0.232905 0.024886 0.670000 1050637
-0.233600 0.028800 0.672000 985353
-0.234295 0.032737 0.674000 1443848
-0.234643 0.036643 0.675000 1640973
-0.234990 0.040560 0.676000 1510410
-0.235686 0.044554 0.678000 2493453
-0.235686 0.048429 0.678000 3743509
-0.231974 -0.036426 0.671000 11542341
-0.230246 -0.032349 0.666000 11869500
-0.228863 -0.028371 0.662000 12329545
-0.227134 -0.024403 0.657000 12196404
-0.225751 -0.020523 0.653000 11142433
-0.225751 -0.016791 0.653000 10553110
-0.227480 -0.013160 0.658000 9634842
-0.227480 -0.009400 0.658000 8848145
-0.228171 -0.005657 0.660000 8389649
-0.228517 -0.001889 0.661000 8127756
-0.229209 0.001894 0.663000 8062472
-0.229209 0.005683 0.663000 7997974
-0.230246 0.009514 0.666000 3803914
-0.230246 0.013320 0.666000 1640975
-0.231629 0.017229 0.670000 1444365
-0.231974 0.021089 0.671000 1181961
-0.231974 0.024923 0.671000 1051149
-0.232320 0.028800 0.672000 1181963
-0.233011 0.032737 0.674000 1247495
-0.233357 0.036643 0.675000 1444366
-0.233703 0.040560 0.676000 1510666
-0.234740 0.044620 0.679000 2099466
-0.235777 0.048714 0.682000 3085589
-0.230352 -0.036371 0.670000 11540795
-0.228977 -0.032349 0.666000 11870016
-0.227602 -0.028371 0.662000 12524369
-0.226227 -0.024440 0.658000 11931953
-0.225539 -0.020617 0.656000 11404577
-0.224508 -0.016791 0.653000 10684187
-0.226227 -0.013160 0.658000 9896986
-0.226914 -0.009429 0.660000 9110547
-0.227258 -0.005666 0.661000 8586001
-0.227602 -0.001891 0.662000 8193294
-0.228633 0.001900 0.665000 8127753
-0.228977 0.005709 0.666000 8129294
-0.229321 0.009529 0.667000 2950161
-0.230009 0.013380 0.669000 1706765
-0.230352 0.017229 0.670000 1379342
-0.230352 0.021057 0.670000 1443850
-0.230696 0.024923 0.671000 1051405
-0.231728 0.028886 0.674000 1378313
-0.232071 0.032786 0.675000 1050633
-0.232415 0.036697 0.676000 1182219
-0.233103 0.040680 0.678000 1510921
-0.233447 0.044620 0.679000 1641225
-0.234478 0.048714 0.682000 2428689
-0.235166 0.052766 0.684000 3611417
-0.228734 -0.036317 0.669000 12261681
-0.227709 -0.032349 0.666000 12460357
-0.225999 -0.028329 0.661000 12592216
-0.225657 -0.024514 0.660000 11863087
-0.224290 -0.020617 0.656000 11339808
-0.224631 -0.016894 0.657000 10749984
-0.225657 -0.013200 0.660000 10094618
-0.225657 -0.009429 0.660000 9504532
-0.226683 -0.005683 0.663000 8914193
-0.226683 -0.001894 0.663000 8455439
-0.227367 0.001900 0.665000 8193290
-0.227709 0.005709 0.666000 8130054
-0.228734 0.009557 0.669000 2492183
-0.229076 0.013400 0.670000 1706508
-0.229076 0.017229 0.670000 1313806
-0.229418 0.021089 0.671000 1574923
-0.229418 0.024923 0.671000 1116940
-0.230444 0.028886 0.674000 1378310
-0.230786 0.032786 0.675000 1116171
-0.231128 0.036697 0.676000 1313032
-0.232153 0.040740 0.679000 1510152
-0.232495 0.044686 0.680000 1575433
-0.233179 0.048714 0.682000 2034445
-0.234547 0.052920 0.686000 3151121
-0.234889 0.056923 0.687000 3872026
-0.227460 -0.036317 0.669000 12986715
-0.226100 -0.032300 0.665000 13048892
-0.224740 -0.028329 0.661000 12660561
-0.224400 -0.024514 0.660000 11732788
-0.224400 -0.020743 0.660000 11274020
-0.224400 -0.016971 0.660000 10749989
-0.225080 -0.013240 0.662000 10357276
-0.224740 -0.009443 0.661000 9898266
-0.225420 -0.005683 0.663000 9176850
-0.226100 -0.001900 0.665000 8651791
-0.226440 0.001903 0.666000 8258572
-0.226780 0.005717 0.667000 8129288
-0.227800 0.009571 0.670000 1967895
-0.228140 0.013420 0.671000 1706510
-0.228140 0.017254 0.671000 1248270
-0.228140 0.021089 0.671000 1706253
-0.228480 0.024960 0.672000 1182733
-0.229160 0.028886 0.674000 1312521
-0.229500 0.032786 0.675000 1181708
-0.230520 0.036806 0.678000 1443850
-0.230860 0.040740 0.679000 1509898
-0.231200 0.044686 0.680000 1509898
-0.231880 0.048714 0.682000 1640972
-0.233240 0.052920 0.686000 2625553
-0.233580 0.056923 0.687000 3348757
-0.224833 -0.032300 0.665000 12783924
-0.223481 -0.028329 0.661000 12458058
-0.223143 -0.024514 0.660000 11864633
-0.223143 -0.020743 0.660000 11340583
-0.224833 -0.017100 0.665000 10815530
-0.224157 -0.013260 0.663000 10423070
-0.223819 -0.009457 0.662000 10094880
-0.224157 -0.005683 0.663000 9571091
-0.224833 -0.001900 0.665000 9045264
-0.225171 0.001903 0.666000 8520974
-0.226186 0.005734 0.669000 6688266
-0.226524 0.009571 0.670000 1706518
-0.226862 0.013420 0.671000 1706512
-0.226862 0.017254 0.671000 1248270
-0.226862 0.021089 0.671000 1509902
-0.227200 0.024960 0.672000 1182734
-0.227876 0.028886 0.674000 1377803
-0.228552 0.032834 0.676000 1181964
-0.229567 0.036860 0.679000 1443852
-0.229905 0.040800 0.680000 1444108
-0.229905 0.044686 0.680000 1509899
-0.230581 0.048714 0.682000 1575690
-0.231933 0.052920 0.686000 2296337
-0.232948 0.057089 0.689000 2954511
-0.232271 0.060849 0.687000 3411213
-0.223567 -0.032300 0.665000 12533863
-0.222222 -0.028329 0.661000 12258116
-0.221886 -0.024514 0.660000 11930420
-0.221886 -0.020743 0.660000 11406634
-0.223567 -0.017100 0.665000 10815278
-0.223567 -0.013300 0.665000 10488864
-0.222894 -0.009471 0.663000 10291488
-0.223567 -0.005700 0.665000 9965081
-0.223903 -0.001903 0.666000 9439250
-0.224239 0.001906 0.667000 8782861
-0.225248 0.005743 0.670000 5179663
-0.225248 0.009571 0.670000 1510419
-0.225584 0.013420 0.671000 1706768
-0.225584 0.017254 0.671000 1248526
-0.225920 0.021120 0.672000 1248270
-0.226592 0.025034 0.674000 1182734
-0.226592 0.028886 0.674000 1443852
-0.227265 0.032834 0.676000 1181964
-0.228273 0.036860 0.679000 1443852
-0.228610 0.040800 0.680000 1443850
-0.229282 0.044817 0.682000 1509898
-0.229282 0.048714 0.682000 1444874
-0.230627 0.052920 0.686000 1903119
-0.230963 0.056923 0.687000 2560014
-0.230627 0.060760 0.686000 3675408
-0.220963 -0.028329 0.661000 12399166
-0.220629 -0.024514 0.660000 11997232
-0.220629 -0.020743 0.660000 11540781
-0.222300 -0.017100 0.665000 11011889
-0.222634 -0.013320 0.666000 10619938
-0.222634 -0.009514 0.666000 10423073
-0.222634 -0.005709 0.666000 10095903
-0.222634 -0.001903 0.666000 9768469
-0.223637 0.001911 0.669000 9048075
-0.223971 0.005743 0.670000 3015188
-0.223971 0.009571 0.670000 1641487
-0.224306 0.013420 0.671000 1575440
-0.224640 0.017280 0.672000 1248270
-0.224640 0.021120 0.672000 1248270
-0.225309 0.025034 0.674000 1182734
-0.225643 0.028929 0.675000 1443853
-0.225977 0.032834 0.676000 1247499
-0.226980 0.036860 0.679000 1443853
-0.227314 0.040800 0.680000 1313031
-0.227983 0.044817 0.682000 1247497
-0.227983 0.048714 0.682000 1444617
-0.228651 0.052766 0.684000 1706510
-0.229654 0.056923 0.687000 2165772
-0.229320 0.060760 0.686000 3217172
-0.219371 -0.024514 0.660000 12014945
-0.219371 -0.020743 0.660000 11676991
-0.221698 -0.013340 0.667000 10751526
-0.221698 -0.009529 0.667000 10488357
-0.221698 -0.005717 0.667000 10292257
-0.221698 -0.001906 0.667000 10095895
-0.222363 0.001911 0.669000 9247500
-0.222695 0.005743 0.670000 789272
-0.222695 0.009571 0.670000 1838609
-0.223028 0.013420 0.671000 1379344
-0.223360 0.017280 0.672000 1313295
-0.223360 0.021120 0.672000 1182736
-0.224025 0.025034 0.674000 1248270
-0.224357 0.028929 0.675000 1444109
-0.224690 0.032834 0.676000 1312780
-0.225687 0.036860 0.679000 1444110
-0.226019 0.040800 0.680000 1116170
-0.226684 0.044817 0.682000 985353
-0.226684 0.048714 0.682000 1444104
-0.227349 0.052766 0.684000 1510154
-0.228346 0.056923 0.687000 1837579
-0.228346 0.060849 0.687000 2757138
-0.220428 -0.013340 0.667000 10949162
-0.221089 -0.009557 0.669000 10684714
-0.221419 -0.005743 0.670000 10423842
-0.221419 -0.001914 0.670000 10227737
-0.221750 0.001917 0.671000 7674124
-0.221419 0.005743 0.670000 1706525
-0.221419 0.009571 0.670000 1773331
-0.222080 0.013440 0.672000 1379857
-0.222080 0.017280 0.672000 1313807
-0.222741 0.021183 0.674000 1248274
-0.223071 0.025071 0.675000 1248269
-0.223402 0.028971 0.676000 1509646
-0.224063 0.032931 0.678000 1378829
-0.224393 0.036860 0.679000 1509648
-0.224724 0.040800 0.680000 1247757
-0.225385 0.044817 0.682000 1247754
-0.225715 0.048786 0.683000 1444103
-0.226707 0.052920 0.686000 1575430
-0.227037 0.056923 0.687000 1641225
-0.227037 0.060849 0.687000 2427920
-0.228029 0.065057 0.690000 2692628
-0.219157 -0.013340 0.667000 11146793
-0.219157 -0.009529 0.667000 10816815
-0.221457 -0.005777 0.674000 10620454
-0.220471 -0.001917 0.671000 10295063
-0.220471 0.001917 0.671000 6037529
-0.220471 0.005751 0.671000 2559775
-0.220471 0.009586 0.671000 1774357
-0.221457 0.013480 0.674000 1380113
-0.221457 0.017331 0.674000 1379343
-0.221457 0.021183 0.674000 1313807
-0.222114 0.025109 0.676000 1248267
-0.222114 0.028971 0.676000 1509644
-0.222771 0.032931 0.678000 1510157
-0.223100 0.036860 0.679000 1509647
-0.223429 0.040800 0.680000 1313037
-0.224086 0.044817 0.682000 1444107
-0.224414 0.048786 0.683000 1509896
-0.225729 0.052997 0.687000 1575433
-0.225729 0.056923 0.687000 1510665
-0.226386 0.061026 0.689000 2034701
-0.226386 0.064963 0.689000 2888722
-0.217887 -0.013340 0.667000 11277095
-0.217887 -0.009529 0.667000 11013683
-0.220173 -0.005777 0.674000 10753065
-0.220173 -0.001926 0.674000 10231318
-0.219193 0.001917 0.671000 4330021
-0.219193 0.005751 0.671000 2561569
-0.220173 0.009629 0.674000 1840150
-0.220500 0.013500 0.675000 1577233
-0.220500 0.017357 0.675000 1379598
-0.220500 0.021214 0.675000 1510412
-0.220827 0.025109 0.676000 1248265
-0.221480 0.029057 0.678000 1378570
-0.221807 0.032980 0.679000 1444365
-0.222133 0.036914 0.680000 1509646
-0.222133 0.040800 0.680000 1444365
-0.222787 0.044817 0.682000 1509644
-0.223440 0.048857 0.684000 1378824
-0.224093 0.052920 0.686000 1575436
-0.224420 0.056923 0.687000 1575945
-0.224420 0.060849 0.687000 1837579
-0.225400 0.065057 0.690000 2494479
-0.216616 -0.013340 0.667000 11473235
-0.219214 -0.009643 0.675000 11211557
-0.219539 -0.005794 0.676000 10951212
-0.219214 -0.001929 0.675000 10165282
-0.217915 0.001917 0.671000 2624554
-0.220838 0.005829 0.680000 2561057
-0.220513 0.009700 0.679000 1905691
-0.219539 0.013520 0.676000 1708053
-0.219214 0.017357 0.675000 1445134
-0.219539 0.021246 0.676000 1707020
-0.220189 0.025183 0.678000 1248268
-0.220513 0.029100 0.679000 1247755
-0.220838 0.033029 0.680000 1378574
-0.220838 0.036914 0.680000 1509644
-0.221488 0.040920 0.682000 1509645
-0.222787 0.045080 0.686000 1509643
-0.222137 0.048857 0.684000 1313289
-0.222787 0.052920 0.686000 1575179
-0.223111 0.056923 0.687000 1641993
-0.223761 0.061026 0.689000 1641483
-0.224410 0.065151 0.691000 2165775
-0.225385 0.069400 0.694000 2627089
-0.225385 0.073366 0.694000 3349016
-0.217929 -0.009643 0.675000 11147798
-0.218251 -0.005794 0.676000 10429230
-0.218251 -0.001931 0.676000 6557230
-0.216637 0.001917 0.671000 2954286
-0.219543 0.005829 0.680000 2561826
-0.219543 0.009714 0.680000 1971232
-0.218897 0.013560 0.678000 1904409
-0.219220 0.017460 0.679000 1576461
-0.218251 0.021246 0.676000 1641739
-0.219220 0.025220 0.679000 1379598
-0.219543 0.029143 0.680000 1510412
-0.219543 0.033029 0.680000 1509646
-0.219543 0.036914 0.680000 1575179
-0.220189 0.040920 0.682000 1509645
-0.221480 0.045080 0.686000 1509899
-0.221480 0.049000 0.686000 1313545
-0.221480 0.052920 0.686000 1574922
-0.222449 0.057089 0.689000 1641225
-0.222449 0.061026 0.689000 1379084
-0.223094 0.065151 0.691000 1837838
-0.223740 0.069300 0.693000 2363662
-0.224063 0.073366 0.694000 3086358
-0.216643 -0.009643 0.675000 11092817
-0.216643 -0.005786 0.675000 9905946
-0.216322 -0.001926 0.674000 2889005
-0.215359 0.001917 0.671000 3283510
-0.218248 0.005829 0.680000 2561576
-0.218248 0.009714 0.680000 2102053
-0.217927 0.013580 0.679000 2101020
-0.218248 0.017486 0.680000 1707536
-0.217927 0.021340 0.679000 1576718
-0.218248 0.025257 0.680000 1576464
-0.218248 0.029143 0.680000 1707022
-0.218248 0.033029 0.680000 1706511
-0.218890 0.037023 0.682000 1575181
-0.218890 0.040920 0.682000 1575179
-0.220173 0.045080 0.686000 1509899
-0.220173 0.049000 0.686000 1314057
-0.220494 0.052997 0.687000 1509899
-0.220494 0.056923 0.687000 1575433
-0.221136 0.061026 0.689000 1117197
-0.221778 0.065151 0.691000 1509899
-0.222420 0.069300 0.693000 2035214
-0.222741 0.073366 0.694000 2888982
-0.221778 0.076997 0.691000 3479829
-0.215357 -0.009643 0.675000 11761037
-0.215676 -0.005794 0.676000 7938053
-0.215038 -0.001926 0.674000 3021868
-0.214081 0.001917 0.671000 3481918
-0.216952 0.005829 0.680000 2955822
-0.216952 0.009714 0.680000 2495785
-0.216633 0.013580 0.679000 2297375
-0.217590 0.017537 0.682000 1839379
-0.216952 0.021371 0.680000 1643025
-0.216952 0.025257 0.680000 1576466
-0.216952 0.029143 0.680000 1641233
-0.216952 0.033029 0.680000 1706511
-0.217590 0.037023 0.682000 1640462
-0.218229 0.041040 0.684000 1575433
-0.219186 0.045146 0.687000 1575180
-0.218867 0.049000 0.686000 1379337
-0.219186 0.052997 0.687000 1313036
-0.219824 0.057089 0.689000 1510153
-0.219824 0.061026 0.689000 1379342
-0.220143 0.065057 0.690000 1575688
-0.221100 0.069300 0.693000 1903374
-0.221419 0.073366 0.694000 2560533
-0.221100 0.077220 0.693000 3217173
-0.214071 -0.005786 0.675000 5980500
-0.213754 -0.001926 0.674000 3088457
-0.216291 0.005846 0.682000 3284529
-0.215657 0.009714 0.680000 2890029
-0.215657 0.013600 0.680000 2494500
-0.216291 0.017537 0.682000 1970715
-0.215657 0.021371 0.680000 1642773
-0.216291 0.025331 0.682000 1642003
-0.215657 0.029143 0.680000 1510929
-0.216291 0.033126 0.682000 1706511
-0.216609 0.037077 0.683000 1706767
-0.217560 0.041160 0.686000 1640972
-0.217877 0.045146 0.687000 1640974
-0.217877 0.049071 0.687000 1444362
-0.218511 0.053151 0.689000 1116941
-0.218829 0.057171 0.690000 1444617
-0.218511 0.061026 0.689000 1641228
