# .PCD v.7 - Point Cloud Data file format
VERSION .7
FIELDS x y z rgb
SIZE 4 4 4 4
TYPE F F F I
COUNT 1 1 1 1
WIDTH 1284
HEIGHT 1
POINTS 1284
DATA ascii
-0.219767 -0.096900 0.665000 7604747
-0.219106 -0.092820 0.663000 9591873
-0.219767 -0.089300 0.665000 10118751
-0.220428 -0.085757 0.667000 10495318
-0.221419 -0.082314 0.670000 10180724
-0.221419 -0.078486 0.670000 8929610
-0.222080 -0.074880 0.672000 8796168
-0.222741 -0.071251 0.674000 9605414
-0.223071 -0.067500 0.675000 9319709
-0.223402 -0.063737 0.676000 10115848
-0.224393 -0.060140 0.679000 9131791
-0.225385 -0.056509 0.682000 7211795
-0.225715 -0.052689 0.683000 6825996
-0.225715 -0.048786 0.683000 7805987
-0.226707 -0.045080 0.686000 8003628
-0.227037 -0.041220 0.687000 7801876
-0.227698 -0.037403 0.689000 7539969
-0.228359 -0.033563 0.691000 7761728
-0.229020 -0.029700 0.693000 7086138
-0.229350 -0.025777 0.694000 9390632
-0.230342 -0.021906 0.697000 10713721
-0.230672 -0.017949 0.698000 8596790
-0.230672 -0.013960 0.698000 8399634
-0.231664 -0.010014 0.701000 8459542
-0.232325 -0.006026 0.703000 8923948
-0.232655 -0.002011 0.704000 10183187
-0.232986 0.002014 0.705000 9336646
-0.233647 0.006060 0.707000 327975
-0.212257 -0.149503 0.646000 11470645
-0.211929 -0.145586 0.645000 11280961
-0.212586 -0.142340 0.647000 10552884
-0.213900 -0.139500 0.651000 10290993
-0.213900 -0.135780 0.651000 10160682
-0.214557 -0.132466 0.653000 10029354
-0.214557 -0.128734 0.653000 9832741
-0.214557 -0.125003 0.653000 9570078
-0.215214 -0.121643 0.655000 7802652
-0.215543 -0.118080 0.656000 1774376
-0.216200 -0.114680 0.658000 2036253
-0.216857 -0.111257 0.660000 1512214
-0.217186 -0.107649 0.661000 1510936
-0.217186 -0.103871 0.661000 1642771
-0.217843 -0.100397 0.663000 1181208
-0.218500 -0.096900 0.665000 7932688
-0.218829 -0.093240 0.666000 10110017
-0.218829 -0.089434 0.666000 10713678
-0.219814 -0.086014 0.669000 10511971
-0.220143 -0.082314 0.670000 10058634
-0.220471 -0.078603 0.671000 8856896
-0.220800 -0.074880 0.672000 9785093
-0.221457 -0.071251 0.674000 11497769
-0.222114 -0.067600 0.676000 9244432
-0.222771 -0.063926 0.678000 8738075
-0.223429 -0.060229 0.680000 8867853
-0.224086 -0.056509 0.682000 7342870
-0.224414 -0.052689 0.683000 5977883
-0.224743 -0.048857 0.684000 6632989
-0.225729 -0.045146 0.687000 7279653
-0.226386 -0.041340 0.689000 7605013
-0.226714 -0.037457 0.690000 7277584
-0.227700 -0.033660 0.693000 7299636
-0.228029 -0.029743 0.694000 7081004
-0.228029 -0.025777 0.694000 8599586
-0.229014 -0.021906 0.697000 10713457
-0.229343 -0.017949 0.698000 8599092
-0.229343 -0.013960 0.698000 8334864
-0.230329 -0.010014 0.701000 8395035
-0.230986 -0.006026 0.703000 8593193
-0.231314 -0.002011 0.704000 9323031
-0.231643 0.002014 0.705000 9926957
-0.232629 0.006069 0.708000 265254
-0.211027 -0.145811 0.646000 11013669
-0.211680 -0.142560 0.648000 10486829
-0.212987 -0.139714 0.652000 10422329
-0.212987 -0.135989 0.652000 10357296
-0.213967 -0.132871 0.655000 10225965
-0.213313 -0.128734 0.653000 10030117
-0.214293 -0.125577 0.656000 9768222
-0.214293 -0.121829 0.656000 5573155
-0.214620 -0.118260 0.657000 2167848
-0.215600 -0.115029 0.660000 2036000
-0.215927 -0.111426 0.661000 1774102
-0.216253 -0.107811 0.662000 1773083
-0.216253 -0.104029 0.662000 1839124
-0.217233 -0.100700 0.665000 1377049
-0.217560 -0.097046 0.666000 8390932
-0.218867 -0.093800 0.670000 10247233
-0.218540 -0.089837 0.669000 10043197
-0.218867 -0.086143 0.670000 9727856
-0.219193 -0.082437 0.671000 10385056
-0.219193 -0.078603 0.671000 8651062
-0.219520 -0.074880 0.672000 9715202
-0.220500 -0.071357 0.675000 10761517
-0.220827 -0.067600 0.676000 9318402
-0.221480 -0.063926 0.678000 9530413
-0.222787 -0.060406 0.682000 8859659
-0.223113 -0.056591 0.683000 7735065
-0.223113 -0.052689 0.683000 6959146
-0.223440 -0.048857 0.684000 6970903
-0.224420 -0.045146 0.687000 7089438
-0.225400 -0.041400 0.690000 7342871
-0.225727 -0.037511 0.691000 6953246
-0.226380 -0.033660 0.693000 6250281
-0.226707 -0.029743 0.694000 6820382
-0.227033 -0.025814 0.695000 8532253
-0.227687 -0.021906 0.697000 10844521
-0.228013 -0.017949 0.698000 8531507
-0.228667 -0.014000 0.700000 8331278
-0.228993 -0.010014 0.701000 8461601
-0.229973 -0.006034 0.704000 8595237
-0.230300 -0.002014 0.705000 8526107
-0.230953 0.002020 0.707000 8867091
-0.231933 0.006086 0.710000 393509
-0.209796 -0.145811 0.646000 10749023
-0.210446 -0.142560 0.648000 10356299
-0.212070 -0.139929 0.653000 10619440
-0.211745 -0.135989 0.652000 10488099
-0.212719 -0.132871 0.655000 10423339
-0.213044 -0.129326 0.656000 10226221
-0.213044 -0.125577 0.656000 9964579
-0.213369 -0.122014 0.657000 3347746
-0.213693 -0.118440 0.658000 2562088
-0.214992 -0.115377 0.662000 2037027
-0.214992 -0.111594 0.662000 1970714
-0.214992 -0.107811 0.662000 2035996
-0.214992 -0.104029 0.662000 2101782
-0.216291 -0.100851 0.666000 1509403
-0.216616 -0.097191 0.667000 8848143
-0.217915 -0.093940 0.671000 10308183
-0.217590 -0.089971 0.670000 9339258
-0.217915 -0.086271 0.671000 8877193
-0.217915 -0.082437 0.671000 10771584
-0.217915 -0.078603 0.671000 8394035
-0.218890 -0.075103 0.674000 9659400
-0.219214 -0.071357 0.675000 10053672
-0.220189 -0.067800 0.678000 9437485
-0.220513 -0.064020 0.679000 10314523
-0.221812 -0.060494 0.683000 8860958
-0.221812 -0.056591 0.683000 8062739
-0.222137 -0.052766 0.684000 8003103
-0.222787 -0.049000 0.686000 7231768
-0.223761 -0.045277 0.689000 6901298
-0.224086 -0.041400 0.690000 7016993
-0.225060 -0.037620 0.693000 6623514
-0.225385 -0.033709 0.694000 5134633
-0.225385 -0.029743 0.694000 6557457
-0.226359 -0.025889 0.697000 8464918
-0.226359 -0.021906 0.697000 10975324
-0.226684 -0.017949 0.698000 8403504
-0.227658 -0.014020 0.701000 8391947
-0.228308 -0.010043 0.703000 8527386
-0.228632 -0.006034 0.704000 8595749
-0.228957 -0.002014 0.705000 7674906
-0.229931 0.002023 0.708000 7805965
-0.230581 0.006086 0.710000 463387
-0.209211 -0.142560 0.648000 11080298
-0.210826 -0.139929 0.653000 10622758
-0.211471 -0.132871 0.655000 10422313
-0.211794 -0.129326 0.656000 10423605
-0.212117 -0.125769 0.657000 9835559
-0.213086 -0.122571 0.660000 3019554
-0.213409 -0.118980 0.661000 2562599
-0.213731 -0.115377 0.662000 2233893
-0.213731 -0.111594 0.662000 2037021
-0.213731 -0.107811 0.662000 2035998
-0.213731 -0.104029 0.662000 2101783
-0.215023 -0.100851 0.666000 1574686
-0.215346 -0.097191 0.667000 9242377
-0.216637 -0.093940 0.671000 10376301
-0.216314 -0.089971 0.670000 10389430
-0.216637 -0.086271 0.671000 10522786
-0.216637 -0.082437 0.671000 10506335
-0.216960 -0.078720 0.672000 8126769
-0.217606 -0.075103 0.674000 10319118
-0.218251 -0.071463 0.676000 10785828
-0.218897 -0.067800 0.678000 9515608
-0.219543 -0.064114 0.680000 10563336
-0.220834 -0.060583 0.684000 8592944
-0.220834 -0.056674 0.684000 8127758
-0.220834 -0.052766 0.684000 8066323
-0.221803 -0.049071 0.687000 7425561
-0.222449 -0.045277 0.689000 6707781
-0.223094 -0.041460 0.691000 6625834
-0.223740 -0.037620 0.693000 6234901
-0.224063 -0.033709 0.694000 5003817
-0.224386 -0.029786 0.695000 6427396
-0.225031 -0.025889 0.697000 8262927
-0.225031 -0.021906 0.697000 10776911
-0.225354 -0.017949 0.698000 8401197
-0.226323 -0.014020 0.701000 8194567
-0.227291 -0.010057 0.704000 8395540
-0.227291 -0.006034 0.704000 8460836
-0.227614 -0.002014 0.705000 8001049
-0.229229 0.002029 0.710000 8006662
-0.229551 0.006094 0.711000 1117200
-0.209582 -0.139929 0.653000 10697840
-0.210545 -0.129326 0.656000 10620213
-0.211187 -0.125960 0.658000 9772585
-0.212150 -0.122757 0.661000 2627376
-0.212150 -0.118980 0.661000 2628395
-0.212470 -0.115377 0.662000 2365735
-0.212470 -0.111594 0.662000 2168864
-0.212791 -0.107974 0.663000 2036768
-0.213433 -0.104500 0.665000 2167577
-0.214075 -0.101003 0.667000 1575713
-0.215038 -0.097629 0.670000 9700112
-0.215359 -0.093940 0.671000 10378356
-0.215359 -0.090106 0.671000 11435953
-0.215680 -0.086400 0.672000 12094618
-0.215680 -0.082560 0.672000 10235503
-0.215680 -0.078720 0.672000 7802931
-0.216322 -0.075103 0.674000 10979612
-0.217606 -0.071674 0.678000 11501864
-0.217927 -0.067900 0.679000 9589565
-0.218890 -0.064303 0.682000 10774304
-0.219531 -0.060583 0.684000 8257831
-0.219531 -0.056674 0.684000 8193552
-0.220173 -0.052920 0.686000 8130327
-0.220494 -0.049071 0.687000 7613465
-0.221457 -0.045343 0.690000 6512184
-0.222420 -0.041580 0.693000 6176553
-0.222420 -0.037620 0.693000 5840418
-0.222741 -0.033709 0.694000 4872234
-0.223704 -0.029871 0.697000 6295824
-0.224025 -0.025926 0.698000 8066318
-0.224025 -0.021937 0.698000 10513986
-0.224667 -0.018000 0.700000 8332831
-0.225950 -0.014080 0.704000 7997712
-0.225950 -0.010057 0.704000 8262161
-0.226271 -0.006043 0.705000 8326175
-0.227234 -0.002023 0.708000 8329499
-0.228197 0.002031 0.711000 8200977
-0.228197 0.006094 0.711000 1712927
-0.210890 -0.126534 0.661000 7738410
-0.211210 -0.122943 0.662000 3153470
-0.211210 -0.119160 0.662000 2825518
-0.211210 -0.115377 0.662000 2497578
-0.211210 -0.111594 0.662000 2365987
-0.212486 -0.108463 0.666000 2234146
-0.212805 -0.104814 0.667000 2299163
-0.213443 -0.101306 0.669000 1640740
-0.214081 -0.097774 0.671000 9839127
-0.214081 -0.093940 0.671000 10571899
-0.214400 -0.090240 0.672000 12487852
-0.215038 -0.086657 0.674000 12026513
-0.215038 -0.082806 0.674000 10177919
-0.215038 -0.078954 0.674000 8126774
-0.215676 -0.075326 0.676000 11633449
-0.216633 -0.071780 0.679000 10779436
-0.216952 -0.068000 0.680000 9454626
-0.217590 -0.064303 0.682000 10916664
-0.218229 -0.060583 0.684000 8394270
-0.218229 -0.056674 0.684000 8324115
-0.219186 -0.052997 0.687000 8261658
-0.219186 -0.049071 0.687000 7868697
-0.220143 -0.045343 0.690000 6572075
-0.221100 -0.041580 0.693000 5724968
-0.221100 -0.037620 0.693000 5520687
-0.221738 -0.033757 0.695000 4610092
-0.222695 -0.029914 0.698000 6167068
-0.222695 -0.025926 0.698000 8127502
-0.222695 -0.021937 0.698000 9589556
-0.223652 -0.018026 0.701000 8326930
-0.224610 -0.014080 0.704000 8063257
-0.224929 -0.010071 0.705000 8194829
-0.224929 -0.006043 0.705000 8325658
-0.225886 -0.002023 0.708000 8395294
-0.226843 0.002031 0.711000 9059612
-0.209631 -0.126534 0.661000 5705561
-0.209949 -0.122943 0.662000 3676983
-0.209949 -0.119160 0.662000 3022380
-0.209949 -0.115377 0.662000 2628907
-0.209949 -0.111594 0.662000 2563363
-0.215023 -0.110417 0.678000 2365986
-0.211534 -0.104814 0.667000 2495774
-0.212803 -0.101609 0.671000 1641246
-0.213120 -0.097920 0.672000 9965862
-0.213120 -0.094080 0.672000 10773126
-0.213120 -0.090240 0.672000 13539223
-0.214389 -0.086914 0.676000 11897242
-0.214071 -0.082929 0.675000 10185854
-0.214389 -0.079189 0.676000 8459812
-0.215340 -0.075660 0.679000 12288812
-0.215657 -0.071886 0.680000 9981744
-0.215657 -0.068000 0.680000 9326884
-0.216609 -0.064397 0.683000 10973751
-0.216926 -0.060583 0.684000 8585493
-0.217560 -0.056840 0.686000 8455955
-0.217877 -0.052997 0.687000 8459542
-0.218511 -0.049214 0.689000 8130836
-0.219146 -0.045409 0.691000 6631211
-0.220097 -0.041640 0.694000 5200681
-0.220097 -0.037674 0.694000 5197864
-0.221049 -0.033854 0.697000 4281389
-0.221366 -0.029914 0.698000 6103074
-0.221366 -0.025926 0.698000 8194576
-0.222000 -0.022000 0.700000 8667442
-0.222951 -0.018077 0.703000 8262167
-0.223269 -0.014080 0.704000 8128538
-0.223586 -0.010071 0.705000 8128277
-0.224220 -0.006060 0.707000 8325659
-0.225171 -0.002029 0.710000 8396059
-0.225489 0.002031 0.711000 9982228
-0.208688 -0.119160 0.662000 2627369
-0.208688 -0.115377 0.662000 2825260
-0.208688 -0.111594 0.662000 2629155
-0.212470 -0.109766 0.674000 2498082
-0.212470 -0.105914 0.674000 2496801
-0.211210 -0.101457 0.670000 1706264
-0.211840 -0.097920 0.672000 10104885
-0.211840 -0.094080 0.672000 11160210
-0.212786 -0.090643 0.675000 12219010
-0.212786 -0.086786 0.675000 11772068
-0.213731 -0.083297 0.678000 10178172
-0.214047 -0.079540 0.679000 9765137
-0.214362 -0.075771 0.680000 11630382
-0.214992 -0.072097 0.682000 9059893
-0.214992 -0.068200 0.682000 10905125
-0.215308 -0.064397 0.683000 11043894
-0.216253 -0.060760 0.686000 8585740
-0.216569 -0.056923 0.687000 8587283
-0.217199 -0.053151 0.689000 8590865
-0.217199 -0.049214 0.689000 8326160
-0.218460 -0.045540 0.693000 7349547
-0.218775 -0.041640 0.694000 4873002
-0.219090 -0.037729 0.695000 4674849
-0.220036 -0.033903 0.698000 3886382
-0.220036 -0.029914 0.698000 5777191
-0.220667 -0.026000 0.700000 8063250
-0.220667 -0.022000 0.700000 8394287
-0.221928 -0.018103 0.704000 8193565
-0.222243 -0.014100 0.705000 8127771
-0.222243 -0.010071 0.705000 8258589
-0.222873 -0.006060 0.707000 8194843
-0.223819 -0.002029 0.710000 8397337
-0.224134 0.002031 0.711000 8992523
-0.207427 -0.119160 0.662000 2297411
-0.211500 -0.109929 0.675000 2629158
-0.211187 -0.105914 0.674000 2562853
-0.211187 -0.102063 0.674000 1707807
-0.211187 -0.098211 0.674000 10302747
-0.211187 -0.094360 0.674000 11492725
-0.211500 -0.090643 0.675000 10965635
-0.211813 -0.086914 0.676000 11561362
-0.212440 -0.083297 0.678000 10248816
-0.213067 -0.079657 0.680000 11028511
-0.213067 -0.075771 0.680000 11041079
-0.213067 -0.071886 0.680000 8065095
-0.214007 -0.068300 0.683000 12492829
-0.214320 -0.064491 0.684000 11036978
-0.214947 -0.060760 0.686000 8651276
-0.215260 -0.056923 0.687000 8718354
-0.215887 -0.053151 0.689000 8722450
-0.215887 -0.049214 0.689000 8523281
-0.217140 -0.045540 0.693000 8131887
-0.217453 -0.041640 0.694000 4478768
-0.217453 -0.037674 0.694000 4217126
-0.218393 -0.033854 0.697000 3425067
-0.218707 -0.029914 0.698000 5519137
-0.218707 -0.025926 0.698000 7936797
-0.219647 -0.022031 0.701000 8194343
-0.220273 -0.018077 0.703000 8063779
-0.220587 -0.014080 0.704000 8192809
-0.220900 -0.010071 0.705000 8393758
-0.221840 -0.006069 0.708000 8065052
-0.222467 -0.002029 0.710000 8396314
-0.222780 0.002031 0.711000 8066832
-0.222780 0.006094 0.711000 1643797
-0.206477 -0.119340 0.663000 3812957
-0.209903 -0.109766 0.674000 2826026
-0.210214 -0.106071 0.675000 2759720
-0.210214 -0.102214 0.675000 2166309
-0.210526 -0.098503 0.676000 8788225
-0.210214 -0.094500 0.675000 10899033
-0.210526 -0.090777 0.676000 11095172
-0.210526 -0.086914 0.676000 11497345
-0.211460 -0.083420 0.679000 10106723
-0.211771 -0.079657 0.680000 11502892
-0.212394 -0.075994 0.682000 12031552
-0.212706 -0.072203 0.683000 8585561
-0.212706 -0.068300 0.683000 12685845
-0.213017 -0.064491 0.684000 10707502
-0.213640 -0.060760 0.686000 8651020
-0.213951 -0.056923 0.687000 8848658
-0.214886 -0.053229 0.690000 8918034
-0.215197 -0.049357 0.691000 8653331
-0.215820 -0.045540 0.693000 7483955
-0.216131 -0.041640 0.694000 4610615
-0.216443 -0.037729 0.695000 3822378
-0.217066 -0.033854 0.697000 2633768
-0.218000 -0.030000 0.700000 4865563
-0.218000 -0.026000 0.700000 6504487
-0.218311 -0.022031 0.701000 8337950
-0.218934 -0.018077 0.703000 8724266
-0.219246 -0.014080 0.704000 8271671
-0.220180 -0.010100 0.707000 7680543
-0.220491 -0.006069 0.708000 7608604
-0.221114 -0.002029 0.710000 8527130
-0.221426 0.002031 0.711000 8796436
-0.221426 0.006094 0.711000 1245465
-0.208619 -0.109766 0.674000 3022377
-0.208929 -0.106071 0.675000 2956841
-0.209238 -0.102366 0.676000 2562083
-0.209857 -0.098794 0.678000 7277577
-0.209857 -0.094920 0.678000 10231866
-0.209857 -0.091046 0.678000 11215191
-0.210167 -0.087300 0.679000 11358809
-0.210476 -0.083543 0.680000 10030155
-0.211095 -0.079891 0.682000 11952697
-0.211405 -0.076106 0.683000 13012548
-0.211714 -0.072309 0.684000 9128263
-0.212333 -0.068600 0.686000 12820509
-0.212333 -0.064680 0.686000 10304292
-0.212333 -0.060760 0.686000 8651041
-0.213262 -0.057089 0.689000 8980244
-0.213881 -0.053306 0.691000 9113882
-0.213881 -0.049357 0.691000 8719647
-0.214810 -0.045606 0.694000 6835250
-0.215119 -0.041700 0.695000 4675126
-0.215738 -0.037837 0.697000 3493166
-0.216048 -0.033903 0.698000 1846812
-0.216976 -0.030043 0.701000 4213281
-0.217595 -0.026111 0.703000 5067569
-0.217595 -0.022094 0.703000 8478524
-0.217905 -0.018103 0.704000 9333073
-0.218214 -0.014100 0.705000 8349763
-0.219143 -0.010114 0.708000 6961699
-0.219762 -0.006086 0.710000 7151907
-0.220071 -0.002031 0.711000 8591896
-0.220690 0.002037 0.713000 9458193
-0.207643 -0.106071 0.675000 2956586
-0.207950 -0.102366 0.676000 2759201
-0.207950 -0.098503 0.676000 5967121
-0.208566 -0.094920 0.678000 10559004
-0.208566 -0.091046 0.678000 10818090
-0.209181 -0.087429 0.680000 10949426
-0.209796 -0.083789 0.682000 10357043
-0.209796 -0.079891 0.682000 13139271
-0.210104 -0.076106 0.683000 12551239
-0.211334 -0.072626 0.687000 10240310
-0.211334 -0.068700 0.687000 12951589
-0.211334 -0.064774 0.687000 9636378
-0.211950 -0.061026 0.689000 10236725
-0.212565 -0.057254 0.691000 8717335
-0.213180 -0.053460 0.693000 9244450
-0.213180 -0.049500 0.693000 8849963
-0.213795 -0.045671 0.695000 7169073
-0.214410 -0.041820 0.697000 4083766
-0.214718 -0.037891 0.698000 3293746
-0.214718 -0.033903 0.698000 2369297
-0.216256 -0.030129 0.703000 3949863
-0.216256 -0.026111 0.703000 5266491
-0.216564 -0.022126 0.704000 8026458
-0.216871 -0.018129 0.705000 8686456
-0.217487 -0.014140 0.707000 7625551
-0.218410 -0.010143 0.710000 7877927
-0.218717 -0.006094 0.711000 7936042
-0.219332 -0.002037 0.713000 8589590
-0.219640 0.002040 0.714000 9661198
-0.206357 -0.106071 0.675000 2955811
-0.206663 -0.102366 0.676000 2890532
-0.206663 -0.098503 0.676000 4721689
-0.207274 -0.094920 0.678000 10887198
-0.208497 -0.091583 0.682000 10492201
-0.208497 -0.087686 0.682000 10555955
-0.208803 -0.083911 0.683000 10748967
-0.208803 -0.080009 0.683000 14261839
-0.209720 -0.076440 0.686000 12160833
-0.210026 -0.072626 0.687000 11361347
-0.210637 -0.068900 0.689000 13079357
-0.210943 -0.065057 0.690000 8992814
-0.210943 -0.061114 0.690000 11828322
-0.211249 -0.057254 0.691000 8464179
-0.212166 -0.053537 0.694000 9440287
-0.212471 -0.049643 0.695000 8915740
-0.213083 -0.045803 0.697000 7501382
-0.213083 -0.041820 0.697000 3495999
-0.213389 -0.037891 0.698000 3160888
-0.214000 -0.034000 0.700000 2895137
-0.214306 -0.030043 0.701000 3753257
-0.214917 -0.026111 0.703000 5462586
-0.215223 -0.022126 0.704000 7633236
-0.216140 -0.018180 0.707000 8022873
-0.216446 -0.014160 0.708000 6958642
-0.217057 -0.010143 0.710000 8791067
-0.217363 -0.006094 0.711000 8784918
-0.218280 -0.002040 0.714000 8528668
-0.218280 0.002040 0.714000 9798692
-0.207198 -0.091583 0.682000 10625575
-0.207806 -0.087943 0.684000 10557749
-0.207806 -0.084034 0.684000 11285018
-0.208413 -0.080360 0.686000 14134871
-0.208717 -0.076551 0.687000 12222523
-0.209325 -0.072837 0.689000 12953937
-0.209629 -0.069000 0.690000 12881237
-0.209932 -0.065151 0.691000 11680067
-0.210540 -0.061380 0.693000 13741710
-0.210540 -0.057420 0.693000 10630479
-0.211148 -0.053614 0.695000 9375003
-0.211148 -0.049643 0.695000 9240845
-0.211755 -0.045803 0.697000 7567451
-0.212059 -0.041880 0.698000 4348233
-0.212667 -0.038000 0.700000 3687485
-0.212667 -0.034000 0.700000 2831153
-0.213578 -0.030129 0.703000 5456682
-0.213882 -0.026149 0.704000 6771514
-0.214186 -0.022157 0.705000 8084301
-0.214793 -0.018180 0.707000 8206906
-0.215705 -0.014200 0.710000 7607317
-0.216009 -0.010157 0.711000 8918288
-0.216616 -0.006111 0.713000 9578241
-0.216920 -0.002040 0.714000 9722658
-0.217528 0.002046 0.716000 9994298
-0.206503 -0.091851 0.684000 10824491
-0.206503 -0.087943 0.684000 10556720
-0.207107 -0.084280 0.686000 11876138
-0.207409 -0.080477 0.687000 13932883
-0.208012 -0.076774 0.689000 12292646
-0.208314 -0.072943 0.690000 14513485
-0.208616 -0.069100 0.691000 12683307
-0.209220 -0.065340 0.693000 14322273
-0.209220 -0.061380 0.693000 15718778
-0.209522 -0.057503 0.694000 12750188
-0.209824 -0.053614 0.695000 9378371
-0.209824 -0.049643 0.695000 9516849
-0.210428 -0.045803 0.697000 7573590
-0.210730 -0.041880 0.698000 5136712
-0.211333 -0.038000 0.700000 4281144
-0.211635 -0.034049 0.701000 2700588
-0.212541 -0.030171 0.704000 7156763
-0.212541 -0.026149 0.704000 8012328
-0.212843 -0.022157 0.705000 8602435
-0.213749 -0.018206 0.708000 8328753
-0.214654 -0.014220 0.711000 8325656
-0.215258 -0.010186 0.713000 9048086
-0.215258 -0.006111 0.713000 10441500
-0.216164 -0.002046 0.716000 10840867
-0.216164 0.002046 0.716000 10200386
-0.205200 -0.091851 0.684000 8001326
-0.205800 -0.088200 0.686000 10751019
-0.206100 -0.084403 0.687000 12610874
-0.206700 -0.080711 0.689000 13927503
-0.207000 -0.076886 0.690000 11750929
-0.207300 -0.073049 0.691000 12471881
-0.208200 -0.069400 0.694000 13335809
-0.208200 -0.065434 0.694000 14144639
-0.208500 -0.061557 0.695000 15257958
-0.209100 -0.057751 0.697000 14084233
-0.209400 -0.053846 0.698000 10109035
-0.209100 -0.049786 0.697000 10001750
-0.209400 -0.045869 0.698000 7502160
-0.210000 -0.042000 0.700000 6380360
-0.210300 -0.038054 0.701000 4414002
-0.210300 -0.034049 0.701000 5648935
-0.211200 -0.030171 0.704000 8263948
-0.211500 -0.026186 0.705000 9318167
-0.212100 -0.022220 0.707000 9187128
-0.213000 -0.018257 0.710000 8850473
-0.213900 -0.014260 0.713000 8718874
-0.214200 -0.010200 0.714000 9045020
-0.214200 -0.006120 0.714000 10974007
-0.215100 -0.002049 0.717000 9985828
-0.215100 0.002049 0.717000 9737290
-0.203897 -0.091851 0.684000 5179692
-0.204493 -0.088200 0.686000 10884126
-0.204791 -0.084403 0.687000 13278513
-0.205388 -0.080711 0.689000 13934417
-0.205984 -0.076997 0.691000 11141404
-0.206580 -0.073260 0.693000 10366536
-0.207176 -0.069500 0.695000 13998681
-0.207176 -0.065529 0.695000 13936217
-0.208070 -0.061823 0.698000 14797399
-0.208667 -0.058000 0.700000 15381073
-0.208667 -0.054000 0.700000 10895711
-0.208667 -0.050000 0.700000 10391386
-0.208965 -0.046066 0.701000 7426636
-0.208965 -0.042060 0.701000 7621689
-0.209561 -0.038163 0.703000 4546106
-0.209859 -0.034194 0.704000 8529958
-0.210157 -0.030214 0.705000 9306389
-0.210753 -0.026260 0.707000 10573643
-0.211648 -0.022314 0.710000 9775675
-0.211946 -0.018283 0.711000 9308969
-0.212840 -0.014280 0.714000 9177629
-0.212840 -0.010200 0.714000 8980513
-0.213436 -0.006137 0.716000 11435561
-0.214330 -0.002054 0.719000 9137431
-0.203483 -0.088329 0.687000 6882064
-0.204075 -0.084649 0.689000 12023847
-0.204371 -0.080829 0.690000 13155923
-0.204668 -0.076997 0.691000 10551591
-0.205852 -0.073471 0.695000 12069190
-0.206741 -0.069800 0.698000 13672112
-0.206741 -0.065811 0.698000 13789748
-0.207630 -0.062089 0.701000 13999175
-0.207630 -0.058083 0.701000 13215257
-0.207630 -0.054077 0.701000 10186579
-0.207630 -0.050071 0.701000 10252126
-0.208222 -0.046197 0.703000 8924999
-0.208222 -0.042180 0.703000 8861994
-0.208222 -0.038163 0.703000 6254146
-0.208518 -0.034194 0.704000 9244964
-0.209407 -0.030300 0.707000 10959134
-0.209703 -0.026297 0.708000 12360320
-0.210295 -0.022314 0.710000 10172733
-0.211184 -0.018334 0.713000 9505321
-0.211480 -0.014280 0.714000 9374239
-0.211480 -0.010200 0.714000 9306405
-0.212072 -0.006137 0.716000 11170331
-0.212961 -0.002054 0.719000 9531146
-0.202174 -0.088329 0.687000 2885391
-0.202763 -0.084649 0.689000 10765588
-0.203351 -0.080946 0.691000 12340269
-0.204529 -0.077443 0.695000 10027284
-0.205411 -0.073789 0.698000 13729135
-0.206000 -0.070000 0.700000 13281881
-0.206000 -0.066000 0.700000 13603900
-0.206883 -0.062266 0.703000 13202763
-0.206883 -0.058249 0.703000 11038512
-0.206883 -0.054231 0.703000 9537096
-0.206883 -0.050214 0.703000 10107207
-0.207177 -0.046263 0.704000 10428737
-0.207471 -0.042300 0.705000 10112060
-0.208060 -0.038380 0.707000 7962706
-0.208060 -0.034340 0.707000 9906482
-0.208354 -0.030343 0.708000 12616289
-0.208943 -0.026371 0.710000 14068123
-0.209237 -0.022346 0.711000 10635075
-0.209826 -0.018334 0.713000 9636909
-0.210709 -0.014320 0.716000 9636896
-0.210709 -0.010229 0.716000 9638427
-0.211003 -0.006146 0.717000 10902824
-0.211886 -0.002057 0.720000 9860890
-0.201450 -0.084649 0.689000 6165761
-0.202035 -0.080946 0.691000 10486023
-0.203205 -0.077443 0.695000 12011777
-0.204959 -0.074106 0.701000 14269848
-0.204959 -0.070100 0.701000 13603841
-0.205544 -0.066283 0.703000 13417283
-0.205836 -0.062354 0.704000 12288590
-0.205836 -0.058331 0.704000 9718087
-0.206129 -0.054386 0.705000 9845820
-0.206129 -0.050357 0.705000 10432049
-0.206129 -0.046329 0.705000 10627643
-0.206713 -0.042420 0.707000 10841422
-0.206713 -0.038380 0.707000 9203297
-0.207006 -0.034389 0.708000 12083521
-0.207590 -0.030429 0.710000 13739427
-0.207883 -0.026409 0.711000 14007479
-0.208468 -0.022409 0.713000 10631240
-0.208760 -0.018360 0.714000 9965872
-0.209345 -0.014320 0.716000 9833505
-0.209345 -0.010229 0.716000 9901328
-0.210222 -0.006163 0.719000 10432309
-0.210514 -0.002057 0.720000 11570218
-0.202462 -0.077666 0.697000 14058794
-0.203624 -0.074106 0.701000 14793090
-0.204205 -0.070300 0.703000 13869599
-0.204495 -0.066377 0.704000 13210192
-0.204786 -0.062443 0.705000 11378254
-0.205367 -0.058580 0.707000 8400450
-0.205367 -0.054540 0.707000 10226733
-0.205657 -0.050571 0.708000 10758710
-0.205657 -0.046526 0.708000 10827332
-0.206238 -0.042600 0.710000 11499337
-0.206238 -0.038543 0.710000 10445906
-0.206238 -0.034486 0.710000 14193259
-0.206529 -0.030471 0.711000 14924456
-0.207110 -0.026483 0.713000 13934477
-0.207400 -0.022440 0.714000 10618426
-0.208271 -0.018437 0.717000 10296621
-0.208852 -0.014380 0.719000 10031409
-0.208852 -0.010271 0.719000 10105634
-0.209143 -0.006171 0.720000 10050875
-0.209724 -0.002063 0.722000 13276732
-0.201134 -0.077666 0.697000 11044691
-0.202866 -0.074317 0.703000 15118957
-0.202866 -0.070300 0.703000 13736764
-0.203443 -0.066471 0.705000 12948828
-0.204020 -0.062620 0.707000 10832717
-0.204309 -0.058663 0.708000 9638462
-0.204886 -0.054771 0.710000 10292510
-0.204886 -0.050714 0.710000 10757180
-0.204886 -0.046657 0.710000 11354957
-0.205174 -0.042660 0.711000 11962437
-0.206040 -0.038760 0.714000 10902083
-0.206040 -0.034680 0.714000 14268309
-0.206617 -0.030686 0.716000 14265772
-0.206617 -0.026594 0.716000 12880995
-0.206617 -0.022503 0.716000 10622763
-0.207483 -0.018489 0.719000 10498091
-0.207771 -0.014400 0.720000 10562624
-0.207771 -0.010286 0.720000 11695156
-0.208349 -0.006189 0.722000 11172160
-0.208349 -0.002063 0.722000 12299599
-0.201527 -0.074317 0.703000 15376695
-0.201813 -0.070400 0.704000 13541454
-0.202673 -0.066660 0.707000 12678734
-0.202673 -0.062620 0.707000 10355012
-0.202960 -0.058663 0.708000 10887215
-0.203533 -0.054771 0.710000 10355492
-0.203820 -0.050786 0.711000 10755632
-0.204393 -0.046854 0.713000 11944270
-0.204393 -0.042780 0.713000 12425285
-0.205253 -0.038869 0.716000 11404100
-0.205540 -0.034826 0.717000 14323303
-0.206113 -0.030814 0.719000 13602396
-0.205540 -0.026631 0.717000 11746113
-0.205540 -0.022534 0.717000 10559275
-0.206400 -0.018514 0.720000 10694960
-0.206400 -0.014400 0.720000 11151675
-0.206400 -0.010286 0.720000 13203503
-0.206973 -0.006189 0.722000 12353598
-0.207260 -0.002066 0.723000 11234867
-0.200188 -0.074317 0.703000 7824897
-0.200472 -0.070400 0.704000 11704927
-0.201327 -0.066660 0.707000 11288896
-0.201327 -0.062620 0.707000 10625594
-0.202181 -0.058829 0.710000 11023905
-0.203035 -0.055003 0.713000 11418665
-0.203035 -0.050929 0.713000 11083301
-0.203320 -0.046920 0.714000 11086670
-0.203890 -0.042960 0.716000 11311685
-0.204174 -0.038923 0.717000 10888772
-0.205029 -0.034971 0.720000 12212280
-0.205029 -0.030857 0.720000 11480844
-0.205029 -0.026743 0.720000 10682656
-0.204174 -0.022534 0.717000 10427691
-0.205598 -0.018566 0.722000 10892342
-0.205598 -0.014440 0.722000 11285045
-0.205883 -0.010329 0.723000 12811562
-0.205883 -0.006197 0.723000 12092988
-0.205883 -0.002066 0.723000 5786136
-0.198849 -0.074317 0.703000 203272
-0.199414 -0.070500 0.705000 9862448
-0.200263 -0.066754 0.708000 9837096
-0.200263 -0.062709 0.708000 10957110
-0.201111 -0.058911 0.711000 11094816
-0.201677 -0.055003 0.713000 12485184
-0.201960 -0.051000 0.714000 11360574
-0.202526 -0.047051 0.716000 10226492
-0.202809 -0.043020 0.717000 10177333
-0.203374 -0.039031 0.719000 10358066
-0.204223 -0.035069 0.722000 10101027
-0.204506 -0.030986 0.723000 9371930
-0.204506 -0.026854 0.723000 9641542
-0.204223 -0.022691 0.722000 10292290
-0.204223 -0.018566 0.722000 11087933
-0.204506 -0.014460 0.723000 11487815
-0.205354 -0.010371 0.726000 12419113
-0.205071 -0.006214 0.725000 11899998
-0.198071 -0.070500 0.705000 5513985
-0.199476 -0.066943 0.710000 6423313
-0.199476 -0.062886 0.710000 8723506
-0.199757 -0.058911 0.711000 11694367
-0.200600 -0.055080 0.714000 13605974
-0.201162 -0.051143 0.716000 13341782
-0.201443 -0.047117 0.717000 11550506
-0.202005 -0.043140 0.719000 9830692
-0.202848 -0.039194 0.722000 10230303
-0.202848 -0.035069 0.722000 9831694
-0.203690 -0.031071 0.725000 10431271
-0.203971 -0.026966 0.726000 11889515
-0.203971 -0.022817 0.726000 11813720
-0.203971 -0.018669 0.726000 11087428
-0.203971 -0.014520 0.726000 12152408
-0.204533 -0.010400 0.728000 12946216
-0.203971 -0.006223 0.726000 9340800
-0.196729 -0.070500 0.705000 1183039
-0.198403 -0.067037 0.711000 3018272
-0.198124 -0.062886 0.710000 6426651
-0.198961 -0.059077 0.713000 12274708
-0.199240 -0.055080 0.714000 14722092
-0.199798 -0.051143 0.716000 15248471
-0.200635 -0.047249 0.719000 12881000
-0.200914 -0.043200 0.720000 9457214
-0.201751 -0.039249 0.723000 10099510
-0.202310 -0.035214 0.725000 9574944
-0.202589 -0.031114 0.726000 11554123
-0.203147 -0.027040 0.728000 14135398
-0.203147 -0.022880 0.728000 13347963
-0.203147 -0.018720 0.728000 11039074
-0.202589 -0.014520 0.726000 12754274
-0.203426 -0.010414 0.729000 13410632
-0.202589 -0.006223 0.726000 6713921
-0.197049 -0.067037 0.711000 4785967
-0.196771 -0.062886 0.710000 3868164
-0.197603 -0.059077 0.713000 6357257
-0.197880 -0.055080 0.714000 10053634
-0.198434 -0.051143 0.716000 13485400
-0.199543 -0.047314 0.720000 14073510
-0.200097 -0.043320 0.722000 12297304
-0.200929 -0.039357 0.725000 11882573
-0.200929 -0.035214 0.725000 11488562
-0.201760 -0.031200 0.728000 13476206
-0.202591 -0.027151 0.731000 14934370
-0.202591 -0.022974 0.731000 14340253
-0.202037 -0.018746 0.729000 12956289
-0.201760 -0.014560 0.728000 13739884
-0.202037 -0.010414 0.729000 11318888
-0.201760 -0.006240 0.728000 4075521
-0.195419 -0.062886 0.710000 1311561
-0.196245 -0.059077 0.713000 394024
-0.198171 -0.051429 0.720000 11628589
-0.198997 -0.047511 0.723000 15251315
-0.198997 -0.043380 0.723000 15049292
-0.199823 -0.039411 0.726000 13666415
-0.199823 -0.035263 0.726000 13405791
-0.200373 -0.031200 0.728000 15454314
-0.201199 -0.027151 0.731000 15715694
-0.201199 -0.022974 0.731000 15322261
-0.200649 -0.018746 0.729000 14852197
-0.200649 -0.014580 0.729000 14725216
-0.201199 -0.010443 0.731000 9132599
-0.200649 -0.006249 0.729000 1442071
-0.196800 -0.051429 0.720000 6291714
-0.198440 -0.047709 0.726000 7883839
-0.198440 -0.043560 0.726000 10521152
-0.198987 -0.039520 0.728000 12030864
-0.198987 -0.035360 0.728000 12631692
-0.199260 -0.031243 0.729000 13741669
-0.199807 -0.027151 0.731000 14006138
-0.200080 -0.023006 0.732000 13611404
-0.200080 -0.018823 0.732000 12493386
-0.199260 -0.014580 0.729000 8936019
-0.199807 -0.010443 0.731000 4984326
-0.197057 -0.047709 0.726000 524601
-0.197057 -0.043560 0.726000 5976100
-0.197600 -0.039520 0.728000 10316617
-0.197057 -0.035263 0.726000 11758407
-0.197871 -0.031243 0.729000 12026677
-0.199229 -0.027263 0.734000 12216382
-0.199771 -0.023131 0.736000 11893319
-0.199229 -0.018874 0.734000 10112806
-0.197871 -0.014580 0.729000 3146033
-0.195674 -0.043560 0.726000 3801352
-0.196213 -0.039520 0.728000 5512193
-0.196213 -0.035360 0.728000 6095105
-0.196483 -0.031243 0.729000 6234628
-0.198639 -0.027374 0.737000 6619393
-0.199178 -0.023226 0.739000 6299649
-0.197830 -0.018874 0.734000 5832961
-0.196483 -0.014580 0.729000 3280142
-0.194827 -0.039520 0.728000 655671
-0.195094 -0.035409 0.729000 393760
-0.195094 -0.031243 0.729000 459023
-0.197235 -0.027374 0.737000 984323
-0.197770 -0.023226 0.739000 721420
-0.196432 -0.018874 0.734000 1510412
-0.195630 -0.014620 0.731000 3416592
-0.193706 -0.035409 0.729000 4195135
-0.193706 -0.031243 0.729000 2232089
-0.195831 -0.027374 0.737000 1510406
-0.196363 -0.023226 0.739000 1313814
-0.195831 -0.018951 0.737000 1776151
-0.192317 -0.035409 0.729000 8020591
-0.256189 -0.147354 0.642000 8062531
-0.254991 -0.143014 0.639000 7995659
-0.253794 -0.138709 0.636000 8396293
-0.256189 -0.129011 0.642000 11706540
-0.254966 -0.147354 0.642000 8323370
-0.253377 -0.142790 0.638000 8062228
-0.252583 -0.138709 0.636000 7145495
-0.253377 -0.135499 0.638000 6295843
-0.254966 -0.132680 0.642000 7340360
-0.254966 -0.129011 0.642000 10180952
-0.255760 -0.125733 0.644000 12360571
-0.252952 -0.146895 0.640000 8257809
-0.250976 -0.142119 0.635000 7930653
-0.250976 -0.138490 0.635000 7144744
-0.252162 -0.135499 0.638000 6620174
-0.253348 -0.132473 0.641000 7013644
-0.253743 -0.129011 0.642000 8193795
-0.254929 -0.125929 0.645000 9325098
-0.250947 -0.146436 0.638000 8257808
-0.249373 -0.141895 0.634000 7799574
-0.249767 -0.138490 0.635000 7209755
-0.250160 -0.135074 0.636000 6948111
-0.251733 -0.132267 0.640000 6687763
-0.252520 -0.129011 0.642000 6228755
-0.253307 -0.125733 0.644000 6292256
-0.254880 -0.122811 0.648000 8008003
-0.258420 -0.094483 0.657000 5781314
-0.248557 -0.145748 0.635000 8389134
-0.247774 -0.141671 0.633000 7799822
-0.248166 -0.138272 0.634000 7209742
-0.248949 -0.135074 0.636000 6817041
-0.250906 -0.132473 0.641000 6686746
-0.251297 -0.129011 0.642000 6423331
-0.252080 -0.125733 0.644000 6489109
-0.253254 -0.122622 0.647000 7209218
-0.253646 -0.119109 0.648000 6956035
-0.257169 -0.094483 0.657000 3671566
-0.257560 -0.090867 0.658000 3938567
-0.260691 -0.076749 0.666000 4593665
-0.261866 -0.073271 0.669000 4915458
-0.247737 -0.145977 0.636000 8585488
-0.246958 -0.141895 0.634000 7799566
-0.246958 -0.138272 0.634000 7209999
-0.247348 -0.134862 0.635000 6685968
-0.248906 -0.132060 0.639000 6620952
-0.249685 -0.128810 0.641000 6620441
-0.250853 -0.125733 0.644000 6686485
-0.251632 -0.122432 0.646000 6424587
-0.252411 -0.119109 0.648000 5249558
-0.252411 -0.115406 0.648000 2363928
-0.255917 -0.094483 0.657000 1511704
-0.257086 -0.091143 0.660000 1577491
-0.259423 -0.076749 0.666000 723214
-0.260981 -0.073381 0.670000 919313
-0.246526 -0.145977 0.636000 8586002
-0.245750 -0.141895 0.634000 7799055
-0.245363 -0.138054 0.633000 7209999
-0.246138 -0.134862 0.635000 6685968
-0.247689 -0.132060 0.639000 6555157
-0.248464 -0.128810 0.641000 6555150
-0.249627 -0.125733 0.644000 6489621
-0.250402 -0.122432 0.646000 6162709
-0.251177 -0.119109 0.648000 5640233
-0.251177 -0.115406 0.648000 2032684
-0.251177 -0.111703 0.648000 2102060
-0.251177 -0.108000 0.648000 2037285
-0.255053 -0.102147 0.658000 2167328
-0.254278 -0.094339 0.656000 1774881
-0.255053 -0.090867 0.658000 1773598
-0.255829 -0.087371 0.660000 1970465
-0.256604 -0.083853 0.662000 1642272
-0.256604 -0.080070 0.662000 1512225
-0.257767 -0.076633 0.665000 1379610
-0.258154 -0.072943 0.666000 1445664
-0.258154 -0.061526 0.666000 1313294
-0.260092 -0.058153 0.671000 1377035
-0.261643 -0.050786 0.675000 2949377
-0.261255 -0.046859 0.674000 3870977
-0.245314 -0.145977 0.636000 8651026
-0.244157 -0.141671 0.633000 7733520
-0.244157 -0.138054 0.633000 7275022
-0.244543 -0.134650 0.634000 6685965
-0.246086 -0.131853 0.638000 6423826
-0.246857 -0.128610 0.640000 6423822
-0.248400 -0.125733 0.644000 6292754
-0.248786 -0.122243 0.645000 5900049
-0.249943 -0.119109 0.648000 5965851
-0.249943 -0.115406 0.648000 1705763
-0.249943 -0.111703 0.648000 2230815
-0.251871 -0.108833 0.653000 2035484
-0.252643 -0.105424 0.655000 2165276
-0.252643 -0.101681 0.655000 2231575
-0.251871 -0.097639 0.653000 1968416
-0.252643 -0.094195 0.655000 1969432
-0.253800 -0.090867 0.658000 1969687
-0.254571 -0.087371 0.660000 2231832
-0.254957 -0.083727 0.661000 2034713
-0.254957 -0.079950 0.661000 1969946
-0.256500 -0.076633 0.665000 1969173
-0.256886 -0.072943 0.666000 1969431
-0.257271 -0.061618 0.667000 2363151
-0.258814 -0.058153 0.671000 2361871
-0.259200 -0.054400 0.672000 2625544
-0.260357 -0.050786 0.675000 1378569
-0.259971 -0.046859 0.674000 1050122
-0.259200 -0.042880 0.672000 590858
-0.243719 -0.145748 0.635000 8651538
-0.242951 -0.141671 0.633000 7733521
-0.242951 -0.138054 0.633000 7275020
-0.243335 -0.134650 0.634000 6685962
-0.244870 -0.131853 0.638000 6489358
-0.245254 -0.128409 0.639000 6423822
-0.246406 -0.125343 0.642000 6227470
-0.247173 -0.122053 0.644000 6096140
-0.248325 -0.118925 0.647000 6096908
-0.248709 -0.115406 0.648000 1705753
-0.248709 -0.111703 0.648000 1969169
-0.250244 -0.108667 0.652000 1707284
-0.250244 -0.104941 0.652000 1837584
-0.250628 -0.101370 0.653000 1837837
-0.250244 -0.097490 0.652000 1837589
-0.250628 -0.093908 0.653000 1706512
-0.252547 -0.090867 0.658000 1641488
-0.253314 -0.087371 0.660000 1968912
-0.253698 -0.083727 0.661000 1838097
-0.253698 -0.079950 0.661000 1706771
-0.254466 -0.076403 0.663000 1641231
-0.255233 -0.072833 0.665000 1837583
-0.255617 -0.065331 0.666000 2034703
-0.256001 -0.061618 0.667000 1969168
-0.257536 -0.058153 0.671000 2034963
-0.257920 -0.054400 0.672000 2166030
-0.258688 -0.050710 0.674000 1575953
-0.258688 -0.046859 0.674000 1378834
-0.258688 -0.043008 0.674000 1313298
-0.259455 -0.039272 0.676000 1116186
-0.260223 -0.035514 0.678000 1180421
-0.242128 -0.145518 0.634000 8651023
-0.241364 -0.141448 0.632000 7667983
-0.241746 -0.138054 0.633000 7340300
-0.241746 -0.134437 0.633000 6619914
-0.243655 -0.131853 0.638000 6489358
-0.244037 -0.128409 0.639000 6423563
-0.245183 -0.125343 0.642000 6227213
-0.245947 -0.122053 0.644000 6293005
-0.247092 -0.118925 0.647000 6227984
-0.247474 -0.115406 0.648000 1706262
-0.247474 -0.111703 0.648000 1772302
-0.248620 -0.108500 0.651000 1379346
-0.249002 -0.104941 0.652000 1509904
-0.249384 -0.101370 0.653000 1379598
-0.249002 -0.097490 0.652000 1706514
-0.249384 -0.093908 0.653000 1379345
-0.250530 -0.090590 0.656000 1313299
-0.251293 -0.087107 0.658000 1707023
-0.252057 -0.083600 0.660000 1640975
-0.252057 -0.079829 0.660000 1379346
-0.252821 -0.076288 0.662000 1378831
-0.253203 -0.072614 0.663000 1640973
-0.253967 -0.069033 0.665000 1641486
-0.254349 -0.065331 0.666000 1706765
-0.255494 -0.061803 0.669000 1640975
-0.256258 -0.058153 0.671000 1706769
-0.256640 -0.054400 0.672000 1707020
-0.257404 -0.050710 0.674000 1706767
-0.257404 -0.046859 0.674000 1706764
-0.257404 -0.043008 0.674000 1968399
-0.259313 -0.039447 0.679000 1903383
-0.259695 -0.035619 0.680000 2099722
-0.260459 -0.031827 0.682000 1706248
-0.241680 -0.145977 0.636000 8717067
-0.240540 -0.141671 0.633000 7667981
-0.240540 -0.138054 0.633000 7340300
-0.240540 -0.134437 0.633000 6619658
-0.242440 -0.131853 0.638000 6554637
-0.242820 -0.128409 0.639000 6423560
-0.243960 -0.125343 0.642000 6358028
-0.244720 -0.122053 0.644000 6293006
-0.245480 -0.118741 0.646000 6227732
-0.245860 -0.115228 0.647000 1968915
-0.246240 -0.111703 0.648000 1641226
-0.247380 -0.108500 0.651000 1575697
-0.247380 -0.104780 0.651000 1444623
-0.247760 -0.101215 0.652000 1379599
-0.247760 -0.097490 0.652000 1510158
-0.248140 -0.093908 0.653000 1314066
-0.249280 -0.090590 0.656000 1248021
-0.249660 -0.086974 0.657000 1444623
-0.250800 -0.083600 0.660000 1444621
-0.250800 -0.079829 0.660000 1313808
-0.251180 -0.076172 0.661000 1248014
-0.251940 -0.072614 0.663000 1444107
-0.252700 -0.069033 0.665000 1641229
-0.252700 -0.065233 0.665000 1641740
-0.253460 -0.061618 0.667000 1510158
-0.254600 -0.058067 0.670000 1640718
-0.255360 -0.054400 0.672000 1640969
-0.256120 -0.050710 0.674000 1640718
-0.256120 -0.046859 0.674000 1509893
-0.256120 -0.043008 0.674000 1771276
-0.257640 -0.039389 0.678000 1575443
-0.258400 -0.035619 0.680000 1837326
-0.258400 -0.031733 0.680000 1706255
-0.259160 -0.027930 0.682000 1247759
-0.259540 -0.024068 0.683000 1050145
-0.259920 -0.020194 0.684000 2687234
-0.239712 -0.145518 0.634000 8716554
-0.239334 -0.141671 0.633000 7667980
-0.239334 -0.138054 0.633000 7340300
-0.239712 -0.134650 0.634000 6619657
-0.240090 -0.131233 0.635000 6619920
-0.241225 -0.128208 0.638000 6358027
-0.242359 -0.125148 0.641000 6488843
-0.242737 -0.121674 0.642000 6227212
-0.244250 -0.118741 0.646000 6161423
-0.244628 -0.115228 0.647000 2230801
-0.245006 -0.111703 0.648000 1575436
-0.246140 -0.108500 0.651000 1772303
-0.246140 -0.104780 0.651000 1378831
-0.246518 -0.101215 0.652000 1314061
-0.246518 -0.097490 0.652000 1313038
-0.246896 -0.093908 0.653000 1248017
-0.248030 -0.090590 0.656000 1248274
-0.248409 -0.086974 0.657000 1182733
-0.248787 -0.083347 0.658000 1182730
-0.248787 -0.079587 0.658000 1248014
-0.249543 -0.076057 0.660000 1181966
-0.250299 -0.072505 0.662000 1182476
-0.250677 -0.068826 0.663000 1575950
-0.251811 -0.065331 0.666000 1575693
-0.252190 -0.061618 0.667000 1379342
-0.252946 -0.057980 0.669000 1509902
-0.253702 -0.054319 0.671000 1509643
-0.254836 -0.050710 0.674000 1509646
-0.254836 -0.046859 0.674000 1378825
-0.255592 -0.043135 0.676000 1509644
-0.256727 -0.039447 0.679000 1247504
-0.256727 -0.035567 0.679000 1575438
-0.257105 -0.031733 0.680000 1771790
-0.257861 -0.027930 0.682000 1903115
-0.258239 -0.024068 0.683000 1837591
-0.259373 -0.020253 0.686000 2689034
-0.238129 -0.145289 0.633000 8716809
-0.238505 -0.141895 0.634000 7733515
-0.238505 -0.138272 0.634000 7274763
-0.238505 -0.134650 0.634000 6423048
-0.239257 -0.131440 0.636000 6488850
-0.240010 -0.128208 0.638000 6423310
-0.241138 -0.125148 0.641000 6357769
-0.241514 -0.121674 0.642000 6161419
-0.242643 -0.118557 0.645000 6292746
-0.243395 -0.115228 0.647000 2362127
-0.243771 -0.111703 0.648000 1444366
-0.244900 -0.108500 0.651000 1444110
-0.244900 -0.104780 0.651000 1248014
-0.245276 -0.101215 0.652000 1248267
-0.245276 -0.097490 0.652000 1182222
-0.245276 -0.093764 0.652000 1379088
-0.246405 -0.090452 0.655000 1182734
-0.247157 -0.086974 0.657000 1182475
-0.247533 -0.083347 0.658000 1182470
-0.247533 -0.079587 0.658000 1116684
-0.248286 -0.076057 0.660000 1248013
-0.248662 -0.072395 0.661000 1116941
-0.249414 -0.068826 0.663000 1379342
-0.250167 -0.065233 0.665000 1575182
-0.250919 -0.061618 0.667000 1248014
-0.251671 -0.057980 0.669000 1509645
-0.252424 -0.054319 0.671000 1575437
-0.253552 -0.050710 0.674000 1640974
-0.253552 -0.046859 0.674000 1378829
-0.254305 -0.043135 0.676000 1509645
-0.255433 -0.039447 0.679000 1378317
-0.255433 -0.035567 0.679000 1640718
-0.256562 -0.031827 0.682000 1575437
-0.256938 -0.027970 0.683000 1575431
-0.256938 -0.024068 0.683000 1575437
-0.258067 -0.020253 0.686000 2034194
-0.259571 -0.016429 0.690000 1116690
-0.259948 -0.012504 0.691000 1573903
-0.237297 -0.145518 0.634000 8782088
-0.237297 -0.141895 0.634000 7733518
-0.236923 -0.138054 0.633000 7274763
-0.237297 -0.134650 0.634000 6226438
-0.238046 -0.131440 0.636000 6357772
-0.239169 -0.128409 0.639000 6423306
-0.239917 -0.125148 0.641000 6292234
-0.239917 -0.121485 0.641000 6095628
-0.241414 -0.118557 0.645000 6357770
-0.242163 -0.115228 0.647000 2492686
-0.242537 -0.111703 0.648000 1313035
-0.243660 -0.108500 0.651000 1116686
-0.243660 -0.104780 0.651000 1116685
-0.244034 -0.101215 0.652000 1116683
-0.244034 -0.097490 0.652000 1051405
-0.244034 -0.093764 0.652000 1444111
-0.245157 -0.090452 0.655000 1116942
-0.245531 -0.086842 0.656000 1116683
-0.245906 -0.083220 0.657000 1116678
-0.246280 -0.079587 0.658000 920075
-0.246280 -0.075827 0.658000 1313803
-0.247029 -0.072286 0.660000 985612
-0.247777 -0.068722 0.662000 1182734
-0.248900 -0.065233 0.665000 1510156
-0.249649 -0.061618 0.667000 1182222
-0.250397 -0.057980 0.669000 1509902
-0.251520 -0.054400 0.672000 1706509
-0.252269 -0.050710 0.674000 1706257
-0.252643 -0.046929 0.675000 1378577
-0.253017 -0.043135 0.676000 1509650
-0.254140 -0.039447 0.679000 1574929
-0.254140 -0.035567 0.679000 1640722
-0.255263 -0.031827 0.682000 1378832
-0.255637 -0.027970 0.683000 1248011
-0.255637 -0.024068 0.683000 1379342
-0.257134 -0.020283 0.687000 1313806
-0.258257 -0.016429 0.690000 1444621
-0.258257 -0.012486 0.690000 2099727
-0.236462 -0.145748 0.635000 8716807
-0.236090 -0.141895 0.634000 7799058
-0.236090 -0.138272 0.634000 7274763
-0.236090 -0.134650 0.634000 6357509
-0.236834 -0.131440 0.636000 6357765
-0.237579 -0.128208 0.638000 6357767
-0.238324 -0.124952 0.640000 6226698
-0.239069 -0.121674 0.642000 6160910
-0.240186 -0.118557 0.645000 6292490
-0.240558 -0.115050 0.646000 2623758
-0.241303 -0.111703 0.648000 1247239
-0.241303 -0.108000 0.648000 1116941
-0.242048 -0.104619 0.650000 1116940
-0.242420 -0.101060 0.651000 1051147
-0.242792 -0.097490 0.652000 985612
-0.243165 -0.093908 0.653000 1247502
-0.243910 -0.090452 0.655000 1116685
-0.243910 -0.086710 0.655000 1050891
-0.244654 -0.083220 0.657000 1116677
-0.245027 -0.079587 0.658000 985355
-0.245027 -0.075827 0.658000 1182472
-0.245027 -0.072067 0.658000 1051147
-0.246516 -0.068722 0.662000 1379085
-0.248006 -0.065331 0.666000 1772299
-0.248378 -0.061618 0.667000 1444110
-0.249123 -0.057980 0.669000 1181967
-0.250240 -0.054400 0.672000 1312781
-0.250985 -0.050710 0.674000 1443092
-0.250985 -0.046859 0.674000 1246741
-0.251730 -0.043135 0.676000 1378328
-0.252847 -0.039447 0.679000 1246997
-0.252847 -0.035567 0.679000 1247255
-0.253964 -0.031827 0.682000 1050642
-0.254336 -0.027970 0.683000 1575438
-0.254336 -0.024068 0.683000 1510414
-0.255826 -0.020283 0.687000 1510922
-0.256943 -0.016429 0.690000 1444616
-0.257315 -0.012504 0.691000 1902863
-0.258432 -0.008592 0.694000 1969165
-0.237846 -0.151023 0.642000 11290972
-0.235252 -0.145748 0.635000 8716553
-0.234882 -0.141895 0.634000 7864594
-0.234511 -0.138054 0.633000 7340300
-0.234511 -0.134437 0.633000 6488582
-0.235623 -0.131440 0.636000 6357512
-0.236734 -0.128409 0.639000 6292233
-0.237105 -0.124952 0.640000 6226698
-0.237846 -0.121674 0.642000 6226698
-0.238587 -0.118373 0.644000 6161164
-0.239328 -0.115050 0.646000 2688781
-0.239698 -0.111530 0.647000 1247243
-0.240069 -0.108000 0.648000 1116941
-0.240069 -0.104297 0.648000 1116940
-0.241180 -0.101060 0.651000 985355
-0.241921 -0.097639 0.653000 985358
-0.241550 -0.093764 0.652000 985358
-0.241921 -0.090176 0.653000 1051148
-0.242662 -0.086710 0.655000 919819
-0.243403 -0.083220 0.657000 1050889
-0.243403 -0.079466 0.657000 985358
-0.243773 -0.075827 0.658000 1116937
-0.243773 -0.072067 0.658000 1116685
-0.245255 -0.068722 0.662000 1640974
-0.246737 -0.065331 0.666000 1968144
-0.247108 -0.061618 0.667000 1771027
-0.247849 -0.057980 0.669000 788494
-0.248960 -0.054400 0.672000 983817
-0.249701 -0.050710 0.674000 1115919
-0.250071 -0.046929 0.675000 1114385
-0.251183 -0.043263 0.678000 1247251
-0.251553 -0.039447 0.679000 984079
-0.251553 -0.035567 0.679000 789521
-0.252665 -0.031827 0.682000 656651
-0.253035 -0.027970 0.683000 1836808
-0.253406 -0.024103 0.684000 1707017
-0.254517 -0.020283 0.687000 1641745
-0.255629 -0.016429 0.690000 1444107
-0.255999 -0.012504 0.691000 1640975
-0.257110 -0.008592 0.694000 1772042
-0.257110 -0.004627 0.694000 2625039
-0.257481 -0.000662 0.695000 2888198
-0.236623 -0.151023 0.642000 11159903
-0.234411 -0.145977 0.636000 8782347
-0.233674 -0.141895 0.634000 7930130
-0.233306 -0.138054 0.633000 7471373
-0.233306 -0.134437 0.633000 6619911
-0.234043 -0.131233 0.635000 6423306
-0.235517 -0.128409 0.639000 6292234
-0.235886 -0.124952 0.640000 6226698
-0.236623 -0.121674 0.642000 6161158
-0.237360 -0.118373 0.644000 6161422
-0.237729 -0.114871 0.645000 2557708
-0.238466 -0.111530 0.647000 1313038
-0.238834 -0.108000 0.648000 1116940
-0.238834 -0.104297 0.648000 1050891
-0.239571 -0.100905 0.650000 985355
-0.240309 -0.097490 0.652000 1050896
-0.240309 -0.093764 0.652000 985358
-0.240677 -0.090176 0.653000 985355
-0.241414 -0.086710 0.655000 1050891
-0.242151 -0.083220 0.657000 1181964
-0.242151 -0.079466 0.657000 1115920
-0.242520 -0.075827 0.658000 1247753
-0.243257 -0.072286 0.660000 920078
-0.244363 -0.068826 0.663000 1378318
-0.245469 -0.065331 0.666000 2098197
-0.246574 -0.061803 0.669000 3082263
-0.246574 -0.057980 0.669000 3541774
-0.247311 -0.054319 0.671000 4197380
-0.248417 -0.050710 0.674000 4527371
