# .PCD v.7 - Point Cloud Data file format
VERSION .7
FIELDS x y z rgb
SIZE 4 4 4 4
TYPE F F F I
COUNT 1 1 1 1
WIDTH 1285
HEIGHT 1
POINTS 1285
DATA ascii
-0.252014 -0.165818 0.767000 10104662
-0.252343 -0.161646 0.768000 10496310
-0.253000 -0.157667 0.770000 10567228
-0.253657 -0.153665 0.772000 9997391
-0.254643 -0.149833 0.775000 8683108
-0.255300 -0.145780 0.777000 9775950
-0.255957 -0.141704 0.779000 7235407
-0.256286 -0.137429 0.780000 7636575
-0.257600 -0.133653 0.784000 10561585
-0.258257 -0.129503 0.786000 13873003
-0.258257 -0.125011 0.786000 12354956
-0.259243 -0.120980 0.789000 10831691
-0.259900 -0.116767 0.791000 11159624
-0.261214 -0.112814 0.795000 11819073
-0.261871 -0.108544 0.797000 11689030
-0.261871 -0.103990 0.797000 10660476
-0.242387 -0.215533 0.742000 2233649
-0.241733 -0.210724 0.740000 2497061
-0.242387 -0.207053 0.742000 2233628
-0.244020 -0.204180 0.747000 3605527
-0.245980 -0.201517 0.753000 10708892
-0.245653 -0.196952 0.752000 12351113
-0.245653 -0.192655 0.752000 12553678
-0.246633 -0.189110 0.755000 11359674
-0.246960 -0.185040 0.756000 9972266
-0.247613 -0.181198 0.758000 12756801
-0.248267 -0.177333 0.760000 11896932
-0.249247 -0.173673 0.763000 11685414
-0.250553 -0.170201 0.767000 12486190
-0.250880 -0.166034 0.768000 9830745
-0.251533 -0.162067 0.770000 10495534
-0.252187 -0.158076 0.772000 10696509
-0.252513 -0.153864 0.773000 10116128
-0.253167 -0.149833 0.775000 8099439
-0.253820 -0.145780 0.777000 8475483
-0.254800 -0.141886 0.780000 7044176
-0.255453 -0.137781 0.782000 7563616
-0.256107 -0.133653 0.784000 10563135
-0.256760 -0.129503 0.786000 13802851
-0.257413 -0.125330 0.788000 12223880
-0.258393 -0.121287 0.791000 10760780
-0.259047 -0.117062 0.793000 11161678
-0.260353 -0.113098 0.797000 11490373
-0.260353 -0.108544 0.797000 9962050
-0.260680 -0.104120 0.798000 10056559
-0.240973 -0.215533 0.742000 1968684
-0.240324 -0.210724 0.740000 2758953
-0.240973 -0.207053 0.742000 2430244
-0.245195 -0.206367 0.755000 2165532
-0.244546 -0.201517 0.753000 10843221
-0.245195 -0.197738 0.755000 10967396
-0.244221 -0.192655 0.752000 12146841
-0.246170 -0.189861 0.758000 11105174
-0.246170 -0.185530 0.758000 10027310
-0.246819 -0.181676 0.760000 13344326
-0.247144 -0.177567 0.761000 10903096
-0.249092 -0.174584 0.767000 12222519
-0.249417 -0.170423 0.768000 11957555
-0.250067 -0.166467 0.770000 9570609
-0.250716 -0.162488 0.772000 10494508
-0.250716 -0.158076 0.772000 10826547
-0.251690 -0.154262 0.775000 10169642
-0.252990 -0.150607 0.779000 7505764
-0.252990 -0.146155 0.779000 7175774
-0.253314 -0.141886 0.780000 6780760
-0.254613 -0.138133 0.784000 7502680
-0.255263 -0.133994 0.786000 10496064
-0.255912 -0.129832 0.788000 13736792
-0.255912 -0.125330 0.788000 12084335
-0.256237 -0.120980 0.789000 10693703
-0.257536 -0.117062 0.793000 11092552
-0.258835 -0.113098 0.797000 11095109
-0.258835 -0.108544 0.797000 8265799
-0.259160 -0.104120 0.798000 9471098
-0.243757 -0.206367 0.755000 2296354
-0.243111 -0.201517 0.753000 9184525
-0.243757 -0.197738 0.755000 10175295
-0.243757 -0.193424 0.755000 11228516
-0.244726 -0.189861 0.758000 10848115
-0.244726 -0.185530 0.758000 10299186
-0.245694 -0.181915 0.761000 13015627
-0.246986 -0.178500 0.765000 10902028
-0.247954 -0.174811 0.768000 12564041
-0.247954 -0.170423 0.768000 11829816
-0.248600 -0.166467 0.770000 9634569
-0.249246 -0.162488 0.772000 10165034
-0.249569 -0.158281 0.773000 10564138
-0.250214 -0.154262 0.775000 10167348
-0.251506 -0.150607 0.779000 8550744
-0.252474 -0.146718 0.782000 6784097
-0.252474 -0.142250 0.782000 6325344
-0.253766 -0.138486 0.786000 7302736
-0.254411 -0.134335 0.788000 10757441
-0.254411 -0.129832 0.788000 12481357
-0.254734 -0.125489 0.789000 11358038
-0.256671 -0.121900 0.795000 10693698
-0.256671 -0.117357 0.795000 10956611
-0.257317 -0.113098 0.797000 10892868
-0.257317 -0.108544 0.797000 9586508
-0.258286 -0.104381 0.800000 10257540
-0.242319 -0.206367 0.755000 2364200
-0.241677 -0.201517 0.753000 7538716
-0.242640 -0.198000 0.756000 9377578
-0.243282 -0.194192 0.758000 10308163
-0.243924 -0.190362 0.760000 10500668
-0.243924 -0.186019 0.760000 10622263
-0.244245 -0.181915 0.761000 12686920
-0.245529 -0.178500 0.765000 10898695
-0.246491 -0.174811 0.768000 12881741
-0.247133 -0.170867 0.770000 11704885
-0.247775 -0.166899 0.772000 9700101
-0.248096 -0.162698 0.773000 9899561
-0.248096 -0.158281 0.773000 10299178
-0.250022 -0.155058 0.779000 10235445
-0.250343 -0.150800 0.780000 9526613
-0.250985 -0.146718 0.782000 6391897
-0.251627 -0.142613 0.784000 5865048
-0.252269 -0.138486 0.786000 7110746
-0.252910 -0.134335 0.788000 11021894
-0.253231 -0.129997 0.789000 11291952
-0.253873 -0.125807 0.791000 10629436
-0.255799 -0.122207 0.797000 10759996
-0.255799 -0.117652 0.797000 10824779
-0.256120 -0.113240 0.798000 10693965
-0.256120 -0.108680 0.798000 10832713
-0.257404 -0.104642 0.802000 11045772
-0.240243 -0.201517 0.753000 5703722
-0.242476 -0.199048 0.760000 9702166
-0.241838 -0.194192 0.758000 9967650
-0.242476 -0.190362 0.760000 10092806
-0.242476 -0.186019 0.760000 11422524
-0.242795 -0.181915 0.761000 12947525
-0.244710 -0.178967 0.767000 10962689
-0.245029 -0.174811 0.768000 13272401
-0.245029 -0.170423 0.768000 10833713
-0.245667 -0.166467 0.770000 10027266
-0.246624 -0.162698 0.773000 9768231
-0.246624 -0.158281 0.773000 10165546
-0.247900 -0.154660 0.777000 9644085
-0.248538 -0.150607 0.779000 8279634
-0.248857 -0.146343 0.780000 5931345
-0.250133 -0.142613 0.784000 5336400
-0.250771 -0.138486 0.786000 6186851
-0.251410 -0.134335 0.788000 10105418
-0.251410 -0.129832 0.788000 10561298
-0.252367 -0.125807 0.791000 10556451
-0.254281 -0.122207 0.797000 10624822
-0.254281 -0.117652 0.797000 10758483
-0.254600 -0.113240 0.798000 10629461
-0.255238 -0.108952 0.800000 10832966
-0.256514 -0.104903 0.804000 10914452
-0.241029 -0.199048 0.760000 9967135
-0.241029 -0.194705 0.760000 9637408
-0.241980 -0.191113 0.763000 9634583
-0.241980 -0.186753 0.763000 12226365
-0.243566 -0.183589 0.768000 13213497
-0.244200 -0.179667 0.770000 11013634
-0.244200 -0.175267 0.770000 13672525
-0.244200 -0.170867 0.770000 10029600
-0.244834 -0.166899 0.772000 10305066
-0.245151 -0.162698 0.773000 9635093
-0.245786 -0.158690 0.775000 9966620
-0.246420 -0.154660 0.777000 9048360
-0.247054 -0.150607 0.779000 7041628
-0.248006 -0.146718 0.782000 5537877
-0.248640 -0.142613 0.784000 4742469
-0.249909 -0.138838 0.788000 5203272
-0.249909 -0.134335 0.788000 9131595
-0.250226 -0.129997 0.789000 9846856
-0.250226 -0.125489 0.789000 10504023
-0.252129 -0.121900 0.795000 10496091
-0.252763 -0.117652 0.797000 10696528
-0.252763 -0.113098 0.797000 10629457
-0.253714 -0.108952 0.800000 10833733
-0.254349 -0.104642 0.802000 10783338
-0.239581 -0.199048 0.760000 6491176
-0.239581 -0.194705 0.760000 9378078
-0.241157 -0.191614 0.765000 10093096
-0.241788 -0.187732 0.767000 12622654
-0.242733 -0.184067 0.770000 11971374
-0.243364 -0.180133 0.772000 11495426
-0.243364 -0.175722 0.772000 12429130
-0.243364 -0.171310 0.772000 11423502
-0.243679 -0.167115 0.773000 12827475
-0.244310 -0.163119 0.775000 9969923
-0.244940 -0.159100 0.777000 9702159
-0.245570 -0.155058 0.779000 8921114
-0.245886 -0.150800 0.780000 6853221
-0.246516 -0.146718 0.782000 4612441
-0.247777 -0.142977 0.786000 3361594
-0.248408 -0.138838 0.788000 4738604
-0.248723 -0.134506 0.789000 7176269
-0.248723 -0.129997 0.789000 9866110
-0.249984 -0.126125 0.793000 10793356
-0.251245 -0.122207 0.797000 9992064
-0.251245 -0.117652 0.797000 9458765
-0.251560 -0.113240 0.798000 10368076
-0.252821 -0.109225 0.802000 10508612
-0.252821 -0.104642 0.802000 9662272
-0.238133 -0.194705 0.760000 9119021
-0.240327 -0.192115 0.767000 10568500
-0.240327 -0.187732 0.767000 13086772
-0.241267 -0.184067 0.770000 10701593
-0.242207 -0.180367 0.773000 12030210
-0.241893 -0.175722 0.772000 11111486
-0.242207 -0.171532 0.773000 12818247
-0.242833 -0.167548 0.775000 15255402
-0.244087 -0.163961 0.779000 10302529
-0.243460 -0.159100 0.777000 9373233
-0.244400 -0.155257 0.780000 8850999
-0.245653 -0.151573 0.784000 6653286
-0.245653 -0.147093 0.784000 3691088
-0.246280 -0.142977 0.786000 1983283
-0.246907 -0.138838 0.788000 4275766
-0.247220 -0.134506 0.789000 5208652
-0.247847 -0.130327 0.791000 9871731
-0.249100 -0.126443 0.795000 10987384
-0.249727 -0.122207 0.797000 9538664
-0.250040 -0.117800 0.798000 8150088
-0.250667 -0.113524 0.800000 10105663
-0.251293 -0.109225 0.802000 10175538
-0.251920 -0.104903 0.804000 8553556
-0.236997 -0.194961 0.761000 5903931
-0.238866 -0.192115 0.767000 10121792
-0.239800 -0.188467 0.770000 12359209
-0.240423 -0.184545 0.772000 9699588
-0.240734 -0.180367 0.773000 11026690
-0.240734 -0.175950 0.773000 12291634
-0.241357 -0.171976 0.775000 13151359
-0.242603 -0.168412 0.779000 14602881
-0.242914 -0.164171 0.780000 11637887
-0.242914 -0.159714 0.780000 9306451
-0.243537 -0.155655 0.782000 8806228
-0.244160 -0.151573 0.784000 6457191
-0.244783 -0.147469 0.786000 4283974
-0.245406 -0.143341 0.788000 2507565
-0.245717 -0.139014 0.789000 5654847
-0.246340 -0.134847 0.791000 6647116
-0.246963 -0.130656 0.793000 9471592
-0.248209 -0.126761 0.797000 9997156
-0.248520 -0.122360 0.798000 9200720
-0.249143 -0.118095 0.800000 9457476
-0.249143 -0.113524 0.800000 10299441
-0.249766 -0.109225 0.802000 9843488
-0.235548 -0.194961 0.761000 2690344
-0.237405 -0.192115 0.767000 9649441
-0.239262 -0.189201 0.773000 11630642
-0.239262 -0.184784 0.773000 8659981
-0.239881 -0.180833 0.775000 10046020
-0.239262 -0.175950 0.773000 13472338
-0.240500 -0.172420 0.777000 13471576
-0.241429 -0.168629 0.780000 13869395
-0.241429 -0.164171 0.780000 12957782
-0.242048 -0.160124 0.782000 9193821
-0.242667 -0.156053 0.784000 8753502
-0.243286 -0.151960 0.786000 6255188
-0.243286 -0.147469 0.786000 4811839
-0.243905 -0.143341 0.788000 3033395
-0.244214 -0.139014 0.789000 7026474
-0.245452 -0.135188 0.793000 8082226
-0.246071 -0.130986 0.795000 9069395
-0.246690 -0.126761 0.797000 8996927
-0.247619 -0.122667 0.800000 8926519
-0.248238 -0.118390 0.802000 10696250
-0.248238 -0.113808 0.802000 10490414
-0.249476 -0.109770 0.806000 9458474
-0.235944 -0.192115 0.767000 5177602
-0.239020 -0.190180 0.777000 8727098
-0.239020 -0.185740 0.777000 10438422
-0.239020 -0.181300 0.777000 11371653
-0.238405 -0.176405 0.775000 12748146
-0.239020 -0.172420 0.777000 12818225
-0.240558 -0.169061 0.782000 12682533
-0.240558 -0.164592 0.782000 10583597
-0.241173 -0.160533 0.784000 9278056
-0.241789 -0.156451 0.786000 8874344
-0.241789 -0.151960 0.786000 7486530
-0.242404 -0.147844 0.788000 5597495
-0.242711 -0.143523 0.789000 5395513
-0.243942 -0.139719 0.793000 8459797
-0.243942 -0.135188 0.793000 10042393
-0.244557 -0.130986 0.795000 9848126
-0.245480 -0.126920 0.798000 9439769
-0.246095 -0.122667 0.800000 9377310
-0.247941 -0.118981 0.806000 10564145
-0.247326 -0.114091 0.804000 12085546
-0.247941 -0.109770 0.806000 9329715
-0.237540 -0.190180 0.777000 5898552
-0.238151 -0.186218 0.779000 12217116
-0.238151 -0.181767 0.779000 12753027
-0.237540 -0.176860 0.777000 11962723
-0.238151 -0.172864 0.779000 12099903
-0.239680 -0.169493 0.784000 11433279
-0.239680 -0.165013 0.784000 8212276
-0.240291 -0.160943 0.786000 9263942
-0.240903 -0.156850 0.788000 8994888
-0.240903 -0.152347 0.788000 8657984
-0.241820 -0.148407 0.791000 6386269
-0.241820 -0.143887 0.791000 7680057
-0.242431 -0.139719 0.793000 9962290
-0.243043 -0.135529 0.795000 12022626
-0.243654 -0.131315 0.797000 10636361
-0.244571 -0.127238 0.800000 9899288
-0.245183 -0.122973 0.802000 9899299
-0.247017 -0.119276 0.808000 10431277
-0.247017 -0.114659 0.808000 13673291
-0.247017 -0.110042 0.808000 9211977
-0.237579 -0.186935 0.782000 8022051
-0.237579 -0.182467 0.782000 12097665
-0.236971 -0.177543 0.780000 12293716
-0.236971 -0.173086 0.780000 11700301
-0.238794 -0.169926 0.786000 9987673
-0.238794 -0.165434 0.786000 8531771
-0.239402 -0.161352 0.788000 9247269
-0.239402 -0.156850 0.788000 9319720
-0.239706 -0.152540 0.789000 9243710
-0.240921 -0.148782 0.793000 7768706
-0.240921 -0.144250 0.793000 9371961
-0.241529 -0.140071 0.795000 11623247
-0.242136 -0.135870 0.797000 13291180
-0.242440 -0.131480 0.798000 10766676
-0.243655 -0.127556 0.802000 9900311
-0.244263 -0.123280 0.804000 10030119
-0.245478 -0.119276 0.808000 10495529
-0.245478 -0.114659 0.808000 13015915
-0.246086 -0.110314 0.810000 11835999
-0.236090 -0.186935 0.782000 3754039
-0.236090 -0.182467 0.782000 11435329
-0.235486 -0.177543 0.780000 12619853
-0.236693 -0.173973 0.784000 11300934
-0.238807 -0.171007 0.791000 8535364
-0.238203 -0.166066 0.789000 8922431
-0.238203 -0.161557 0.789000 9247780
-0.238203 -0.157049 0.789000 9646892
-0.239410 -0.153313 0.793000 9781837
-0.239410 -0.148782 0.793000 9217147
-0.239410 -0.144250 0.793000 11097937
-0.240618 -0.140424 0.797000 13276031
-0.240920 -0.136040 0.798000 14532515
-0.241524 -0.131810 0.800000 10895920
-0.242128 -0.127556 0.802000 9835554
-0.243335 -0.123587 0.806000 10162467
-0.244543 -0.119571 0.810000 10498084
-0.244543 -0.114943 0.810000 12425537
-0.244543 -0.110314 0.810000 14458714
-0.234600 -0.186935 0.782000 6570315
-0.234600 -0.182467 0.782000 7550209
-0.234000 -0.177543 0.780000 9138245
-0.236700 -0.175083 0.789000 9717310
-0.237300 -0.171007 0.791000 9386800
-0.237900 -0.166908 0.793000 9911875
-0.237900 -0.162376 0.793000 9641507
-0.237900 -0.157845 0.793000 9710383
-0.238500 -0.153700 0.795000 10121821
-0.238500 -0.149157 0.795000 9665395
-0.238500 -0.144614 0.795000 12167785
-0.240000 -0.140952 0.800000 13282734
-0.240600 -0.136722 0.802000 13416347
-0.240600 -0.132139 0.802000 10367500
-0.241200 -0.127874 0.804000 9967917
-0.242400 -0.123893 0.808000 10360607
-0.243000 -0.119571 0.810000 10763040
-0.243600 -0.115227 0.812000 11030550
-0.233110 -0.182467 0.782000 3691340
-0.235197 -0.175083 0.789000 8198458
-0.236390 -0.171439 0.793000 10173734
-0.236986 -0.167329 0.795000 10966092
-0.237582 -0.163195 0.797000 10049087
-0.237582 -0.158641 0.797000 9772873
-0.237880 -0.154280 0.798000 10440778
-0.237880 -0.149720 0.798000 10118741
-0.237582 -0.144978 0.797000 13202770
-0.239072 -0.141305 0.802000 13280368
-0.239669 -0.137063 0.804000 12215381
-0.240265 -0.132798 0.806000 9830664
-0.240265 -0.128192 0.806000 10101803
-0.240861 -0.123893 0.808000 10562356
-0.241457 -0.119571 0.810000 11032885
-0.242053 -0.115227 0.812000 9652514
-0.233694 -0.175083 0.789000 6757942
-0.234879 -0.171439 0.793000 7744540
-0.236064 -0.167750 0.797000 10645845
-0.236064 -0.163195 0.797000 11969628
-0.236360 -0.158840 0.798000 10899555
-0.236360 -0.154280 0.798000 10092856
-0.236952 -0.150095 0.800000 9392951
-0.236360 -0.145160 0.798000 11090746
-0.238730 -0.142010 0.806000 10497842
-0.238730 -0.137404 0.806000 10354960
-0.238730 -0.132798 0.806000 9637891
-0.239322 -0.128510 0.808000 9972777
-0.239914 -0.124200 0.810000 10632777
-0.240507 -0.119867 0.812000 11702091
-0.241099 -0.115510 0.814000 11109934
-0.232191 -0.175083 0.789000 5395304
-0.233957 -0.171871 0.795000 5254982
-0.234840 -0.167960 0.798000 10251848
-0.234840 -0.163400 0.798000 13796930
-0.235429 -0.159238 0.800000 12030314
-0.236017 -0.155053 0.802000 9721435
-0.237194 -0.151221 0.806000 8668486
-0.237194 -0.146615 0.806000 8984365
-0.237783 -0.142362 0.808000 7799107
-0.237783 -0.137745 0.808000 8465986
-0.237783 -0.133128 0.808000 9439531
-0.238371 -0.128829 0.810000 9840942
-0.238371 -0.124200 0.810000 10766146
-0.239549 -0.120162 0.814000 12287791
-0.239843 -0.115652 0.815000 12558915
-0.232443 -0.171871 0.795000 7889777
-0.233905 -0.168381 0.800000 7615291
-0.233905 -0.163810 0.800000 9204009
-0.234490 -0.159636 0.802000 11310961
-0.235074 -0.155440 0.804000 11378813
-0.236829 -0.151971 0.810000 10115156
-0.236244 -0.146979 0.808000 9834783
-0.236244 -0.142362 0.808000 9716564
-0.236244 -0.137745 0.808000 10911349
-0.236829 -0.133457 0.810000 10700114
-0.236829 -0.128829 0.810000 9971507
-0.237413 -0.124507 0.812000 11299899
-0.238290 -0.120310 0.815000 12087571
-0.238290 -0.115652 0.815000 9208920
-0.232381 -0.168381 0.800000 5003877
-0.232381 -0.163810 0.800000 4548181
-0.233543 -0.160034 0.804000 10577735
-0.233543 -0.155440 0.804000 13006664
-0.235286 -0.151971 0.810000 11563351
-0.235286 -0.147343 0.810000 10641739
-0.234705 -0.142362 0.808000 11636576
-0.235286 -0.138086 0.810000 13282418
-0.235867 -0.133787 0.812000 11968388
-0.236738 -0.129624 0.815000 10118473
-0.236448 -0.124813 0.814000 11831887
-0.236738 -0.120310 0.815000 11833394
-0.237319 -0.115936 0.817000 5926445
-0.232011 -0.160034 0.804000 8205852
-0.233743 -0.151971 0.810000 9335642
-0.233743 -0.147343 0.810000 10529911
-0.233743 -0.142714 0.810000 11903083
-0.234320 -0.138427 0.812000 13422704
-0.235186 -0.134281 0.815000 12695733
-0.235763 -0.129942 0.817000 11573854
-0.234897 -0.124813 0.814000 11637091
-0.235763 -0.120605 0.817000 9347409
-0.232200 -0.151971 0.810000 7164232
-0.232200 -0.147343 0.810000 10313797
-0.232200 -0.142714 0.810000 12224566
-0.232773 -0.138427 0.812000 13472079
-0.234207 -0.134610 0.817000 13409893
-0.234780 -0.130260 0.819000 12944436
-0.233633 -0.124967 0.815000 11504949
-0.234780 -0.120900 0.819000 6768686
-0.231227 -0.152347 0.812000 7750965
-0.230657 -0.147343 0.810000 6226194
-0.230657 -0.142714 0.810000 6563585
-0.231227 -0.138427 0.812000 6825518
-0.233220 -0.134940 0.819000 7952916
-0.233790 -0.130578 0.821000 7232010
-0.232081 -0.124967 0.815000 6173191
-0.233220 -0.120900 0.819000 4654092
-0.229114 -0.142714 0.810000 987971
-0.229680 -0.138427 0.812000 200503
-0.231660 -0.134940 0.819000 2490641
-0.232226 -0.130578 0.821000 1514251
-0.230529 -0.124967 0.815000 852244
-0.230100 -0.134940 0.819000 3477517
-0.231224 -0.130896 0.823000 2231819
-0.228976 -0.124967 0.815000 1838625
-0.229656 -0.130896 0.823000 2893892
-0.227424 -0.124967 0.815000 2755653
-0.228089 -0.130896 0.823000 7038589
-0.228089 -0.126193 0.823000 6378600
-0.294143 -0.241400 0.710000 10193309
-0.292790 -0.245457 0.710000 8335174
-0.292790 -0.241400 0.710000 9724753
-0.292790 -0.237343 0.710000 10520445
-0.290617 -0.244766 0.708000 8192274
-0.290617 -0.240720 0.708000 8267013
-0.290207 -0.236340 0.707000 8609110
-0.289269 -0.244766 0.708000 8064292
-0.288860 -0.240380 0.707000 6816016
-0.288860 -0.236340 0.707000 6625838
-0.288860 -0.232300 0.707000 8276031
-0.287920 -0.244766 0.708000 8457526
-0.287513 -0.240380 0.707000 7275546
-0.287513 -0.236340 0.707000 6881542
-0.288733 -0.233286 0.710000 7214850
-0.286167 -0.248460 0.707000 9713225
-0.286167 -0.244420 0.707000 8853047
-0.286167 -0.240380 0.707000 7668758
-0.286167 -0.236340 0.707000 7079179
-0.286571 -0.232629 0.708000 6228489
-0.291024 -0.232134 0.719000 6034465
-0.291024 -0.228026 0.719000 7549485
-0.284014 -0.247757 0.705000 9712967
-0.284820 -0.244420 0.707000 9177656
-0.284014 -0.239700 0.705000 7733777
-0.284820 -0.236340 0.707000 7210256
-0.284820 -0.232300 0.707000 6424591
-0.288849 -0.231489 0.717000 6359314
-0.288849 -0.227391 0.717000 6950663
-0.282671 -0.247757 0.705000 9777736
-0.282671 -0.243729 0.705000 9507890
-0.282671 -0.239700 0.705000 7733521
-0.283473 -0.236340 0.707000 7341069
-0.283874 -0.232629 0.708000 6685967
-0.286280 -0.230520 0.714000 6621203
-0.287082 -0.227074 0.716000 6424077
-0.281329 -0.247757 0.705000 9777481
-0.281329 -0.243729 0.705000 9440301
-0.281329 -0.239700 0.705000 7930129
-0.282127 -0.236340 0.707000 7471882
-0.282526 -0.232629 0.708000 6816526
-0.284920 -0.230520 0.714000 6686483
-0.285718 -0.227074 0.716000 6555410
-0.286117 -0.223294 0.717000 6163483
-0.288511 -0.221031 0.723000 6622211
-0.288511 -0.216900 0.723000 5964033
-0.287929 -0.258929 0.725000 9641817
-0.279191 -0.247054 0.703000 9776452
-0.279986 -0.243729 0.705000 9311792
-0.279589 -0.239360 0.704000 8192274
-0.280780 -0.236340 0.707000 7537417
-0.280780 -0.232300 0.707000 6947341
-0.283560 -0.230520 0.714000 6751503
-0.284354 -0.227074 0.716000 6620176
-0.285546 -0.223917 0.719000 6424595
-0.287134 -0.221031 0.723000 6162696
-0.287134 -0.216900 0.723000 4195850
-0.286548 -0.258929 0.725000 9578576
-0.277852 -0.247054 0.703000 9776959
-0.279433 -0.244420 0.707000 9508148
-0.278248 -0.239360 0.704000 8323603
-0.279433 -0.236340 0.707000 7799560
-0.279433 -0.232300 0.707000 7013132
-0.281805 -0.230197 0.713000 6750986
-0.281805 -0.226123 0.713000 6620430
-0.283386 -0.223294 0.717000 6358027
-0.285362 -0.220726 0.722000 6293516
-0.285757 -0.216900 0.723000 5246483
-0.285757 -0.212769 0.723000 1116706
-0.288919 -0.206769 0.731000 920862
-0.289314 -0.202869 0.732000 856092
-0.284380 -0.258214 0.723000 9447493
-0.281627 -0.251623 0.716000 9842754
-0.278087 -0.244420 0.707000 9641784
-0.276907 -0.239360 0.704000 8454420
-0.278087 -0.236340 0.707000 7996169
-0.278087 -0.232300 0.707000 7078669
-0.280447 -0.230197 0.713000 6750988
-0.280447 -0.226123 0.713000 6619919
-0.281627 -0.222983 0.716000 6292490
-0.283987 -0.220726 0.722000 6424074
-0.284380 -0.216900 0.723000 6228496
-0.284380 -0.212769 0.723000 1379099
-0.286347 -0.210080 0.728000 1379861
-0.286740 -0.206203 0.729000 1642521
-0.287920 -0.202869 0.732000 1576726
-0.288707 -0.190840 0.734000 2231816
-0.287920 -0.186137 0.732000 1378825
-0.289887 -0.183197 0.737000 592138
-0.289887 -0.178986 0.737000 198156
-0.283003 -0.258214 0.723000 9647418
-0.280263 -0.251623 0.716000 9844293
-0.276740 -0.244420 0.707000 9839932
-0.275957 -0.239700 0.705000 8782356
-0.276740 -0.236340 0.707000 8193035
-0.276740 -0.232300 0.707000 7406350
-0.277914 -0.229229 0.710000 7013135
-0.279089 -0.226123 0.713000 6816527
-0.280263 -0.222983 0.716000 6488841
-0.281829 -0.220114 0.720000 6489352
-0.282611 -0.216600 0.722000 6425102
-0.282611 -0.212474 0.722000 1378835
-0.284960 -0.210080 0.728000 1379085
-0.285351 -0.206203 0.729000 1445140
-0.285351 -0.202037 0.729000 1379601
-0.285351 -0.197871 0.729000 1379344
-0.286526 -0.194503 0.732000 1640977
-0.287309 -0.190840 0.734000 1772559
-0.287309 -0.186646 0.734000 1445137
-0.288091 -0.182949 0.736000 986387
-0.288483 -0.178986 0.737000 789527
-0.289657 -0.175486 0.740000 854298
-0.293571 -0.173571 0.750000 983298
-0.281626 -0.258214 0.723000 9842752
-0.278899 -0.251623 0.716000 9910344
-0.275393 -0.244420 0.707000 10035262
-0.274614 -0.239700 0.705000 9044501
-0.275393 -0.236340 0.707000 8389387
-0.275393 -0.232300 0.707000 7733773
-0.275783 -0.228583 0.708000 7275276
-0.277730 -0.226123 0.713000 6947599
-0.278120 -0.222360 0.714000 6685452
-0.280068 -0.219809 0.719000 6620172
-0.281236 -0.216600 0.722000 6555404
-0.281236 -0.212474 0.722000 1443860
-0.282405 -0.209214 0.725000 1313806
-0.283573 -0.205920 0.728000 1182225
-0.283963 -0.202037 0.729000 1182736
-0.283963 -0.197871 0.729000 1116174
-0.285131 -0.194503 0.732000 1116686
-0.286690 -0.191360 0.736000 1248271
-0.286690 -0.187154 0.736000 1510159
-0.286690 -0.182949 0.736000 1379344
-0.287079 -0.178986 0.737000 1379346
-0.289027 -0.175960 0.742000 1575953
-0.290974 -0.172877 0.747000 1640452
-0.291364 -0.168834 0.748000 591624
-0.280249 -0.258214 0.723000 9713222
-0.277535 -0.251623 0.716000 9910347
-0.275597 -0.245803 0.711000 10100799
-0.273271 -0.239700 0.705000 9175573
-0.274047 -0.236340 0.707000 8651531
-0.274047 -0.232300 0.707000 7995916
-0.274434 -0.228583 0.708000 7669002
-0.275597 -0.225489 0.711000 7275278
-0.276372 -0.222049 0.713000 7013135
-0.277923 -0.219197 0.717000 6816784
-0.279086 -0.216000 0.720000 6686987
-0.279861 -0.212474 0.722000 1444116
-0.281024 -0.209214 0.725000 1248270
-0.281411 -0.205354 0.726000 1116685
-0.282187 -0.201760 0.728000 1182734
-0.282187 -0.197600 0.728000 1050892
-0.283350 -0.194237 0.731000 1116940
-0.284512 -0.190840 0.734000 1182478
-0.285288 -0.187154 0.736000 1378573
-0.285288 -0.182949 0.736000 1248269
-0.285675 -0.178986 0.737000 1248269
-0.288001 -0.176197 0.743000 1313544
-0.289939 -0.173109 0.748000 1313286
-0.290714 -0.169286 0.750000 985615
-0.277714 -0.257143 0.720000 9515844
-0.275400 -0.250920 0.714000 9910348
-0.273857 -0.245457 0.710000 10166084
-0.271929 -0.239700 0.705000 9306392
-0.271929 -0.235671 0.705000 8913419
-0.271929 -0.231643 0.705000 8323340
-0.273086 -0.228583 0.708000 7996427
-0.274243 -0.225489 0.711000 7602959
-0.275014 -0.222049 0.713000 7275280
-0.276171 -0.218891 0.716000 7013139
-0.277714 -0.216000 0.720000 6817292
-0.278486 -0.212474 0.722000 1509652
-0.279643 -0.209214 0.725000 1116684
-0.280029 -0.205354 0.726000 1050895
-0.281186 -0.202037 0.729000 1116941
-0.281186 -0.197871 0.729000 985102
-0.281957 -0.194237 0.731000 1116686
-0.282343 -0.190320 0.732000 1182478
-0.283114 -0.186646 0.734000 1182224
-0.284271 -0.183197 0.737000 1116941
-0.285043 -0.179471 0.739000 1116684
-0.286200 -0.175960 0.742000 1051146
-0.288129 -0.172877 0.747000 985607
-0.289286 -0.169286 0.750000 1379339
-0.289286 -0.165000 0.750000 1248270
-0.290443 -0.157054 0.753000 1640200
-0.291600 -0.153360 0.756000 657415
-0.293143 -0.149829 0.760000 197640
-0.293529 -0.145677 0.761000 196883
-0.275959 -0.256786 0.719000 9646915
-0.273656 -0.250569 0.713000 9910348
-0.271737 -0.244766 0.708000 10232905
-0.270202 -0.239360 0.704000 9372187
-0.270202 -0.235337 0.704000 8978956
-0.270586 -0.231643 0.705000 8454412
-0.271737 -0.228583 0.708000 8192780
-0.272889 -0.225489 0.711000 7865103
-0.273656 -0.222049 0.713000 7603217
-0.274808 -0.218891 0.716000 7341077
-0.275959 -0.215700 0.719000 7211533
-0.277110 -0.212474 0.722000 1837332
-0.278262 -0.209214 0.725000 1116425
-0.278646 -0.205354 0.726000 1116433
-0.279797 -0.202037 0.729000 1051149
-0.279797 -0.197871 0.729000 985104
-0.280565 -0.194237 0.731000 1116432
-0.280949 -0.190320 0.732000 1050893
-0.281716 -0.186646 0.734000 1116435
-0.282484 -0.182949 0.736000 1050892
-0.282868 -0.178986 0.737000 1050891
-0.284787 -0.175960 0.742000 1051404
-0.285170 -0.171951 0.743000 985608
-0.287090 -0.168834 0.748000 1182471
-0.288625 -0.165440 0.752000 1116940
-0.287857 -0.160714 0.750000 1379085
-0.289009 -0.157054 0.753000 1312782
-0.290160 -0.153360 0.756000 854541
-0.290928 -0.149434 0.758000 920079
-0.291695 -0.145486 0.760000 788002
-0.292079 -0.141329 0.761000 2228482
-0.292079 -0.136980 0.761000 3937281
-0.274971 -0.257143 0.720000 9712200
-0.272298 -0.250569 0.713000 9976396
-0.270007 -0.244420 0.707000 10231362
-0.268479 -0.239020 0.703000 9437467
-0.268861 -0.235337 0.704000 9044496
-0.269243 -0.231643 0.705000 8585483
-0.270389 -0.228583 0.708000 8389133
-0.271534 -0.225489 0.711000 8127246
-0.272298 -0.222049 0.713000 7930898
-0.272680 -0.218280 0.714000 7668753
-0.274590 -0.215700 0.719000 7538703
-0.274971 -0.211886 0.720000 2230550
-0.276881 -0.209214 0.725000 1116428
-0.277263 -0.205354 0.726000 1116434
-0.278027 -0.201760 0.728000 985358
-0.278409 -0.197871 0.729000 984848
-0.279172 -0.194237 0.731000 1116430
-0.279554 -0.190320 0.732000 984847
-0.279554 -0.186137 0.732000 985105
-0.281082 -0.182949 0.736000 985099
-0.281082 -0.178743 0.736000 985608
-0.281464 -0.174774 0.737000 1051658
-0.283373 -0.171720 0.742000 985609
-0.285665 -0.168834 0.748000 1051400
-0.286429 -0.165000 0.750000 985612
-0.285665 -0.160286 0.748000 1051406
-0.287192 -0.156846 0.752000 920078
-0.288338 -0.153157 0.755000 1117198
-0.289484 -0.149434 0.758000 1641487
-0.289484 -0.145103 0.758000 1444373
-0.290630 -0.141329 0.761000 1116425
-0.291393 -0.137340 0.763000 393996
-0.292157 -0.133329 0.765000 265486
-0.274360 -0.257857 0.722000 9711950
-0.270940 -0.250569 0.713000 9975884
-0.267900 -0.243729 0.705000 10296891
-0.267140 -0.239020 0.703000 9503258
-0.267520 -0.235337 0.704000 9175572
-0.267900 -0.231643 0.705000 8585482
-0.269800 -0.229229 0.710000 8454414
-0.270180 -0.225489 0.711000 8193037
-0.270940 -0.222049 0.713000 8061715
-0.271320 -0.218280 0.714000 7865612
-0.273220 -0.215700 0.719000 7802129
-0.274360 -0.212474 0.722000 2362135
-0.275500 -0.209214 0.725000 1051152
-0.275880 -0.205354 0.726000 1116691
-0.276640 -0.201760 0.728000 1050639
-0.277020 -0.197871 0.729000 985103
-0.277780 -0.194237 0.731000 1116172
-0.278160 -0.190320 0.732000 985105
-0.278160 -0.186137 0.732000 984848
-0.279680 -0.182949 0.736000 919562
-0.280060 -0.178986 0.737000 985605
-0.280820 -0.175249 0.739000 1051143
-0.281960 -0.171720 0.742000 985353
-0.284240 -0.168834 0.748000 1117193
-0.285000 -0.165000 0.750000 1116940
-0.284240 -0.160286 0.748000 1116942
-0.285000 -0.156429 0.750000 1181710
-0.286900 -0.153157 0.755000 1182991
-0.287280 -0.149040 0.756000 1444878
-0.288040 -0.145103 0.758000 1379080
-0.289180 -0.141329 0.761000 1248272
-0.289940 -0.137340 0.763000 920343
-0.291460 -0.133677 0.767000 1116431
-0.292600 -0.129800 0.770000 2556675
-0.274119 -0.258929 0.725000 9711944
-0.269582 -0.250569 0.713000 9975632
-0.265801 -0.243037 0.703000 10361916
-0.265045 -0.238340 0.701000 9568800
-0.266179 -0.235337 0.704000 9306646
-0.266557 -0.231643 0.705000 8585479
-0.267691 -0.228583 0.708000 8454928
-0.268826 -0.225489 0.711000 8258574
-0.269582 -0.222049 0.713000 8192785
-0.270716 -0.218891 0.716000 8127501
-0.271850 -0.215700 0.719000 8063503
-0.272985 -0.212474 0.722000 2492953
-0.274119 -0.209214 0.725000 985618
-0.274497 -0.205354 0.726000 1182231
-0.275631 -0.202037 0.729000 1116431
-0.275631 -0.197871 0.729000 1050637
-0.276388 -0.194237 0.731000 1116684
-0.276766 -0.190320 0.732000 1050641
-0.276766 -0.186137 0.732000 919567
-0.278278 -0.182949 0.736000 919307
-0.278656 -0.178986 0.737000 985608
-0.279412 -0.175249 0.739000 1051146
-0.280547 -0.171720 0.742000 920075
-0.281681 -0.168157 0.745000 1117197
-0.283571 -0.165000 0.750000 1248013
-0.282815 -0.160286 0.748000 1248270
-0.283571 -0.156429 0.750000 1444366
-0.285462 -0.153157 0.755000 1248525
-0.285840 -0.149040 0.756000 1182737
-0.286596 -0.145103 0.758000 1314060
-0.287730 -0.141329 0.761000 1379600
-0.288487 -0.137340 0.763000 1379860
-0.289999 -0.133677 0.767000 1969423
-0.290377 -0.129463 0.768000 1509899
-0.291133 -0.125400 0.770000 591117
-0.274243 -0.260357 0.729000 9776962
-0.267471 -0.249866 0.711000 10040916
-0.264462 -0.243037 0.703000 10428477
-0.263710 -0.238340 0.701000 9634597
-0.264838 -0.235337 0.704000 9438232
-0.265967 -0.232300 0.707000 8716547
-0.267095 -0.229229 0.710000 8586258
-0.267471 -0.225489 0.711000 8323854
-0.268224 -0.222049 0.713000 8258320
-0.269729 -0.219197 0.717000 8127501
-0.270857 -0.216000 0.720000 8129294
-0.271986 -0.212769 0.723000 2427930
-0.272738 -0.209214 0.725000 1116692
-0.273114 -0.205354 0.726000 1182234
-0.274243 -0.202037 0.729000 1116688
-0.274995 -0.198414 0.731000 985355
-0.274995 -0.194237 0.731000 1051147
-0.275371 -0.190320 0.732000 985361
-0.275371 -0.186137 0.732000 919567
-0.277252 -0.183197 0.737000 919820
-0.277252 -0.178986 0.737000 1050892
-0.278005 -0.175249 0.739000 1116684
-0.278381 -0.171257 0.740000 1182477
-0.280262 -0.168157 0.745000 1248272
-0.282143 -0.165000 0.750000 1313806
-0.281390 -0.160286 0.748000 1510670
-0.282143 -0.156429 0.750000 1575439
-0.284024 -0.153157 0.755000 1445387
-0.284400 -0.149040 0.756000 1509651
-0.285152 -0.145103 0.758000 1510671
-0.286281 -0.141329 0.761000 1510928
-0.287033 -0.137340 0.763000 1445393
-0.288538 -0.133677 0.767000 1772559
-0.288914 -0.129463 0.768000 1510674
-0.289667 -0.125400 0.770000 1313818
-0.272480 -0.260000 0.728000 9777988
-0.266117 -0.249866 0.711000 10106703
-0.263123 -0.243037 0.703000 10493502
-0.263123 -0.239020 0.703000 9765669
-0.263871 -0.235671 0.705000 9503771
-0.264994 -0.232629 0.708000 8847884
-0.266117 -0.229551 0.711000 8651795
-0.266117 -0.225489 0.711000 8389141
-0.266866 -0.222049 0.713000 8258320
-0.268363 -0.219197 0.717000 8127499
-0.269486 -0.216000 0.720000 8129037
-0.270609 -0.212769 0.723000 2427930
-0.270609 -0.208637 0.723000 1182484
-0.271731 -0.205354 0.726000 1182488
-0.272854 -0.202037 0.729000 1116688
-0.272854 -0.197871 0.729000 919820
-0.273603 -0.194237 0.731000 985612
-0.273603 -0.190060 0.731000 919823
-0.273977 -0.186137 0.732000 919824
-0.275474 -0.182949 0.736000 919821
-0.275849 -0.178986 0.737000 1117195
-0.276597 -0.175249 0.739000 1182735
-0.276971 -0.171257 0.740000 1379599
-0.278843 -0.168157 0.745000 1379349
-0.279966 -0.164560 0.748000 1379348
-0.279966 -0.160286 0.748000 1773077
-0.280714 -0.156429 0.750000 1641752
-0.282586 -0.153157 0.755000 1707288
-0.282960 -0.149040 0.756000 1772316
-0.283709 -0.145103 0.758000 1642267
-0.284831 -0.141329 0.761000 1642266
-0.285580 -0.137340 0.763000 1511706
-0.287077 -0.133677 0.767000 1511187
-0.288200 -0.129800 0.770000 1510930
-0.288200 -0.125400 0.770000 1969685
-0.289323 -0.121471 0.773000 2362893
-0.271093 -0.260000 0.728000 9646661
-0.264763 -0.249866 0.711000 10171721
-0.261784 -0.243037 0.703000 10625599
-0.261784 -0.239020 0.703000 9898020
-0.262156 -0.235337 0.704000 9635614
-0.264390 -0.233286 0.710000 8979221
-0.264763 -0.229551 0.711000 8717332
-0.265508 -0.226123 0.713000 8454939
-0.265880 -0.222360 0.714000 8389648
-0.266997 -0.219197 0.717000 8193033
-0.268114 -0.216000 0.720000 8129549
-0.268859 -0.212474 0.722000 2100250
-0.269231 -0.208637 0.723000 1248277
-0.270349 -0.205354 0.726000 1182485
-0.271466 -0.202037 0.729000 1116689
-0.272210 -0.198414 0.731000 1051404
-0.272210 -0.194237 0.731000 1050892
-0.272583 -0.190320 0.732000 1051405
-0.273328 -0.186646 0.734000 1116689
-0.274072 -0.182949 0.736000 1116942
-0.274445 -0.178986 0.737000 1379851
-0.275190 -0.175249 0.739000 1575953
-0.275190 -0.171026 0.739000 1380368
-0.277424 -0.168157 0.745000 1182490
-0.278541 -0.164560 0.748000 1117466
-0.278541 -0.160286 0.748000 1247515
-0.280030 -0.156846 0.752000 1248033
-0.281520 -0.153360 0.756000 1312804
-0.282265 -0.149434 0.758000 1247269
-0.282265 -0.145103 0.758000 1312806
-0.283382 -0.141329 0.761000 1248292
-0.284871 -0.137700 0.765000 1183523
-0.285616 -0.133677 0.767000 1904407
-0.285989 -0.129463 0.768000 1642258
-0.286733 -0.125400 0.770000 1837841
-0.287850 -0.121471 0.773000 1838611
-0.288595 -0.117357 0.775000 1576725
-0.262297 -0.248811 0.708000 10237254
-0.259704 -0.242346 0.701000 10690108
-0.259704 -0.238340 0.701000 10095653
-0.260815 -0.235337 0.704000 9700382
-0.263038 -0.233286 0.710000 9176088
-0.263409 -0.229551 0.711000 8783127
-0.263409 -0.225489 0.711000 8586008
-0.264520 -0.222360 0.714000 8520725
-0.265631 -0.219197 0.717000 8323854
-0.266372 -0.215700 0.719000 8128529
-0.267484 -0.212474 0.722000 1838110
-0.267484 -0.208349 0.722000 1314070
-0.268966 -0.205354 0.726000 1182229
-0.270077 -0.202037 0.729000 1116949
-0.270818 -0.198414 0.731000 1182737
-0.270818 -0.194237 0.731000 1116945
-0.271189 -0.190320 0.732000 1182992
-0.271930 -0.186646 0.734000 1313808
-0.272670 -0.182949 0.736000 1379858
-0.273041 -0.178986 0.737000 1642260
-0.273782 -0.175249 0.739000 1969692
-0.275264 -0.171951 0.743000 1313560
-0.276746 -0.168609 0.747000 1050900
-0.277116 -0.164560 0.748000 788512
-0.277116 -0.160286 0.748000 786715
-0.278598 -0.156846 0.752000 789532
-0.280080 -0.153360 0.756000 917791
-0.280821 -0.149434 0.758000 723746
-0.280821 -0.145103 0.758000 917796
-0.281932 -0.141329 0.761000 854295
-0.283414 -0.137700 0.765000 854294
-0.284526 -0.133851 0.768000 2231053
-0.285267 -0.129800 0.770000 1838603
-0.285267 -0.125400 0.770000 1707799
-0.286378 -0.121471 0.773000 1380119
-0.287860 -0.117660 0.777000 1708309
-0.260949 -0.248811 0.708000 10301507
-0.259106 -0.243037 0.703000 10690361
-0.259106 -0.239020 0.703000 10095142
-0.260580 -0.236340 0.707000 9765919
-0.261686 -0.233286 0.710000 9372699
-0.262054 -0.229551 0.711000 9045786
-0.262054 -0.225489 0.711000 8848661
-0.262791 -0.222049 0.713000 8782617
-0.264266 -0.219197 0.717000 8455187
-0.265003 -0.215700 0.719000 8260116
-0.266109 -0.212474 0.722000 1641761
-0.266109 -0.208349 0.722000 1445656
-0.267214 -0.205071 0.725000 1379605
-0.268320 -0.201760 0.728000 1379097
-0.268689 -0.197871 0.729000 1379606
-0.268689 -0.193706 0.729000 1379094
-0.269426 -0.190060 0.731000 1445651
-0.269794 -0.186137 0.732000 1642000
-0.270531 -0.182451 0.734000 1576725
-0.271269 -0.178743 0.736000 1379358
-0.272743 -0.175486 0.740000 1771559
-0.273849 -0.171951 0.743000 2819104
-0.274586 -0.168157 0.745000 3671565
-0.275323 -0.164340 0.747000 4064806
-0.275691 -0.160286 0.748000 4527386
-0.277534 -0.157054 0.753000 5054999
-0.279377 -0.153766 0.758000 5381914
-0.279377 -0.149434 0.758000 5185823
-0.280114 -0.145486 0.760000 4920098
-0.280483 -0.141329 0.761000 4461834
-0.283063 -0.138240 0.768000 3280904
-0.283063 -0.133851 0.768000 1442563
-0.283800 -0.129800 0.770000 985348
-0.283800 -0.125400 0.770000 1904413
-0.285643 -0.121786 0.775000 1642523
-0.287117 -0.117963 0.779000 1708565
-0.288223 -0.113949 0.782000 2101515
-0.259600 -0.248811 0.708000 10431558
-0.258133 -0.243383 0.704000 10624053
-0.258133 -0.239360 0.704000 10159907
-0.259233 -0.236340 0.707000 9765918
-0.260333 -0.233286 0.710000 9569305
-0.260700 -0.229551 0.711000 9243164
-0.261433 -0.226123 0.713000 9111322
-0.261800 -0.222360 0.714000 8979739
-0.262900 -0.219197 0.717000 8651799
-0.263633 -0.215700 0.719000 8390679
-0.264733 -0.212474 0.722000 1380646
-0.264733 -0.208349 0.722000 1511451
-0.266200 -0.205354 0.726000 1511447
-0.266933 -0.201760 0.728000 1576728
-0.267300 -0.197871 0.729000 1576727
-0.267300 -0.193706 0.729000 1642264
-0.268400 -0.190320 0.732000 1708823
-0.269133 -0.186646 0.734000 1970202
-0.269133 -0.182451 0.734000 1772566
-0.269867 -0.178743 0.736000 1116442
-0.271333 -0.175486 0.740000 1638692
-0.272433 -0.171951 0.743000 4262950
-0.273900 -0.168609 0.747000 6291993
-0.274267 -0.164560 0.748000 7277086
-0.274267 -0.160286 0.748000 8264222
-0.276100 -0.157054 0.753000 9312798
-0.277200 -0.153360 0.756000 9840932
-0.277933 -0.149434 0.758000 9577244
-0.278667 -0.145486 0.760000 8916002
-0.279033 -0.141329 0.761000 8070950
-0.281233 -0.138060 0.767000 5778728
-0.281600 -0.133851 0.768000 596515
-0.282333 -0.129800 0.770000 131372
-0.281600 -0.125074 0.768000 2033679
-0.284167 -0.121786 0.775000 1839122
-0.285633 -0.117963 0.779000 1708823
-0.286000 -0.113657 0.780000 1774608
-0.286733 -0.109480 0.782000 2363925
-0.258251 -0.248811 0.708000 10496585
-0.257887 -0.244420 0.707000 10558257
-0.257157 -0.239700 0.705000 10225440
-0.258251 -0.236674 0.708000 10224413
-0.258981 -0.233286 0.710000 9701399
-0.259346 -0.229551 0.711000 9375006
-0.260075 -0.226123 0.713000 9242910
-0.261170 -0.222983 0.716000 9176604
-0.261534 -0.219197 0.717000 8849690
-0.262264 -0.215700 0.719000 8457753
-0.263358 -0.212474 0.722000 1511722
-0.263358 -0.208349 0.722000 1839903
-0.264817 -0.205354 0.726000 1774105
-0.265547 -0.201760 0.728000 1773848
-0.265911 -0.197871 0.729000 1839639
-0.265911 -0.193706 0.729000 1839641
-0.267006 -0.190320 0.732000 1971226
-0.267735 -0.186646 0.734000 1838628
-0.267735 -0.182451 0.734000 2688790
-0.268465 -0.178743 0.736000 4723223
-0.269924 -0.175486 0.740000 5708576
-0.271018 -0.171951 0.743000 7153964
-0.272477 -0.168609 0.747000 7868708
-0.272842 -0.164560 0.748000 8526358
-0.273571 -0.160714 0.750000 8983586
-0.275395 -0.157471 0.755000 9441061
-0.275395 -0.153157 0.755000 9841453
-0.276490 -0.149434 0.758000 9977113
-0.277219 -0.145486 0.760000 9711138
-0.278313 -0.141700 0.763000 9391170
-0.279772 -0.138060 0.767000 8470855
-0.280137 -0.133851 0.768000 6971971
-0.281961 -0.130306 0.773000 5192276
-0.281961 -0.125889 0.773000 1245953
-0.282690 -0.121786 0.775000 1050889
-0.284150 -0.117963 0.779000 1840410
-0.284514 -0.113657 0.780000 1839893
-0.285973 -0.109760 0.784000 2166544
-0.287432 -0.105817 0.788000 2692379
-0.256903 -0.248811 0.708000 10560834
-0.256903 -0.244766 0.708000 10491435
-0.256540 -0.240380 0.707000 10290973
-0.256903 -0.236674 0.708000 10684190
-0.257629 -0.233286 0.710000 9832993
-0.257991 -0.229551 0.711000 9440031
-0.258717 -0.226123 0.713000 9374496
-0.259806 -0.222983 0.716000 9373986
-0.260894 -0.219809 0.719000 9112094
-0.260894 -0.215700 0.719000 8523036
-0.261257 -0.211886 0.720000 1644588
-0.262346 -0.208637 0.723000 2168353
-0.263434 -0.205354 0.726000 2037281
-0.264160 -0.201760 0.728000 1970974
-0.264523 -0.197871 0.729000 2168089
-0.265249 -0.194237 0.731000 1971229
-0.265611 -0.190320 0.732000 2233630
-0.266337 -0.186646 0.734000 1706786
-0.265611 -0.181954 0.732000 3604778
-0.267063 -0.178743 0.736000 8261414
-0.269240 -0.175960 0.742000 9773605
-0.269603 -0.171951 0.743000 9967907
-0.271054 -0.168609 0.747000 9440832
-0.271417 -0.164560 0.748000 9706018
-0.272143 -0.160714 0.750000 9703723
-0.273957 -0.157471 0.755000 9507113
-0.274320 -0.153360 0.756000 9838638
-0.275771 -0.149829 0.760000 10369315
-0.276134 -0.145677 0.761000 10565415
-0.276860 -0.141700 0.763000 10633275
-0.278674 -0.138240 0.768000 11222599
-0.279400 -0.134200 0.770000 13271625
-0.280489 -0.130306 0.773000 10262626
-0.280489 -0.125889 0.773000 408628
-0.282666 -0.122414 0.779000 196913
-0.283029 -0.118114 0.780000 1969680
-0.283754 -0.113949 0.782000 1905430
-0.284480 -0.109760 0.784000 1969940
-0.286294 -0.105951 0.789000 2363672
-0.287020 -0.101700 0.791000 2824733
-0.257359 -0.250569 0.713000 10757178
-0.255554 -0.244766 0.708000 10554406
-0.255554 -0.240720 0.708000 10290458
-0.255554 -0.236674 0.708000 10357023
-0.256276 -0.233286 0.710000 9832746
-0.256637 -0.229551 0.711000 9505824
-0.257720 -0.226440 0.714000 9439778
-0.258803 -0.223294 0.717000 9439784
-0.258803 -0.219197 0.717000 9243937
-0.259525 -0.215700 0.719000 8066335
-0.259886 -0.211886 0.720000 1841709
-0.261690 -0.209214 0.725000 2234404
-0.262051 -0.205354 0.726000 2037289
-0.262773 -0.201760 0.728000 1905699
-0.263134 -0.197871 0.729000 2102810
-0.264217 -0.194503 0.732000 2037282
-0.264939 -0.190840 0.734000 1969697
-0.264939 -0.186646 0.734000 4657184
-0.263856 -0.181706 0.731000 6955325
-0.264939 -0.178257 0.734000 9117749
-0.268188 -0.176197 0.743000 9771817
-0.268188 -0.171951 0.743000 9503002
-0.269992 -0.168834 0.748000 11564892
-0.270714 -0.165000 0.750000 9646895
-0.270714 -0.160714 0.750000 9637428
-0.271797 -0.157054 0.753000 9638445
-0.272880 -0.153360 0.756000 9771055
-0.274324 -0.149829 0.760000 10170158
-0.274685 -0.145677 0.761000 10300972
-0.275407 -0.141700 0.763000 10629428
-0.277211 -0.138240 0.768000 11291207
-0.277933 -0.134200 0.770000 13143120
-0.279016 -0.130306 0.773000 12038000
-0.279738 -0.126214 0.775000 7508328
-0.281182 -0.122414 0.779000 3947353
-0.281543 -0.118114 0.780000 1180678
-0.282265 -0.113949 0.782000 1643031
-0.282987 -0.109760 0.784000 1969688
-0.284430 -0.105817 0.788000 2101525
-0.284791 -0.101443 0.789000 2692636
-0.284791 -0.096934 0.789000 3022362
-0.256001 -0.250569 0.713000 10952251
-0.254924 -0.245457 0.710000 10553381
-0.254924 -0.241400 0.710000 10289950
-0.254924 -0.237343 0.710000 10028831
-0.254924 -0.233286 0.710000 9832741
-0.256001 -0.230197 0.713000 9570849
-0.256360 -0.226440 0.714000 9505317
-0.257437 -0.223294 0.717000 9505062
-0.258155 -0.219809 0.719000 9441058
-0.258514 -0.216000 0.720000 7606818
-0.259232 -0.212474 0.722000 2104877
-0.260310 -0.209214 0.725000 2234658
-0.260669 -0.205354 0.726000 2103077
-0.261387 -0.201760 0.728000 1840418
-0.261746 -0.197871 0.729000 2102817
-0.262464 -0.194237 0.731000 2102561
-0.263541 -0.190840 0.734000 1770523
-0.264259 -0.187154 0.736000 7607841
-0.263541 -0.182451 0.734000 10299958
-0.266413 -0.180200 0.742000 9969718
-0.267490 -0.176671 0.745000 9837107
-0.268209 -0.172877 0.747000 8984350
-0.268568 -0.168834 0.748000 13614696
-0.269286 -0.165000 0.750000 9585197
-0.270004 -0.161143 0.752000 9571890
-0.270363 -0.157054 0.753000 9703983
-0.271440 -0.153360 0.756000 9704240
-0.272876 -0.149829 0.760000 9969709
-0.273235 -0.145677 0.761000 10102564
-0.274671 -0.142071 0.765000 10564409
-0.275749 -0.138240 0.768000 11362636
-0.276467 -0.134200 0.770000 12946765
-0.277544 -0.130306 0.773000 13871960
-0.278980 -0.126540 0.777000 14593631
-0.280057 -0.122571 0.780000 7703406
-0.280057 -0.118114 0.780000 399414
-0.280775 -0.113949 0.782000 1314828
-0.281493 -0.109760 0.784000 1970204
-0.282930 -0.105817 0.788000 1904917
-0.283289 -0.101443 0.789000 2495767
-0.283289 -0.096934 0.789000 3022362
-0.254643 -0.250569 0.713000 10820924
-0.252857 -0.244766 0.708000 10356004
-0.253571 -0.241400 0.710000 10421025
-0.253929 -0.237677 0.711000 9962784
-0.254643 -0.234271 0.713000 9766943
-0.255000 -0.230520 0.714000 9570338
-0.255714 -0.227074 0.716000 9570344
-0.256071 -0.223294 0.717000 9570085
-0.256786 -0.219809 0.719000 9440802
-0.257143 -0.216000 0.720000 6886181
-0.257857 -0.212474 0.722000 2104364
-0.258929 -0.209214 0.725000 2234913
-0.260000 -0.205920 0.728000 2103073
-0.260000 -0.201760 0.728000 1971489
-0.260357 -0.197871 0.729000 2102823
-0.261071 -0.194237 0.731000 2560289
-0.262143 -0.190840 0.734000 3803924
-0.263214 -0.187409 0.737000 8922914
-0.262143 -0.182451 0.734000 9902895
-0.265000 -0.180200 0.742000 9968695
-0.266071 -0.176671 0.745000 9902908
-0.266786 -0.172877 0.747000 9961762
-0.267143 -0.168834 0.748000 13216884
-0.267857 -0.165000 0.750000 9452075
-0.268571 -0.161143 0.752000 9637936
-0.269643 -0.157471 0.755000 9703729
-0.270000 -0.153360 0.756000 9770032
-0.271429 -0.149829 0.760000 9901357
-0.272500 -0.146060 0.763000 10100507
-0.273214 -0.142071 0.765000 10498878
-0.274286 -0.138240 0.768000 11628112
-0.275000 -0.134200 0.770000 13014602
-0.276071 -0.130306 0.773000 13608767
-0.277500 -0.126540 0.777000 14069591
-0.278571 -0.122571 0.780000 11119491
-0.278571 -0.118114 0.780000 6051942
-0.279286 -0.113949 0.782000 1050625
-0.280000 -0.109760 0.784000 1838369
-0.281429 -0.105817 0.788000 1905173
-0.281429 -0.101314 0.788000 2167826
-0.281429 -0.096811 0.788000 2824730
-0.253640 -0.255000 0.714000 10105930
-0.253285 -0.250569 0.713000 10754614
-0.252219 -0.245457 0.710000 10159389
-0.252574 -0.241740 0.711000 10617379
-0.253285 -0.238346 0.713000 9897252
-0.253640 -0.234600 0.714000 9766429
-0.253640 -0.230520 0.714000 9570334
-0.254350 -0.227074 0.716000 9570340
-0.254706 -0.223294 0.717000 9570342
-0.255416 -0.219809 0.719000 9439524
-0.255771 -0.216000 0.720000 6098978
-0.256482 -0.212474 0.722000 2104875
-0.257903 -0.209503 0.726000 2234914
-0.258613 -0.205920 0.728000 2168613
-0.258613 -0.201760 0.728000 2037284
-0.258969 -0.197871 0.729000 2102821
-0.259679 -0.194237 0.731000 3017765
-0.261455 -0.191360 0.736000 5836321
-0.262521 -0.187917 0.739000 10173530
-0.263587 -0.184440 0.742000 9570629
-0.263587 -0.180200 0.742000 9967671
-0.263942 -0.176197 0.743000 9969218
-0.265363 -0.172877 0.747000 10963251
-0.265718 -0.168834 0.748000 12818535
-0.266429 -0.165000 0.750000 9251378
-0.267494 -0.161357 0.753000 9704499
-0.268205 -0.157471 0.755000 9703985
-0.268560 -0.153360 0.756000 9770801
-0.270336 -0.150026 0.761000 9769261
-0.271757 -0.146443 0.765000 10033194
-0.272468 -0.142443 0.767000 10432055
-0.272823 -0.138240 0.768000 11819343
-0.274244 -0.134549 0.772000 13077836
-0.274599 -0.130306 0.773000 13411920
-0.275310 -0.126214 0.775000 13477465
-0.277086 -0.122571 0.780000 14530932
-0.277796 -0.118417 0.782000 11640695
-0.278507 -0.114240 0.784000 786739
-0.278507 -0.109760 0.784000 1640988
-0.279928 -0.105817 0.788000 1905178
-0.280283 -0.101443 0.789000 1774358
-0.280283 -0.096934 0.789000 2627096
-0.251220 -0.253929 0.711000 10236490
-0.251220 -0.249866 0.711000 10818864
-0.250867 -0.245457 0.710000 10290198
-0.251927 -0.242420 0.713000 10422052
-0.252280 -0.238680 0.714000 9831464
-0.252987 -0.235257 0.716000 9700891
-0.252987 -0.231166 0.716000 9570587
-0.253340 -0.227391 0.717000 9570080
-0.254047 -0.223917 0.719000 9570086
-0.254400 -0.220114 0.720000 9374757
-0.255107 -0.216600 0.722000 4852000
-0.255460 -0.212769 0.723000 2300714
-0.256167 -0.209214 0.725000 2234659
-0.256520 -0.205354 0.726000 2168873
-0.257227 -0.201760 0.728000 2037031
-0.257580 -0.197871 0.729000 2234147
-0.258287 -0.194237 0.731000 2295592
-0.260053 -0.191360 0.736000 8467245
-0.262173 -0.188680 0.742000 10975379
-0.263233 -0.185186 0.745000 10301531
-0.262173 -0.180200 0.742000 9964598
-0.262527 -0.176197 0.743000 9967176
-0.263940 -0.172877 0.747000 12158277
-0.264293 -0.168834 0.748000 12884313
-0.265707 -0.165440 0.752000 9372729
