# .PCD v.7 - Point Cloud Data file format
VERSION .7
FIELDS x y z rgb
SIZE 4 4 4 4
TYPE F F F I
COUNT 1 1 1 1
WIDTH 1273
HEIGHT 1
POINTS 1273
DATA ascii
-0.295265 -0.171158 0.716000 8587786
-0.296502 -0.167767 0.719000 1706269
-0.297739 -0.164341 0.722000 1314064
-0.298151 -0.160437 0.723000 1641487
-0.298976 -0.156738 0.725000 1182735
-0.300213 -0.153227 0.728000 1182734
-0.300213 -0.149067 0.728000 1116941
-0.300626 -0.145106 0.729000 1116942
-0.300626 -0.140940 0.729000 1182735
-0.301863 -0.137337 0.732000 985870
-0.302688 -0.133518 0.734000 985611
-0.303512 -0.129676 0.736000 1182734
-0.304750 -0.125982 0.739000 1575436
-0.305987 -0.122253 0.742000 1510414
-0.305987 -0.118013 0.742000 1575182
-0.305987 -0.113773 0.742000 1116688
-0.308049 -0.110271 0.747000 1182477
-0.308461 -0.106145 0.748000 1379347
-0.308461 -0.101870 0.748000 1182481
-0.310110 -0.098118 0.752000 2034198
-0.310523 -0.093946 0.753000 1115657
-0.299237 -0.220089 0.729000 10821441
-0.295132 -0.212961 0.719000 10959947
-0.291849 -0.206529 0.711000 11285068
-0.290207 -0.201327 0.707000 11739199
-0.289386 -0.196729 0.705000 10682918
-0.290207 -0.193247 0.707000 10420768
-0.291438 -0.190010 0.710000 9830683
-0.291849 -0.186214 0.711000 9502989
-0.292670 -0.182664 0.713000 9306387
-0.293901 -0.179341 0.716000 9110034
-0.293901 -0.175250 0.716000 8913429
-0.294311 -0.171397 0.717000 8587788
-0.295543 -0.168000 0.720000 1509917
-0.296364 -0.164341 0.722000 1576209
-0.296774 -0.160437 0.723000 1510159
-0.297595 -0.156738 0.725000 1051409
-0.298827 -0.153227 0.728000 1182477
-0.298827 -0.149067 0.728000 1116941
-0.299237 -0.145106 0.729000 1116942
-0.299237 -0.140940 0.729000 1182733
-0.300469 -0.137337 0.732000 1051405
-0.301290 -0.133518 0.734000 1181705
-0.301290 -0.129324 0.734000 1248270
-0.302521 -0.125641 0.737000 1575179
-0.303752 -0.121924 0.740000 1313294
-0.304573 -0.118013 0.742000 1575181
-0.304984 -0.113927 0.743000 1313549
-0.306626 -0.110271 0.747000 1444876
-0.307036 -0.106145 0.748000 1510415
-0.307857 -0.102143 0.750000 1313551
-0.309089 -0.098249 0.753000 1772302
-0.309910 -0.094195 0.755000 1575441
-0.309910 -0.089881 0.755000 1050905
-0.297849 -0.220089 0.729000 10815801
-0.295397 -0.214146 0.723000 11024973
-0.290086 -0.206238 0.710000 11415117
-0.288860 -0.201327 0.707000 11672384
-0.288043 -0.196729 0.705000 10945319
-0.288860 -0.193247 0.707000 10552097
-0.290086 -0.190010 0.710000 10027288
-0.290494 -0.186214 0.711000 9634067
-0.291311 -0.182664 0.713000 9371925
-0.291720 -0.178840 0.714000 9175569
-0.292946 -0.175494 0.717000 8978707
-0.293763 -0.171875 0.719000 8587280
-0.294171 -0.168000 0.720000 1314335
-0.294989 -0.164341 0.722000 1772821
-0.295397 -0.160437 0.723000 1378832
-0.296214 -0.156738 0.725000 920592
-0.297440 -0.153227 0.728000 1182478
-0.297440 -0.149067 0.728000 1116941
-0.297849 -0.145106 0.729000 1182738
-0.297849 -0.140940 0.729000 1182480
-0.299074 -0.137337 0.732000 1182736
-0.299891 -0.133518 0.734000 1378574
-0.300709 -0.129676 0.736000 1313810
-0.301117 -0.125641 0.737000 1509901
-0.302343 -0.121924 0.740000 1051407
-0.302343 -0.117695 0.740000 1575184
-0.303569 -0.113927 0.743000 1509903
-0.305203 -0.110271 0.747000 1641231
-0.305611 -0.106145 0.748000 1707281
-0.306429 -0.102143 0.750000 1379857
-0.307654 -0.098249 0.753000 1576465
-0.308471 -0.094195 0.755000 1969170
-0.308880 -0.090000 0.756000 1773847
-0.308880 -0.085680 0.756000 2427664
-0.296460 -0.220089 0.729000 10756145
-0.292800 -0.213257 0.720000 10958927
-0.288733 -0.206238 0.710000 11480654
-0.287920 -0.201611 0.708000 11737666
-0.287513 -0.197287 0.707000 11208231
-0.287513 -0.193247 0.707000 10748963
-0.288733 -0.190010 0.710000 10224405
-0.289140 -0.186214 0.711000 9896218
-0.289953 -0.182664 0.713000 9568535
-0.290360 -0.178840 0.714000 9306641
-0.291580 -0.175494 0.717000 9044497
-0.292393 -0.171875 0.719000 8391700
-0.292800 -0.168000 0.720000 1314337
-0.293613 -0.164341 0.722000 1707546
-0.294020 -0.160437 0.723000 1510417
-0.294833 -0.156738 0.725000 1182991
-0.296053 -0.153227 0.728000 1182734
-0.296053 -0.149067 0.728000 1182478
-0.296460 -0.145106 0.729000 1313557
-0.296460 -0.140940 0.729000 1444628
-0.297680 -0.137337 0.732000 1378835
-0.298493 -0.133518 0.734000 1574932
-0.299307 -0.129676 0.736000 1510421
-0.299713 -0.125641 0.737000 1640975
-0.300933 -0.121924 0.740000 1379343
-0.300933 -0.117695 0.740000 1772051
-0.301747 -0.113773 0.742000 1772817
-0.303780 -0.110271 0.747000 1838099
-0.303780 -0.106003 0.747000 1707538
-0.304187 -0.101870 0.748000 1642003
-0.306220 -0.098249 0.753000 1838611
-0.307033 -0.094195 0.755000 1969683
-0.307440 -0.090000 0.756000 1708309
-0.308253 -0.085907 0.758000 2297119
-0.309067 -0.081790 0.760000 1444889
-0.295071 -0.220089 0.729000 10687537
-0.292238 -0.213850 0.722000 10893389
-0.287786 -0.206529 0.711000 11611215
-0.286571 -0.201611 0.708000 11802436
-0.286167 -0.197287 0.707000 11405099
-0.286571 -0.193520 0.708000 10880803
-0.287381 -0.190010 0.710000 10486808
-0.288595 -0.186738 0.713000 10093084
-0.288595 -0.182664 0.713000 9765146
-0.289000 -0.178840 0.714000 9372177
-0.289810 -0.175250 0.716000 9110033
-0.291024 -0.171875 0.719000 8193813
-0.292238 -0.168467 0.722000 1315106
-0.292238 -0.164341 0.722000 1642262
-0.292643 -0.160437 0.723000 1641750
-0.293452 -0.156738 0.725000 1379603
-0.293857 -0.152806 0.726000 1182739
-0.294667 -0.149067 0.728000 1182994
-0.295071 -0.145106 0.729000 1509910
-0.295071 -0.140940 0.729000 1707285
-0.296286 -0.137337 0.732000 1575447
-0.297095 -0.133518 0.734000 1707031
-0.297905 -0.129676 0.736000 1707285
-0.298310 -0.125641 0.737000 1772818
-0.299524 -0.121924 0.740000 1707538
-0.299524 -0.117695 0.740000 1969429
-0.300333 -0.113773 0.742000 1969683
-0.302357 -0.110271 0.747000 1969428
-0.302357 -0.106003 0.747000 1707540
-0.302762 -0.101870 0.748000 1903639
-0.304786 -0.098249 0.753000 2100756
-0.305595 -0.094195 0.755000 1969685
-0.306000 -0.090000 0.756000 1708821
-0.306810 -0.085907 0.758000 2101273
-0.307619 -0.081790 0.760000 2297879
-0.308833 -0.077753 0.763000 2690833
-0.307619 -0.073105 0.760000 1246990
-0.293683 -0.220089 0.729000 10756144
-0.290863 -0.213850 0.722000 10958923
-0.286431 -0.206529 0.711000 11807824
-0.286029 -0.202181 0.710000 11867463
-0.284820 -0.197287 0.707000 11601967
-0.285223 -0.193520 0.708000 10946084
-0.286029 -0.190010 0.710000 10683675
-0.287237 -0.186738 0.713000 10355741
-0.287640 -0.182920 0.714000 10027804
-0.288446 -0.179341 0.716000 9634322
-0.288446 -0.175250 0.716000 9437969
-0.289654 -0.171875 0.719000 7604502
-0.290863 -0.168467 0.722000 1577507
-0.291266 -0.164569 0.723000 1904915
-0.292071 -0.160881 0.725000 1773083
-0.292071 -0.156738 0.725000 1576472
-0.293280 -0.153227 0.728000 1379607
-0.293683 -0.149271 0.729000 1379607
-0.293683 -0.145106 0.729000 1576471
-0.294489 -0.141327 0.731000 1773591
-0.295697 -0.137712 0.734000 1773082
-0.296503 -0.133882 0.736000 1773594
-0.296503 -0.129676 0.736000 1708053
-0.296906 -0.125641 0.737000 1773589
-0.298114 -0.121924 0.740000 1773589
-0.298114 -0.117695 0.740000 2166295
-0.298920 -0.113773 0.742000 2035220
-0.300934 -0.110271 0.747000 2035221
-0.300934 -0.106003 0.747000 1773333
-0.302143 -0.102143 0.750000 1968667
-0.304157 -0.098510 0.755000 1970197
-0.304560 -0.094320 0.756000 2100760
-0.305366 -0.090238 0.758000 1839125
-0.306171 -0.086133 0.760000 1904915
-0.306171 -0.081790 0.760000 2167061
-0.307380 -0.077753 0.763000 2429201
-0.306574 -0.073201 0.761000 1773335
-0.307380 -0.069033 0.763000 1707280
-0.292294 -0.220089 0.729000 10814771
-0.289488 -0.213850 0.722000 11023949
-0.285879 -0.207110 0.713000 12069453
-0.284676 -0.202181 0.710000 11932221
-0.283874 -0.197566 0.708000 11732527
-0.284676 -0.194067 0.710000 10946090
-0.285077 -0.190277 0.711000 10945306
-0.286280 -0.187000 0.714000 10617889
-0.286280 -0.182920 0.714000 10290206
-0.287082 -0.179341 0.716000 9831190
-0.287082 -0.175250 0.716000 9765145
-0.288686 -0.172114 0.720000 7013658
-0.289488 -0.168467 0.722000 1840683
-0.289889 -0.164569 0.723000 2167836
-0.290690 -0.160881 0.725000 1904415
-0.290690 -0.156738 0.725000 1708314
-0.291893 -0.153227 0.728000 1642009
-0.292294 -0.149271 0.729000 1576985
-0.293096 -0.145504 0.731000 1708054
-0.293096 -0.141327 0.731000 1839386
-0.294299 -0.137712 0.734000 2035994
-0.295101 -0.133882 0.736000 1839642
-0.295101 -0.129676 0.736000 1773849
-0.295502 -0.125641 0.737000 1773849
-0.296705 -0.121924 0.740000 1905432
-0.297507 -0.118013 0.742000 2297112
-0.298710 -0.114233 0.745000 2100759
-0.299511 -0.110271 0.747000 2035478
-0.299511 -0.106003 0.747000 1904405
-0.301516 -0.102415 0.752000 1969687
-0.302719 -0.098510 0.755000 1774361
-0.303120 -0.094320 0.756000 2232342
-0.303922 -0.090238 0.758000 2035477
-0.304724 -0.086133 0.760000 1708308
-0.305125 -0.081898 0.761000 2035990
-0.305927 -0.077753 0.763000 2101268
-0.305927 -0.073393 0.763000 2298137
-0.306729 -0.069214 0.765000 2560529
-0.290906 -0.220089 0.729000 10886454
-0.288511 -0.214146 0.723000 11024463
-0.283723 -0.206529 0.711000 12003401
-0.283324 -0.202181 0.710000 11930932
-0.282526 -0.197566 0.708000 11732527
-0.283324 -0.194067 0.710000 10683440
-0.284521 -0.190812 0.713000 11076120
-0.285718 -0.187524 0.716000 10814756
-0.285718 -0.183432 0.716000 10487327
-0.285718 -0.179341 0.716000 10159387
-0.286117 -0.175494 0.717000 10027808
-0.287314 -0.172114 0.720000 6685727
-0.288112 -0.168467 0.722000 2300210
-0.288511 -0.164569 0.723000 2365477
-0.288511 -0.160437 0.723000 2102562
-0.289310 -0.156738 0.725000 1970973
-0.290507 -0.153227 0.728000 1905690
-0.290906 -0.149271 0.729000 1840154
-0.290906 -0.145106 0.729000 2102036
-0.291704 -0.141327 0.731000 2167580
-0.293699 -0.138088 0.736000 2167578
-0.294098 -0.134064 0.737000 1971482
-0.294098 -0.129852 0.737000 1904669
-0.294098 -0.125641 0.737000 1970717
-0.295295 -0.121924 0.740000 1904667
-0.296093 -0.118013 0.742000 2362392
-0.297290 -0.114233 0.745000 2101018
-0.298089 -0.110271 0.747000 2166552
-0.298089 -0.106003 0.747000 1969940
-0.300084 -0.102415 0.752000 2101012
-0.301281 -0.098510 0.755000 1774109
-0.301680 -0.094320 0.756000 2232341
-0.303276 -0.090476 0.760000 2035476
-0.303276 -0.086133 0.760000 1904149
-0.303675 -0.081898 0.761000 1970710
-0.304473 -0.077753 0.763000 2166807
-0.305271 -0.073586 0.765000 2166554
-0.305271 -0.069214 0.765000 2363667
-0.306469 -0.065097 0.768000 2495254
-0.289120 -0.219787 0.728000 10946624
-0.287134 -0.214146 0.723000 10957904
-0.283560 -0.207400 0.714000 12001864
-0.281971 -0.202181 0.710000 11864371
-0.281971 -0.198124 0.710000 11797804
-0.281971 -0.194067 0.710000 10355752
-0.283163 -0.190812 0.713000 11206931
-0.284354 -0.187524 0.716000 11011880
-0.284354 -0.183432 0.716000 10684451
-0.284354 -0.179341 0.716000 10421789
-0.284751 -0.175494 0.717000 10289956
-0.285943 -0.172114 0.720000 6295334
-0.286737 -0.168467 0.722000 2760500
-0.287134 -0.164569 0.723000 2562857
-0.287134 -0.160437 0.723000 2299431
-0.287929 -0.156738 0.725000 2234146
-0.289120 -0.153227 0.728000 2234909
-0.289517 -0.149271 0.729000 2103070
-0.290311 -0.145504 0.731000 2495768
-0.290709 -0.141520 0.732000 2429981
-0.292297 -0.138088 0.736000 2298655
-0.293489 -0.134428 0.739000 2036765
-0.293489 -0.130205 0.739000 2101279
-0.293886 -0.126152 0.740000 2101279
-0.293886 -0.121924 0.740000 1969947
-0.295077 -0.118172 0.743000 2362907
-0.296666 -0.114540 0.747000 2166301
-0.296666 -0.110271 0.747000 2232861
-0.296666 -0.106003 0.747000 2100762
-0.298651 -0.102415 0.752000 2232602
-0.299049 -0.098249 0.753000 1773086
-0.299843 -0.094195 0.755000 2166808
-0.301829 -0.090476 0.760000 1969685
-0.301829 -0.086133 0.760000 2101267
-0.302226 -0.081898 0.761000 1970966
-0.303020 -0.077753 0.763000 2167063
-0.303814 -0.073586 0.765000 2100508
-0.304609 -0.069395 0.767000 2101522
-0.305006 -0.065097 0.768000 2495766
-0.305800 -0.060867 0.770000 2822947
-0.287733 -0.219787 0.728000 11084106
-0.285757 -0.214146 0.723000 11089233
-0.282200 -0.207400 0.714000 12066119
-0.281014 -0.202466 0.711000 11797554
-0.280619 -0.198124 0.710000 11535656
-0.281014 -0.194340 0.711000 10617375
-0.283386 -0.191883 0.717000 11076110
-0.283386 -0.187786 0.717000 11077419
-0.282990 -0.183432 0.716000 10749990
-0.283386 -0.179591 0.717000 10618912
-0.284176 -0.175984 0.719000 10422568
-0.284571 -0.172114 0.720000 5510701
-0.285362 -0.168467 0.722000 3023670
-0.285757 -0.164569 0.723000 2760750
-0.286548 -0.160881 0.725000 2431788
-0.286548 -0.156738 0.725000 2497062
-0.287733 -0.153227 0.728000 2366239
-0.288129 -0.149271 0.729000 2300193
-0.289314 -0.145703 0.732000 2496028
-0.289314 -0.141520 0.732000 2495773
-0.291290 -0.138275 0.737000 2365219
-0.292081 -0.134428 0.739000 2233889
-0.292476 -0.130381 0.740000 2298401
-0.292476 -0.126152 0.740000 2429218
-0.293267 -0.122253 0.742000 2429210
-0.293662 -0.118172 0.743000 2166558
-0.295638 -0.114693 0.748000 1839135
-0.295638 -0.110419 0.748000 1840674
-0.295638 -0.106145 0.748000 1707808
-0.297219 -0.102415 0.752000 1839391
-0.297614 -0.098249 0.753000 1970462
-0.299590 -0.094570 0.758000 2363674
-0.300381 -0.090476 0.760000 2101013
-0.300776 -0.086247 0.761000 2166802
-0.300776 -0.081898 0.761000 2036246
-0.301567 -0.077753 0.763000 2232599
-0.302357 -0.073586 0.765000 2035485
-0.303148 -0.069395 0.767000 2166802
-0.304333 -0.065267 0.770000 2364182
-0.305124 -0.061025 0.772000 2757406
-0.285167 -0.218881 0.725000 11206992
-0.285167 -0.214738 0.725000 11220306
-0.280840 -0.207400 0.714000 12129091
-0.279660 -0.202466 0.711000 11732015
-0.279267 -0.198124 0.710000 11338792
-0.280840 -0.195160 0.714000 10814238
-0.282020 -0.191883 0.717000 11010836
-0.282807 -0.188310 0.719000 11142437
-0.282807 -0.184201 0.719000 10881315
-0.283200 -0.180343 0.720000 10750244
-0.283200 -0.176229 0.720000 10488103
-0.283987 -0.172592 0.722000 4724524
-0.284380 -0.168700 0.723000 3351352
-0.284380 -0.164569 0.723000 2956847
-0.285167 -0.160881 0.725000 2563117
-0.285560 -0.156954 0.726000 2759208
-0.286740 -0.153437 0.729000 2497313
-0.287527 -0.149681 0.731000 2497061
-0.288707 -0.146101 0.734000 2561823
-0.289493 -0.142293 0.736000 2561827
-0.289887 -0.138275 0.737000 2497061
-0.290673 -0.134428 0.739000 2430503
-0.291067 -0.130381 0.740000 2561310
-0.291067 -0.126152 0.740000 2691352
-0.291853 -0.122253 0.742000 2887954
-0.293033 -0.118490 0.745000 1969172
-0.295000 -0.115000 0.750000 1510929
-0.295000 -0.110714 0.750000 1444627
-0.295000 -0.106429 0.750000 1313810
-0.296180 -0.102551 0.753000 1444370
-0.296967 -0.098510 0.755000 2166545
-0.298147 -0.094570 0.758000 2559767
-0.299327 -0.090595 0.761000 2232606
-0.299327 -0.086247 0.761000 2232856
-0.299327 -0.081898 0.761000 2167568
-0.300900 -0.077957 0.765000 2232855
-0.301687 -0.073778 0.767000 2035481
-0.302080 -0.069486 0.768000 2167059
-0.303653 -0.065436 0.772000 2167834
-0.303653 -0.061025 0.772000 2626330
-0.304833 -0.056833 0.775000 2955799
-0.283786 -0.218881 0.725000 11154518
-0.283786 -0.214738 0.725000 11548499
-0.280263 -0.207981 0.716000 11998014
-0.279089 -0.203035 0.713000 11731756
-0.278306 -0.198403 0.711000 11273256
-0.280263 -0.195707 0.716000 10813980
-0.280654 -0.191883 0.717000 11010841
-0.281437 -0.188310 0.719000 11142174
-0.281829 -0.184457 0.720000 10881056
-0.281829 -0.180343 0.720000 10815272
-0.281829 -0.176229 0.720000 10489637
-0.282611 -0.172592 0.722000 3870508
-0.283003 -0.168700 0.723000 3286073
-0.283786 -0.165024 0.725000 2956592
-0.284177 -0.161103 0.726000 2759982
-0.284177 -0.156954 0.726000 2824490
-0.285351 -0.153437 0.729000 2694435
-0.286134 -0.149681 0.731000 2759977
-0.287309 -0.146101 0.734000 2693409
-0.288091 -0.142293 0.736000 2824233
-0.289266 -0.138650 0.739000 2169127
-0.289266 -0.134428 0.739000 1972270
-0.289657 -0.130381 0.740000 1903898
-0.290440 -0.126493 0.742000 1772558
-0.290831 -0.122418 0.743000 2492937
-0.292397 -0.118809 0.747000 3278090
-0.293571 -0.115000 0.750000 3933955
-0.294354 -0.111010 0.752000 4260100
-0.293571 -0.106429 0.750000 4261636
-0.295529 -0.102824 0.755000 3998470
-0.295529 -0.098510 0.755000 3213316
-0.296703 -0.094570 0.758000 2230803
-0.297877 -0.090595 0.761000 1772583
-0.297877 -0.086247 0.761000 1971487
-0.298660 -0.082113 0.763000 2233354
-0.299443 -0.077957 0.765000 2232599
-0.300226 -0.073778 0.767000 2101269
-0.300617 -0.069486 0.768000 2232596
-0.301400 -0.065267 0.770000 2232862
-0.302574 -0.061104 0.773000 2429205
-0.304923 -0.057127 0.779000 2692627
-0.282405 -0.218881 0.725000 11153025
-0.282405 -0.214738 0.725000 11808840
-0.278899 -0.207981 0.716000 11930942
-0.278120 -0.203320 0.714000 11731756
-0.278899 -0.199798 0.716000 11207722
-0.279289 -0.195980 0.717000 10814236
-0.280457 -0.192686 0.720000 11076127
-0.280457 -0.188571 0.720000 11142180
-0.281236 -0.184970 0.722000 10946338
-0.281236 -0.180844 0.722000 10815268
-0.280457 -0.176229 0.720000 10490146
-0.281236 -0.172592 0.722000 3020843
-0.281626 -0.168700 0.723000 3154229
-0.283573 -0.165707 0.728000 2956589
-0.282794 -0.161103 0.726000 2890543
-0.283573 -0.157387 0.728000 2890538
-0.284742 -0.153858 0.731000 2891554
-0.285131 -0.149886 0.732000 2956841
-0.285910 -0.146101 0.734000 2759205
-0.286690 -0.142293 0.736000 3021096
-0.287079 -0.138275 0.737000 1905949
-0.287858 -0.134428 0.739000 1445151
-0.289027 -0.130733 0.742000 1245470
-0.289027 -0.126493 0.742000 788263
-0.289416 -0.122418 0.743000 2162987
-0.290974 -0.118809 0.747000 4525606
-0.292143 -0.115000 0.750000 6292522
-0.292922 -0.111010 0.752000 7082799
-0.293311 -0.106854 0.753000 7276343
-0.294090 -0.102824 0.755000 6558767
-0.294090 -0.098510 0.755000 4325668
-0.296038 -0.094819 0.760000 1838372
-0.296038 -0.090476 0.760000 1311766
-0.296428 -0.086247 0.761000 1641747
-0.297207 -0.082113 0.763000 2299159
-0.297986 -0.077957 0.765000 2166814
-0.298765 -0.073778 0.767000 2167062
-0.299154 -0.069486 0.768000 2232851
-0.300712 -0.065436 0.772000 2297884
-0.301102 -0.061104 0.773000 2167318
-0.303439 -0.057127 0.779000 2429201
-0.279861 -0.213850 0.722000 11938621
-0.277923 -0.208271 0.717000 11931197
-0.277923 -0.204174 0.717000 11797547
-0.278698 -0.200635 0.719000 11142188
-0.279861 -0.197347 0.722000 10879772
-0.280249 -0.193489 0.723000 11142180
-0.279861 -0.189095 0.722000 11142187
-0.280249 -0.185226 0.723000 10945828
-0.280249 -0.181094 0.723000 10814753
-0.279861 -0.176718 0.722000 9835038
-0.280249 -0.172831 0.723000 2823210
-0.281024 -0.169167 0.725000 3088433
-0.282187 -0.165707 0.728000 2956842
-0.282574 -0.161769 0.729000 2890799
-0.282187 -0.157387 0.728000 2890794
-0.283737 -0.154069 0.732000 2957344
-0.283737 -0.149886 0.732000 2957097
-0.285288 -0.146499 0.736000 2889257
-0.285675 -0.142487 0.737000 2758183
-0.285675 -0.138275 0.737000 3869715
-0.287613 -0.134973 0.742000 4985360
-0.288001 -0.130910 0.743000 5839393
-0.287613 -0.126493 0.742000 6229569
-0.288001 -0.122418 0.743000 6890572
-0.289939 -0.118968 0.748000 8269633
-0.291490 -0.115307 0.752000 9123664
-0.291877 -0.111157 0.753000 9518681
-0.291877 -0.106854 0.753000 9517929
-0.292652 -0.102824 0.755000 8993112
-0.292652 -0.098510 0.755000 7678020
-0.294590 -0.094819 0.760000 6105141
-0.294978 -0.090595 0.761000 4458756
-0.295753 -0.086473 0.763000 2162952
-0.296529 -0.082329 0.765000 1969444
-0.297304 -0.078161 0.767000 2166821
-0.297304 -0.073778 0.767000 2232342
-0.298467 -0.069667 0.770000 2298130
-0.299630 -0.065521 0.773000 2232601
-0.299630 -0.061104 0.773000 2232598
-0.301955 -0.057127 0.779000 2232590
-0.278486 -0.213850 0.722000 11999572
-0.277329 -0.208852 0.719000 11929141
-0.277329 -0.204744 0.719000 11863074
-0.278486 -0.201472 0.722000 11076654
-0.278486 -0.197347 0.722000 10945306
-0.278871 -0.193489 0.723000 11207714
-0.278871 -0.189357 0.723000 11142438
-0.279643 -0.185738 0.725000 10945823
-0.278871 -0.181094 0.723000 10749216
-0.278486 -0.176718 0.722000 9179161
-0.279643 -0.173310 0.725000 2561324
-0.280800 -0.169867 0.728000 3022378
-0.281957 -0.166390 0.731000 2890789
-0.281957 -0.162212 0.731000 2825004
-0.281957 -0.158035 0.731000 2890793
-0.283114 -0.154490 0.734000 2957604
-0.283114 -0.150295 0.734000 2956076
-0.284271 -0.146698 0.737000 2952490
-0.284271 -0.142487 0.737000 2429483
-0.285429 -0.138838 0.740000 5899579
-0.288129 -0.135883 0.747000 8528450
-0.288129 -0.131614 0.747000 10495823
-0.288129 -0.127346 0.747000 11682657
-0.286586 -0.122418 0.743000 11620709
-0.289286 -0.119286 0.750000 11947101
-0.290443 -0.115460 0.753000 12009830
-0.291214 -0.111452 0.755000 11948137
-0.290443 -0.106854 0.753000 11820650
-0.291214 -0.102824 0.755000 11355237
-0.291600 -0.098640 0.756000 10957385
-0.293143 -0.094819 0.760000 10359590
-0.293529 -0.090595 0.761000 7602497
-0.295071 -0.086700 0.765000 2691628
-0.295843 -0.082544 0.767000 1639207
-0.295843 -0.078161 0.767000 2100772
-0.296229 -0.073874 0.768000 2297629
-0.297000 -0.069667 0.770000 2298390
-0.298157 -0.065521 0.773000 2167578
-0.298929 -0.061262 0.775000 2298904
-0.300857 -0.057200 0.780000 2101524
-0.276343 -0.209143 0.720000 11734572
-0.275959 -0.204744 0.719000 11928345
-0.277110 -0.201472 0.722000 10880048
-0.277110 -0.197347 0.722000 11076120
-0.277494 -0.193489 0.723000 11207968
-0.278646 -0.190143 0.726000 11076642
-0.278646 -0.185994 0.726000 10945818
-0.278646 -0.181846 0.726000 10749471
-0.277494 -0.176963 0.723000 8064532
-0.278262 -0.173310 0.725000 2823983
-0.279797 -0.170100 0.729000 2825251
-0.280565 -0.166390 0.731000 2824993
-0.280565 -0.162212 0.731000 2825000
-0.280949 -0.158251 0.732000 2890537
-0.281716 -0.154490 0.734000 2957095
-0.282484 -0.150705 0.736000 2954543
-0.283635 -0.147096 0.739000 4460842
-0.284019 -0.143067 0.740000 6825518
-0.284019 -0.138838 0.740000 9320034
-0.286706 -0.135883 0.747000 10635893
-0.286706 -0.131614 0.747000 11489661
-0.287857 -0.127857 0.750000 12148866
-0.286706 -0.123077 0.747000 11815805
-0.287857 -0.119286 0.750000 11887224
-0.289009 -0.115460 0.753000 12013436
-0.289776 -0.111452 0.755000 11887224
-0.289009 -0.106854 0.753000 11621482
-0.290160 -0.102960 0.756000 11356786
-0.290928 -0.098901 0.758000 10690125
-0.292079 -0.094944 0.761000 10028823
-0.292079 -0.090595 0.761000 10770558
-0.294382 -0.086927 0.767000 7226191
-0.294766 -0.082651 0.768000 5311017
-0.295533 -0.078467 0.770000 3149604
-0.294766 -0.073874 0.768000 2165796
-0.296301 -0.069848 0.772000 2364186
-0.296685 -0.065521 0.773000 2298906
-0.298220 -0.061420 0.777000 2364442
-0.300139 -0.057347 0.782000 2232857
-0.274971 -0.209143 0.720000 11612010
-0.274590 -0.204744 0.719000 11932239
-0.275735 -0.201472 0.722000 10748187
-0.275735 -0.197347 0.722000 11141906
-0.276881 -0.194024 0.725000 11273515
-0.278027 -0.190667 0.728000 11011368
-0.277263 -0.185994 0.726000 10880288
-0.278027 -0.182347 0.728000 10683933
-0.276117 -0.176963 0.723000 6887190
-0.278027 -0.174027 0.728000 3085609
-0.279172 -0.170567 0.731000 2693667
-0.279554 -0.166617 0.732000 2759457
-0.279554 -0.162434 0.732000 2824996
-0.280318 -0.158684 0.734000 2890534
-0.281082 -0.154910 0.736000 3022118
-0.281464 -0.150910 0.737000 2886445
-0.282228 -0.147096 0.739000 5966135
-0.282610 -0.143067 0.740000 11215407
-0.283755 -0.139401 0.743000 12744028
-0.285665 -0.136065 0.748000 12740223
-0.285665 -0.131790 0.748000 12409728
-0.287192 -0.128198 0.752000 12543109
-0.286429 -0.123571 0.750000 12075912
-0.286429 -0.119286 0.750000 11753084
-0.287574 -0.115460 0.753000 12015492
-0.288338 -0.111452 0.755000 11819897
-0.288720 -0.107280 0.756000 11489135
-0.289484 -0.103232 0.758000 11292270
-0.290248 -0.099162 0.760000 10420548
-0.290630 -0.094944 0.761000 9637695
-0.290630 -0.090595 0.761000 13879190
-0.292921 -0.086927 0.767000 11699850
-0.293303 -0.082651 0.768000 9044514
-0.294067 -0.078467 0.770000 4133418
-0.294067 -0.074067 0.770000 1966890
-0.294830 -0.069848 0.772000 2363420
-0.295212 -0.065521 0.773000 2430230
-0.296740 -0.061420 0.777000 2430235
-0.298650 -0.057347 0.782000 2363680
-0.273600 -0.209143 0.720000 12353703
-0.273220 -0.204744 0.719000 12140934
-0.274360 -0.201472 0.722000 11079941
-0.274360 -0.197347 0.722000 11075852
-0.274740 -0.193489 0.723000 11207989
-0.276640 -0.190667 0.728000 11077677
-0.277020 -0.186763 0.729000 10880805
-0.277020 -0.182597 0.729000 10815516
-0.274740 -0.176963 0.723000 6098200
-0.277780 -0.170567 0.731000 2561570
-0.278920 -0.167072 0.734000 2693665
-0.279680 -0.163322 0.736000 2693407
-0.279680 -0.159116 0.736000 2824483
-0.280060 -0.155121 0.737000 2560804
-0.281200 -0.151524 0.740000 5571628
-0.281200 -0.147295 0.740000 8659779
-0.281960 -0.143453 0.742000 11212848
-0.282340 -0.139401 0.743000 12476758
-0.284240 -0.136065 0.748000 12543114
-0.285000 -0.132143 0.750000 12409986
-0.285760 -0.128198 0.752000 12877192
-0.285000 -0.123571 0.750000 12213906
-0.286140 -0.119763 0.753000 12016768
-0.286900 -0.115767 0.755000 12149132
-0.287280 -0.111600 0.756000 11556218
-0.287280 -0.107280 0.756000 11620980
-0.288040 -0.103232 0.758000 11489641
-0.288800 -0.099162 0.760000 11414843
-0.289180 -0.094944 0.761000 10761062
-0.289940 -0.090833 0.763000 13675694
-0.291460 -0.086927 0.767000 12367812
-0.291840 -0.082651 0.768000 9569818
-0.293360 -0.078670 0.772000 7548464
-0.292600 -0.074067 0.770000 4656688
-0.293360 -0.069848 0.772000 1707550
-0.294500 -0.065690 0.775000 2495762
-0.296020 -0.061578 0.779000 2364700
-0.297160 -0.057347 0.782000 2363943
-0.272985 -0.201472 0.722000 11353952
-0.272985 -0.197347 0.722000 10951246
-0.273363 -0.193489 0.723000 11141938
-0.276766 -0.191714 0.732000 11077415
-0.276388 -0.187275 0.731000 10816290
-0.276388 -0.183098 0.731000 10882845
-0.274119 -0.177452 0.725000 5374499
-0.276388 -0.170567 0.731000 2429987
-0.276766 -0.166617 0.732000 2561824
-0.278278 -0.163322 0.736000 2627614
-0.278278 -0.159116 0.736000 2758689
-0.278656 -0.155121 0.737000 2099497
-0.280547 -0.151933 0.742000 8196638
-0.280547 -0.147693 0.742000 11412271
-0.281681 -0.144033 0.745000 11145527
-0.281681 -0.139776 0.745000 12278123
-0.282815 -0.136065 0.748000 12344449
-0.283571 -0.132143 0.750000 12411772
-0.284328 -0.128198 0.752000 13198980
-0.284328 -0.123901 0.752000 12346255
-0.284706 -0.119763 0.753000 12213376
-0.285462 -0.115767 0.755000 12347268
-0.285840 -0.111600 0.756000 11225725
-0.286596 -0.107564 0.758000 11819128
-0.287352 -0.103505 0.760000 11619940
-0.287730 -0.099292 0.761000 12412250
-0.288487 -0.095193 0.763000 11823750
-0.288487 -0.090833 0.763000 13550019
-0.290377 -0.087040 0.768000 12943802
-0.291890 -0.083082 0.772000 10093350
-0.292268 -0.078772 0.773000 10885683
-0.291890 -0.074259 0.772000 7345965
-0.292268 -0.069938 0.773000 1051430
-0.293024 -0.065690 0.775000 2560800
-0.294536 -0.061578 0.779000 2233886
-0.276124 -0.192238 0.734000 10813728
-0.276124 -0.188044 0.734000 10684446
-0.276124 -0.183850 0.734000 10885150
-0.276124 -0.171267 0.734000 2430243
-0.276876 -0.167528 0.736000 2627103
-0.276876 -0.163322 0.736000 2496540
-0.276876 -0.159116 0.736000 2431007
-0.277252 -0.155121 0.737000 3672365
-0.278381 -0.151524 0.740000 9244176
-0.278381 -0.147295 0.740000 10816282
-0.279510 -0.143647 0.743000 10946367
-0.280262 -0.139776 0.745000 12277632
-0.281014 -0.135883 0.747000 12343929
-0.281390 -0.131790 0.748000 12409717
-0.282143 -0.127857 0.750000 12605568
-0.282143 -0.123571 0.750000 12412555
-0.282895 -0.119604 0.752000 12344448
-0.284024 -0.115767 0.755000 12344444
-0.284400 -0.111600 0.756000 11750017
-0.285152 -0.107564 0.758000 11950972
-0.285905 -0.103505 0.760000 11684192
-0.286281 -0.099292 0.761000 12347000
-0.287033 -0.095193 0.763000 11504038
-0.287786 -0.091071 0.765000 13546967
-0.289667 -0.087267 0.770000 12151217
-0.290419 -0.083082 0.772000 10361649
-0.290795 -0.078772 0.773000 10816055
-0.290419 -0.074259 0.772000 9247530
-0.291548 -0.070119 0.775000 4721967
-0.292300 -0.065860 0.777000 2166573
-0.293429 -0.061657 0.780000 2430496
-0.274726 -0.192238 0.734000 10562139
-0.275849 -0.188812 0.737000 10553157
-0.275849 -0.184601 0.737000 10884637
-0.276597 -0.180879 0.739000 2887222
-0.275849 -0.171967 0.737000 2495777
-0.276597 -0.168210 0.739000 2627617
-0.276597 -0.163988 0.739000 2366239
-0.275849 -0.159332 0.737000 2036005
-0.276971 -0.155752 0.740000 5243415
-0.277720 -0.151933 0.742000 10293833
-0.276971 -0.147295 0.740000 10289464
-0.278094 -0.143647 0.743000 10749247
-0.278843 -0.139776 0.745000 12346757
-0.279591 -0.135883 0.747000 12277879
-0.279966 -0.131790 0.748000 12342647
-0.280714 -0.127857 0.750000 12015745
-0.281463 -0.123901 0.752000 12482695
-0.281837 -0.119763 0.753000 12475262
-0.282586 -0.115767 0.755000 12409220
-0.282960 -0.111600 0.756000 12212095
-0.283709 -0.107564 0.758000 12148357
-0.284831 -0.103641 0.761000 11746662
-0.285580 -0.099553 0.763000 12343186
-0.285580 -0.095193 0.763000 11096492
-0.286329 -0.091071 0.765000 13552855
-0.287451 -0.087040 0.768000 11297191
-0.288200 -0.082867 0.770000 10626865
-0.288949 -0.078670 0.772000 10688832
-0.288949 -0.074259 0.772000 11145801
-0.289323 -0.069938 0.773000 8393278
-0.290820 -0.065860 0.777000 1837607
-0.291569 -0.061578 0.779000 2560806
-0.291943 -0.057200 0.780000 2364705
-0.273328 -0.192238 0.734000 11432341
-0.274445 -0.188812 0.737000 10631019
-0.274445 -0.184601 0.737000 7538205
-0.275562 -0.181124 0.740000 2889021
-0.275562 -0.172667 0.740000 2627359
-0.275562 -0.168438 0.740000 2693668
-0.275562 -0.164210 0.740000 2628385
-0.275562 -0.159981 0.740000 1576492
-0.276307 -0.156173 0.742000 7871745
-0.276307 -0.151933 0.742000 12462210
-0.276307 -0.147693 0.742000 11284053
-0.277424 -0.144033 0.745000 11141439
-0.278169 -0.140151 0.747000 12147594
-0.278169 -0.135883 0.747000 12211574
-0.279286 -0.132143 0.750000 12342393
-0.280030 -0.128198 0.752000 12211842
-0.280030 -0.123901 0.752000 12476547
-0.280403 -0.119763 0.753000 12540540
-0.281520 -0.115920 0.756000 12541836
-0.281520 -0.111600 0.756000 12411517
-0.282265 -0.107564 0.758000 12347277
-0.283382 -0.103641 0.761000 11746669
-0.284127 -0.099553 0.763000 13004460
-0.284127 -0.095193 0.763000 11220915
-0.285616 -0.091310 0.767000 13354455
-0.286733 -0.087267 0.770000 11618717
-0.287478 -0.083082 0.772000 10822961
-0.287478 -0.078670 0.772000 10820169
-0.287478 -0.074259 0.772000 11155303
-0.288595 -0.070119 0.775000 10031438
-0.289340 -0.065860 0.777000 3673889
-0.290457 -0.061657 0.780000 2691371
-0.273782 -0.189325 0.739000 10648980
-0.273782 -0.185102 0.739000 4137556
-0.274893 -0.181613 0.742000 2956850
-0.274893 -0.173133 0.742000 2759204
-0.274893 -0.168893 0.742000 2759206
-0.274893 -0.164653 0.742000 2890530
-0.274893 -0.160413 0.742000 1116709
-0.274893 -0.156173 0.742000 10558493
-0.276005 -0.152548 0.745000 14583452
-0.276746 -0.148689 0.747000 12279433
-0.276746 -0.144420 0.747000 11482457
-0.276746 -0.140151 0.747000 11949696
-0.277116 -0.136065 0.748000 12078710
-0.277857 -0.132143 0.750000 12275831
-0.278598 -0.128198 0.752000 12410500
-0.278969 -0.124066 0.753000 12538755
-0.279710 -0.120081 0.755000 12540547
-0.280080 -0.115920 0.756000 12741765
-0.280821 -0.111895 0.758000 12542332
-0.281562 -0.107848 0.760000 12545929
-0.281932 -0.103641 0.761000 11747442
-0.282673 -0.099553 0.763000 13738933
-0.283414 -0.095443 0.765000 11370921
-0.284155 -0.091310 0.767000 13228252
-0.286008 -0.087493 0.772000 11884178
-0.286378 -0.083190 0.773000 10944845
-0.286378 -0.078772 0.773000 10952777
-0.286008 -0.074259 0.772000 11169133
-0.287119 -0.070119 0.775000 11678307
-0.287860 -0.065860 0.777000 5508668
-0.288601 -0.061578 0.779000 2821675
-0.271637 -0.188812 0.737000 11376829
-0.272374 -0.185102 0.739000 7100299
-0.273480 -0.181613 0.742000 3219239
-0.273480 -0.173133 0.742000 2956585
-0.273849 -0.169121 0.743000 2890280
-0.273849 -0.164875 0.743000 2759202
-0.273480 -0.160413 0.742000 3736095
-0.275323 -0.157226 0.747000 11353657
-0.275323 -0.152957 0.747000 14065334
-0.275323 -0.148689 0.747000 12353212
-0.275691 -0.144613 0.748000 11555700
-0.275691 -0.140339 0.748000 11749749
-0.276429 -0.136429 0.750000 11947382
-0.277166 -0.132495 0.752000 12144756
-0.277166 -0.128198 0.752000 12347782
-0.278271 -0.124395 0.755000 12407682
-0.278640 -0.120240 0.756000 12473994
-0.279377 -0.116227 0.758000 12410750
-0.280114 -0.112190 0.760000 12607099
-0.280483 -0.107990 0.761000 12740484
-0.281220 -0.103913 0.763000 11809910
-0.281957 -0.099814 0.765000 13672126
-0.281957 -0.095443 0.765000 11825823
-0.283063 -0.091429 0.768000 13416928
-0.284537 -0.087493 0.772000 12349064
-0.284906 -0.083190 0.773000 11019624
-0.284906 -0.078772 0.773000 11079241
-0.284906 -0.074355 0.773000 11158130
-0.286380 -0.070300 0.777000 12084088
-0.287117 -0.066030 0.779000 8335702
-0.287486 -0.061657 0.780000 2033450
-0.287486 -0.057200 0.780000 2496806
-0.270233 -0.188812 0.737000 12100793
-0.270967 -0.185102 0.739000 10061989
-0.270967 -0.180879 0.739000 3484257
-0.272067 -0.173133 0.742000 3220014
-0.272067 -0.168893 0.742000 2956842
-0.273167 -0.165319 0.745000 2694695
-0.273167 -0.161062 0.745000 6360864
-0.274267 -0.157436 0.748000 12216152
-0.274267 -0.153162 0.748000 13474479
-0.275000 -0.149286 0.750000 12349632
-0.275733 -0.145387 0.752000 11618925
-0.275733 -0.141090 0.752000 11550576
-0.275733 -0.136792 0.752000 11816818
-0.276100 -0.132671 0.753000 12013681
-0.276100 -0.128369 0.753000 12279423
-0.277200 -0.124560 0.756000 12275325
-0.277933 -0.120558 0.758000 12409476
-0.278667 -0.116533 0.760000 12143487
-0.278667 -0.112190 0.760000 12608131
-0.279767 -0.108273 0.763000 13000325
-0.279767 -0.103913 0.763000 11812461
-0.280500 -0.099814 0.765000 13601681
-0.281233 -0.095692 0.767000 12222624
-0.281600 -0.091429 0.768000 13614566
-0.283067 -0.087493 0.772000 12736385
-0.283433 -0.083190 0.773000 11092074
-0.284167 -0.078976 0.775000 11213131
-0.284167 -0.074548 0.775000 11158649
-0.285633 -0.070481 0.779000 12408956
-0.286733 -0.066284 0.782000 11090775
-0.286733 -0.061815 0.782000 1249077
-0.286000 -0.057200 0.780000 2759205
-0.269559 -0.185102 0.739000 10922175
-0.270653 -0.168893 0.742000 3153965
-0.272477 -0.165763 0.747000 2758956
-0.272842 -0.161710 0.748000 8130594
-0.272842 -0.157436 0.748000 12541302
-0.273571 -0.153571 0.750000 13863336
-0.274301 -0.149684 0.752000 12150724
-0.274666 -0.145580 0.753000 11749478
-0.274666 -0.141277 0.753000 11749227
-0.274666 -0.136974 0.753000 11817582
-0.275395 -0.133024 0.755000 11947629
-0.275760 -0.128880 0.756000 12213624
-0.276490 -0.124890 0.758000 12144248
-0.277219 -0.120876 0.760000 12345470
-0.277584 -0.116687 0.761000 12211328
-0.277584 -0.112338 0.761000 12676236
-0.278313 -0.108273 0.763000 12672901
-0.279043 -0.104186 0.765000 11735141
-0.279772 -0.100075 0.767000 12401507
-0.279772 -0.095692 0.767000 13669026
-0.280867 -0.091667 0.770000 13743851
-0.281961 -0.087607 0.773000 12010361
-0.281961 -0.083190 0.773000 11552875
-0.282690 -0.078976 0.775000 11077197
-0.284150 -0.074932 0.779000 11752319
-0.284514 -0.070571 0.780000 12279169
-0.285973 -0.066453 0.784000 11285336
-0.286703 -0.062131 0.786000 5052480
-0.269240 -0.168893 0.742000 3351085
-0.271054 -0.165763 0.747000 2825773
-0.272143 -0.162143 0.750000 9903672
-0.272869 -0.158278 0.752000 12872853
-0.272869 -0.153981 0.752000 14202040
-0.273231 -0.149883 0.753000 12013197
-0.273957 -0.145967 0.755000 11813483
-0.273231 -0.141277 0.753000 12013163
-0.273231 -0.136974 0.753000 11816302
-0.274320 -0.133200 0.756000 11883634
-0.275046 -0.129221 0.758000 12082037
-0.275046 -0.124890 0.758000 12013172
-0.275771 -0.120876 0.760000 12279165
-0.276134 -0.116687 0.761000 12343931
-0.276860 -0.112633 0.763000 12738436
-0.277586 -0.108557 0.765000 12408193
-0.277586 -0.104186 0.765000 11607380
-0.278311 -0.100075 0.767000 11207245
-0.278311 -0.095692 0.767000 15118002
-0.279400 -0.091667 0.770000 13945562
-0.280489 -0.087607 0.773000 11222140
-0.281214 -0.083405 0.775000 12012667
-0.282666 -0.079384 0.779000 10953824
-0.282666 -0.074932 0.779000 12347006
-0.283029 -0.070571 0.780000 12148102
-0.284480 -0.066453 0.784000 11544913
-0.285206 -0.062131 0.786000 8854595
-0.270714 -0.162143 0.750000 10367310
-0.271436 -0.158278 0.752000 13010611
-0.271797 -0.154186 0.753000 13749961
-0.272519 -0.150281 0.755000 11684949
-0.272519 -0.145967 0.755000 11745136
-0.273602 -0.142215 0.758000 11880811
-0.273602 -0.137884 0.758000 11816302
-0.274324 -0.133905 0.760000 11883382
-0.274324 -0.129562 0.760000 11950195
-0.274324 -0.125219 0.760000 12013168
-0.274685 -0.121035 0.761000 12079483
-0.275407 -0.116993 0.763000 11948405
-0.275407 -0.112633 0.763000 12276093
-0.276129 -0.108557 0.765000 12279165
-0.276850 -0.104458 0.767000 11471172
-0.277211 -0.100206 0.768000 11407926
-0.277211 -0.095817 0.768000 15388354
-0.278655 -0.091905 0.772000 13798857
-0.279016 -0.087607 0.773000 11491711
-0.280460 -0.083620 0.777000 12210570
-0.281182 -0.079384 0.779000 11543155
-0.281543 -0.075029 0.780000 12411773
-0.282265 -0.070752 0.782000 12607372
-0.282987 -0.066453 0.784000 11347017
-0.284430 -0.062290 0.788000 10235973
-0.270004 -0.162575 0.752000 10760001
-0.270363 -0.158489 0.753000 13140343
-0.271081 -0.154595 0.755000 13266330
-0.271440 -0.150480 0.756000 11417959
-0.272158 -0.146547 0.758000 11618924
-0.272876 -0.142590 0.760000 11751793
-0.273235 -0.138430 0.761000 11750765
-0.273235 -0.134081 0.761000 11883132
-0.273235 -0.129732 0.761000 11750762
-0.273235 -0.125384 0.761000 11947122
-0.273235 -0.121035 0.761000 11817078
-0.274671 -0.117300 0.765000 11618164
-0.274671 -0.112929 0.765000 11817336
-0.275390 -0.108841 0.767000 12152176
-0.275749 -0.104594 0.768000 11276098
-0.276467 -0.100467 0.770000 11667777
-0.276467 -0.096067 0.770000 15649703
-0.277544 -0.092024 0.773000 13714858
-0.278262 -0.087833 0.775000 11682924
-0.278980 -0.083620 0.777000 12410477
-0.280057 -0.079486 0.780000 12140650
-0.280775 -0.075221 0.782000 12541313
-0.281493 -0.070933 0.784000 13068163
-0.282211 -0.066623 0.786000 11207236
-0.267857 -0.162143 0.750000 10037556
-0.269643 -0.158910 0.755000 11812666
-0.270714 -0.155210 0.758000 12199788
-0.270714 -0.150878 0.758000 11553913
-0.271429 -0.146933 0.760000 11489128
-0.271786 -0.142778 0.761000 11686774
-0.271786 -0.138430 0.761000 11684204
-0.272500 -0.134433 0.763000 11949186
-0.272500 -0.130073 0.763000 11682913
-0.272500 -0.125713 0.763000 12012659
-0.272500 -0.121353 0.763000 11883633
-0.273214 -0.117300 0.765000 11750514
-0.273929 -0.113224 0.767000 11949428
-0.273929 -0.108841 0.767000 11813987
-0.275000 -0.104867 0.770000 11341633
-0.275714 -0.100728 0.772000 11742796
-0.275714 -0.096316 0.772000 13674892
-0.276071 -0.092024 0.773000 12335498
-0.277500 -0.088060 0.777000 11540057
-0.278214 -0.083835 0.779000 11876687
-0.278571 -0.079486 0.780000 12080226
-0.279286 -0.075221 0.782000 12608644
-0.280000 -0.070933 0.784000 12806523
-0.280714 -0.066623 0.786000 11276351
-0.266429 -0.162143 0.750000 9247526
-0.268205 -0.158910 0.755000 10422079
-0.269270 -0.155210 0.758000 11085127
-0.269981 -0.151276 0.760000 11688066
-0.270336 -0.147127 0.761000 11358319
-0.271047 -0.143153 0.763000 11621748
-0.271757 -0.139157 0.765000 11619433
-0.271757 -0.134786 0.765000 12015225
-0.271757 -0.130414 0.765000 11553385
-0.271757 -0.126043 0.765000 12078975
-0.271757 -0.121671 0.765000 11882347
-0.272468 -0.117607 0.767000 11948398
-0.272468 -0.113224 0.767000 12013939
-0.272468 -0.108841 0.767000 11549271
-0.274244 -0.105139 0.772000 11340085
-0.274599 -0.100858 0.773000 11882089
-0.274599 -0.096441 0.773000 11687555
-0.275310 -0.092262 0.775000 10944906
-0.276730 -0.088287 0.779000 11410516
-0.277086 -0.083943 0.780000 11411004
-0.277086 -0.079486 0.780000 12005741
-0.278507 -0.075413 0.784000 12676736
-0.279217 -0.071114 0.786000 12476025
-0.279217 -0.066623 0.786000 11342151
-0.266060 -0.158489 0.753000 10032196
-0.268533 -0.155619 0.760000 11078946
-0.268533 -0.151276 0.760000 11622795
-0.268887 -0.147127 0.761000 11686774
-0.269593 -0.143153 0.763000 11555954
-0.270300 -0.139157 0.765000 11553383
-0.271007 -0.135138 0.767000 11883632
-0.271007 -0.130755 0.767000 11618929
-0.271007 -0.126372 0.767000 11949963
-0.271007 -0.121990 0.767000 11814757
-0.271360 -0.117760 0.768000 11881834
-0.271360 -0.113371 0.768000 11947379
-0.272773 -0.109550 0.772000 11279691
-0.273127 -0.105275 0.773000 11141418
-0.273833 -0.101119 0.775000 12080261
-0.273833 -0.096690 0.775000 12212346
-0.274540 -0.092500 0.777000 11615113
-0.275600 -0.088400 0.780000 11738704
-0.276307 -0.084158 0.782000 11669032
-0.276307 -0.079690 0.782000 13442168
-0.277720 -0.075606 0.786000 12275323
-0.277720 -0.071114 0.786000 11949943
-0.278427 -0.066792 0.788000 11211086
-0.264626 -0.158489 0.753000 9643315
-0.268140 -0.156233 0.763000 11023934
-0.267437 -0.151475 0.761000 11624059
-0.268843 -0.147900 0.765000 12014965
-0.269546 -0.143904 0.767000 11489641
-0.269546 -0.139521 0.767000 11422044
-0.269546 -0.135138 0.767000 11752304
-0.269897 -0.130926 0.768000 11686255
-0.269546 -0.126372 0.767000 11888001
-0.269897 -0.122149 0.768000 11683433
-0.269897 -0.117760 0.768000 11750251
-0.271654 -0.114110 0.773000 11816812
-0.272357 -0.109976 0.775000 11076175
-0.272357 -0.105548 0.775000 10948162
-0.273060 -0.101380 0.777000 12278397
-0.273060 -0.096940 0.777000 12671608
-0.273763 -0.092738 0.779000 12346491
-0.274114 -0.088400 0.780000 12008808
-0.274817 -0.084158 0.782000 11927832
-0.275520 -0.079893 0.784000 14851511
-0.276223 -0.075606 0.786000 11800250
-0.276926 -0.071295 0.788000 11352722
-0.276926 -0.066792 0.788000 11077444
-0.263191 -0.158489 0.753000 8068385
-0.266687 -0.156233 0.763000 10835547
-0.265988 -0.151475 0.761000 11492458
-0.268085 -0.148287 0.767000 11753332
-0.268434 -0.144091 0.768000 11225951
-0.268434 -0.139703 0.768000 11422034
-0.268434 -0.135314 0.768000 11752815
-0.268434 -0.130926 0.768000 11621228
-0.268434 -0.126537 0.768000 11884918
-0.269832 -0.122785 0.772000 11750509
-0.270182 -0.118527 0.773000 11816044
-0.271580 -0.114700 0.777000 11685989
-0.271580 -0.110260 0.777000 11281235
-0.271580 -0.105820 0.777000 11284315
-0.272279 -0.101641 0.779000 12145269
-0.272629 -0.097314 0.780000 12474998
-0.272629 -0.092857 0.780000 12277612
-0.273328 -0.088627 0.782000 12347776
-0.273328 -0.084158 0.782000 12463624
-0.274027 -0.079893 0.784000 15465718
-0.274726 -0.075606 0.786000 14262520
-0.275425 -0.071295 0.788000 13120940
-0.276473 -0.067047 0.791000 11673658
-0.265233 -0.156233 0.763000 10564950
-0.264538 -0.151475 0.761000 11361892
-0.266971 -0.148480 0.768000 11491951
-0.268362 -0.144842 0.772000 10966630
-0.269405 -0.140976 0.775000 11356765
-0.268362 -0.136019 0.772000 11752812
-0.268362 -0.131608 0.772000 11556466
-0.267667 -0.126867 0.770000 11884914
-0.269405 -0.123262 0.775000 11751022
-0.270795 -0.119447 0.779000 11816304
-0.270795 -0.114995 0.779000 11484767
-0.270795 -0.110544 0.779000 11486823
-0.270795 -0.106092 0.779000 11617377
-0.270795 -0.101641 0.779000 12013681
-0.271143 -0.097314 0.780000 12212603
-0.271838 -0.093095 0.782000 12213865
-0.272533 -0.088853 0.784000 12607090
-0.272533 -0.084373 0.784000 12976466
-0.273229 -0.080097 0.786000 16049394
-0.273924 -0.075798 0.788000 16645627
-0.274271 -0.071386 0.789000 14857685
-0.274967 -0.067047 0.791000 12280476
-0.263780 -0.156233 0.763000 9440082
-0.262051 -0.150878 0.758000 10108254
-0.266891 -0.149253 0.772000 11296363
-0.267929 -0.145405 0.775000 11028588
-0.268620 -0.141340 0.777000 11427433
-0.268620 -0.136900 0.777000 11622504
-0.267237 -0.131778 0.773000 11622264
-0.267237 -0.127361 0.773000 11752814
-0.269311 -0.123898 0.779000 11751280
-0.269657 -0.119600 0.780000 11685748
-0.270349 -0.115438 0.782000 11021912
-0.269657 -0.110686 0.780000 11555194
-0.269311 -0.106092 0.779000 11946599
-0.269657 -0.101771 0.780000 11947373
-0.271040 -0.097813 0.784000 12147583
-0.271040 -0.093333 0.784000 12012646
-0.271731 -0.089080 0.786000 12346212
-0.271731 -0.084589 0.786000 13332380
-0.271731 -0.080097 0.786000 15123182
-0.272769 -0.075894 0.789000 16578814
-0.273460 -0.071567 0.791000 15728382
-0.274151 -0.067216 0.793000 14531838
-0.260608 -0.150878 0.758000 8853364
-0.265765 -0.149447 0.773000 11093844
-0.267140 -0.145780 0.777000 11090029
-0.268171 -0.141886 0.780000 11492973
-0.268859 -0.137781 0.782000 11556970
-0.267828 -0.132801 0.779000 11688052
-0.267828 -0.128350 0.779000 11555693
-0.267828 -0.123898 0.779000 11686514
-0.268859 -0.119907 0.782000 11554153
-0.269547 -0.115733 0.784000 10564952
-0.268859 -0.110970 0.782000 11622780
-0.268859 -0.106501 0.782000 12275048
-0.268171 -0.101771 0.780000 11881839
-0.270234 -0.098063 0.786000 12081528
-0.270234 -0.093571 0.786000 11879531
-0.270922 -0.089307 0.788000 12004686
-0.270922 -0.084804 0.788000 13679815
-0.270922 -0.080301 0.788000 14210287
-0.271953 -0.076087 0.791000 16513790
-0.272641 -0.071748 0.793000 16505319
-0.272641 -0.067216 0.793000 16696307
-0.259164 -0.150878 0.758000 10314122
-0.264292 -0.149447 0.773000 9767486
-0.266344 -0.146155 0.779000 10635886
-0.267370 -0.142250 0.782000 11361136
-0.268737 -0.138486 0.786000 11488876
-0.267370 -0.133312 0.782000 11819631
-0.266686 -0.128514 0.780000 11357035
-0.267370 -0.124375 0.782000 11817844
-0.268053 -0.120213 0.784000 11488350
-0.269421 -0.116324 0.788000 11024216
-0.269421 -0.111821 0.788000 11687037
-0.268737 -0.107046 0.786000 11882346
-0.268053 -0.102293 0.784000 11882352
-0.269421 -0.098312 0.788000 12213361
-0.269421 -0.093810 0.788000 11747183
-0.269421 -0.089307 0.788000 10883128
-0.269763 -0.084911 0.789000 14339058
-0.269763 -0.080403 0.789000 15062256
-0.271130 -0.076279 0.793000 16382461
-0.271130 -0.071748 0.793000 12693968
-0.262820 -0.149447 0.773000 8476016
-0.265200 -0.146343 0.780000 10176623
-0.265880 -0.142250 0.782000 11159905
-0.267920 -0.138838 0.788000 11424369
-0.266560 -0.133653 0.784000 11949932
-0.265880 -0.128844 0.782000 11222121
-0.266560 -0.124693 0.784000 11884149
-0.267240 -0.120520 0.786000 11424613
-0.268260 -0.116471 0.789000 11420259
-0.268260 -0.111963 0.789000 11686266
-0.267920 -0.107318 0.788000 11420522
-0.267920 -0.102815 0.788000 11883374
-0.267920 -0.098312 0.788000 12277104
-0.268260 -0.093929 0.789000 11679080
-0.268260 -0.089420 0.789000 9703514
-0.268940 -0.085127 0.791000 15072502
-0.269620 -0.080810 0.793000 15850736
-0.269620 -0.076279 0.793000 16317438
-0.270300 -0.071929 0.795000 8818637
-0.264390 -0.146718 0.782000 10510191
-0.265067 -0.142613 0.784000 9904722
-0.266419 -0.138838 0.788000 11098485
-0.266419 -0.134335 0.788000 11620457
-0.265067 -0.129173 0.784000 11293543
-0.266419 -0.125330 0.788000 11623029
-0.266757 -0.120980 0.789000 11552363
-0.267433 -0.116767 0.791000 11557486
-0.267433 -0.112247 0.791000 11555702
-0.267433 -0.107727 0.791000 11020138
-0.267433 -0.103207 0.791000 11753835
-0.266757 -0.098437 0.789000 11944048
-0.266757 -0.093929 0.789000 11287393
-0.267433 -0.089647 0.791000 11403645
-0.268110 -0.085342 0.793000 14998266
-0.268786 -0.081014 0.795000 16182769
-0.268786 -0.076471 0.795000 15528702
-0.268786 -0.071929 0.795000 9987275
-0.262901 -0.146718 0.782000 10916750
-0.262901 -0.142250 0.782000 8607864
-0.264918 -0.138838 0.788000 10770290
-0.265927 -0.134847 0.791000 11291996
-0.264918 -0.129832 0.788000 11363684
-0.265254 -0.125489 0.789000 11293291
-0.265927 -0.121287 0.791000 11679846
-0.265927 -0.116767 0.791000 11688818
-0.266599 -0.112530 0.793000 11424367
-0.266599 -0.107999 0.793000 10633309
-0.266599 -0.103468 0.793000 11624294
-0.266599 -0.098936 0.793000 11615851
-0.265927 -0.094167 0.791000 10829909
-0.266599 -0.089873 0.793000 13135770
-0.267271 -0.085557 0.795000 14991348
-0.267271 -0.081014 0.795000 16510709
-0.267271 -0.076471 0.795000 14744054
-0.267944 -0.072110 0.797000 11174078
-0.261411 -0.146718 0.782000 12166060
-0.261411 -0.142250 0.782000 11177119
-0.263417 -0.138838 0.788000 10705774
-0.264420 -0.134847 0.791000 9781583
-0.263751 -0.129997 0.789000 10902113
-0.263751 -0.125489 0.789000 11156577
-0.265089 -0.121593 0.793000 11555680
-0.265089 -0.117062 0.793000 11623287
-0.265757 -0.112814 0.795000 11424104
-0.265757 -0.108271 0.795000 11094096
-0.266426 -0.103990 0.797000 11554912
-0.265757 -0.099186 0.795000 11550567
