# .PCD v.7 - Point Cloud Data file format
VERSION .7
FIELDS x y z rgb
SIZE 4 4 4 4
TYPE F F F I
COUNT 1 1 1 1
WIDTH 1276
HEIGHT 1
POINTS 1276
DATA ascii
-0.281373 -0.084669 0.898000 1969680
-0.280747 -0.079360 0.896000 1708562
-0.282313 -0.074654 0.901000 2101012
-0.282940 -0.069660 0.903000 2232085
-0.283567 -0.064643 0.905000 2428693
-0.272500 -0.212500 0.875000 11552593
-0.269386 -0.205129 0.865000 9765129
-0.267829 -0.199029 0.860000 9241107
-0.269386 -0.195243 0.865000 8388876
-0.270009 -0.190740 0.867000 8061452
-0.270009 -0.185786 0.867000 7799563
-0.270631 -0.181249 0.869000 7734278
-0.271254 -0.176689 0.871000 5899785
-0.271877 -0.172106 0.873000 1443602
-0.271877 -0.167117 0.873000 1576209
-0.272500 -0.162500 0.875000 1379601
-0.272500 -0.157500 0.875000 1248270
-0.272500 -0.152500 0.875000 1313806
-0.273434 -0.148006 0.878000 1313801
-0.273434 -0.142989 0.878000 1248265
-0.274057 -0.138286 0.880000 1182984
-0.274680 -0.133560 0.882000 1117191
-0.275303 -0.128811 0.884000 1313541
-0.276237 -0.124180 0.887000 1378574
-0.276237 -0.119111 0.887000 1575694
-0.276237 -0.114043 0.887000 1379858
-0.276237 -0.108974 0.887000 1511180
-0.276860 -0.104140 0.889000 1838099
-0.278417 -0.099617 0.894000 1642771
-0.279040 -0.094720 0.896000 2100498
-0.279040 -0.089600 0.896000 1708308
-0.279040 -0.084480 0.896000 1969681
-0.279040 -0.079360 0.896000 1708815
-0.280597 -0.074654 0.901000 1904148
-0.281220 -0.069660 0.903000 2036238
-0.281843 -0.064643 0.905000 2231821
-0.282777 -0.059669 0.908000 2494479
-0.283400 -0.054600 0.910000 2626837
-0.270214 -0.212014 0.873000 11550800
-0.268357 -0.205603 0.867000 10092812
-0.266190 -0.199029 0.860000 9503246
-0.266190 -0.194114 0.860000 8716556
-0.267738 -0.190300 0.865000 8323594
-0.267738 -0.185357 0.865000 8061447
-0.268357 -0.180831 0.867000 7865094
-0.268357 -0.175877 0.867000 6357770
-0.269595 -0.171711 0.871000 920080
-0.269595 -0.166734 0.871000 1380366
-0.270214 -0.162129 0.873000 1248528
-0.270214 -0.157140 0.873000 1313806
-0.270214 -0.152151 0.873000 1248270
-0.270214 -0.147163 0.873000 1379084
-0.270833 -0.142500 0.875000 1182474
-0.270833 -0.137500 0.875000 1182984
-0.272381 -0.133257 0.880000 1117449
-0.273000 -0.128520 0.882000 1313800
-0.273000 -0.123480 0.882000 1575696
-0.273619 -0.118709 0.884000 1772046
-0.273619 -0.113657 0.884000 1576976
-0.273619 -0.108606 0.884000 1577742
-0.274548 -0.103906 0.887000 1904401
-0.275167 -0.099060 0.889000 1839377
-0.275786 -0.094191 0.891000 2297363
-0.276714 -0.089400 0.894000 1839377
-0.276714 -0.084291 0.894000 1969683
-0.277333 -0.079360 0.896000 1709330
-0.277952 -0.074406 0.898000 1642260
-0.279500 -0.069660 0.903000 1840402
-0.280119 -0.064643 0.905000 1970191
-0.280119 -0.059471 0.905000 2101267
-0.281048 -0.054480 0.908000 2626068
-0.272858 -0.220483 0.887000 11555965
-0.269167 -0.212500 0.875000 11616846
-0.267321 -0.206077 0.869000 10355215
-0.264552 -0.199029 0.860000 9765642
-0.265168 -0.194566 0.862000 8978956
-0.266090 -0.190300 0.865000 8716808
-0.266090 -0.185357 0.865000 8389379
-0.266090 -0.180414 0.865000 8258054
-0.266706 -0.175877 0.867000 6686218
-0.267321 -0.171317 0.869000 985615
-0.267936 -0.166734 0.871000 1445642
-0.267936 -0.161757 0.871000 1248271
-0.268551 -0.157140 0.873000 1248270
-0.268551 -0.152151 0.873000 1248270
-0.269167 -0.147500 0.875000 1444622
-0.269167 -0.142500 0.875000 1247756
-0.269167 -0.137500 0.875000 1248264
-0.270705 -0.133257 0.880000 1248779
-0.271320 -0.128520 0.882000 1445387
-0.271320 -0.123480 0.882000 1640979
-0.271320 -0.118440 0.882000 1838349
-0.271320 -0.113400 0.882000 1643278
-0.271935 -0.108606 0.884000 1774351
-0.272858 -0.103906 0.887000 2035215
-0.273473 -0.099060 0.889000 1904910
-0.274089 -0.094191 0.891000 2231828
-0.275011 -0.089400 0.894000 1904654
-0.275011 -0.084291 0.894000 2035220
-0.275627 -0.079360 0.896000 1839893
-0.276242 -0.074406 0.898000 1838869
-0.277165 -0.069506 0.901000 1904917
-0.277165 -0.064357 0.901000 2035473
-0.278395 -0.059471 0.905000 1970710
-0.278395 -0.054300 0.905000 2363411
-0.278395 -0.049129 0.905000 2561300
-0.270251 -0.219737 0.884000 11485813
-0.267500 -0.212500 0.875000 11616081
-0.266277 -0.206551 0.871000 10682634
-0.262914 -0.199029 0.860000 10027788
-0.263526 -0.194566 0.862000 9306635
-0.264443 -0.190300 0.865000 9044743
-0.264443 -0.185357 0.865000 8717061
-0.265054 -0.180831 0.867000 8585991
-0.265054 -0.175877 0.867000 7078922
-0.265666 -0.171317 0.869000 985878
-0.266889 -0.167117 0.873000 1510927
-0.266889 -0.162129 0.873000 1248529
-0.266889 -0.157140 0.873000 1247759
-0.266889 -0.152151 0.873000 1248271
-0.266889 -0.147163 0.873000 1444367
-0.267500 -0.142500 0.875000 1248013
-0.267500 -0.137500 0.875000 1313806
-0.269029 -0.133257 0.880000 1380110
-0.269029 -0.128229 0.880000 1577229
-0.269640 -0.123480 0.882000 1707285
-0.269640 -0.118440 0.882000 1839121
-0.269640 -0.113400 0.882000 1642514
-0.270251 -0.108606 0.884000 2036756
-0.271169 -0.103906 0.887000 2101526
-0.271780 -0.099060 0.889000 2035737
-0.272391 -0.094191 0.891000 2166046
-0.273309 -0.089400 0.894000 1969941
-0.273309 -0.084291 0.894000 2100765
-0.274531 -0.079537 0.898000 1904666
-0.275449 -0.074654 0.901000 1969944
-0.275449 -0.069506 0.901000 2035221
-0.276060 -0.064500 0.903000 2035731
-0.276671 -0.059471 0.905000 1774358
-0.276671 -0.054300 0.905000 2101780
-0.277589 -0.049291 0.908000 2363925
-0.267960 -0.219240 0.882000 11422060
-0.265226 -0.212014 0.873000 11551572
-0.264618 -0.206551 0.871000 10748421
-0.261276 -0.199029 0.860000 10159117
-0.261884 -0.194566 0.862000 9503241
-0.262795 -0.190300 0.865000 9241350
-0.262795 -0.185357 0.865000 8979207
-0.262795 -0.180414 0.865000 8848137
-0.263403 -0.175877 0.867000 7276042
-0.263403 -0.170923 0.867000 1117212
-0.264618 -0.166734 0.871000 1576980
-0.265226 -0.162129 0.873000 1445394
-0.265226 -0.157140 0.873000 1379600
-0.265226 -0.152151 0.873000 1313808
-0.265226 -0.147163 0.873000 1575695
-0.265833 -0.142500 0.875000 1445135
-0.265833 -0.137500 0.875000 1511187
-0.266745 -0.132954 0.878000 1577490
-0.267352 -0.128229 0.880000 1643023
-0.267960 -0.123480 0.882000 1969688
-0.267960 -0.118440 0.882000 2035732
-0.268568 -0.113657 0.884000 2035734
-0.268568 -0.108606 0.884000 1774105
-0.269479 -0.103906 0.887000 1642013
-0.270087 -0.099060 0.889000 1444643
-0.270694 -0.094191 0.891000 1444392
-0.271606 -0.089400 0.894000 1444636
-0.271606 -0.084291 0.894000 1379109
-0.272213 -0.079360 0.896000 1511198
-0.273732 -0.074654 0.901000 2362396
-0.273732 -0.069506 0.901000 2166549
-0.274340 -0.064500 0.903000 2035734
-0.274340 -0.059340 0.903000 1971221
-0.274948 -0.054300 0.905000 1970966
-0.275859 -0.049291 0.908000 2167317
-0.266280 -0.219240 0.882000 11346026
-0.263563 -0.212014 0.873000 11420238
-0.262355 -0.206077 0.869000 10813717
-0.259638 -0.199029 0.860000 10289937
-0.260242 -0.194566 0.862000 9699596
-0.260242 -0.189640 0.862000 9372425
-0.261148 -0.185357 0.865000 9241098
-0.261148 -0.180414 0.865000 9044743
-0.261751 -0.175877 0.867000 7537676
-0.261751 -0.170923 0.867000 1248797
-0.262959 -0.166734 0.871000 1708568
-0.263563 -0.162129 0.873000 1576724
-0.263563 -0.157140 0.873000 1510676
-0.263563 -0.152151 0.873000 1314069
-0.263563 -0.147163 0.873000 1773074
-0.263563 -0.142174 0.873000 1642258
-0.264167 -0.137500 0.875000 1774357
-0.265676 -0.133257 0.880000 1774358
-0.266280 -0.128520 0.882000 1774614
-0.266280 -0.123480 0.882000 2166555
-0.266280 -0.118440 0.882000 2232344
-0.266884 -0.113657 0.884000 2362896
-0.266884 -0.108606 0.884000 1511440
-0.267790 -0.103906 0.887000 1115919
-0.268393 -0.099060 0.889000 917779
-0.268997 -0.094191 0.891000 722974
-0.269903 -0.089400 0.894000 852239
-0.269903 -0.084291 0.894000 590867
-0.270507 -0.079360 0.896000 1182228
-0.272016 -0.074654 0.901000 2755857
-0.272016 -0.069506 0.901000 2362908
-0.272620 -0.064500 0.903000 2035481
-0.273224 -0.059471 0.905000 2167575
-0.273224 -0.054300 0.905000 1840408
-0.274130 -0.049291 0.908000 2035734
-0.261300 -0.211529 0.871000 11551561
-0.260100 -0.205603 0.867000 10945061
-0.258000 -0.199029 0.860000 10421012
-0.258600 -0.194566 0.862000 9765135
-0.258600 -0.189640 0.862000 9503499
-0.259500 -0.185357 0.865000 9372172
-0.259500 -0.180414 0.865000 9175814
-0.260100 -0.175877 0.867000 7603981
-0.260100 -0.170923 0.867000 1315102
-0.261300 -0.166734 0.871000 1774107
-0.261900 -0.162129 0.873000 1642519
-0.261900 -0.157140 0.873000 1707543
-0.261900 -0.152151 0.873000 1576730
-0.261900 -0.147163 0.873000 1839381
-0.262500 -0.142500 0.875000 1839894
-0.262500 -0.137500 0.875000 1840406
-0.263400 -0.132954 0.878000 2036762
-0.264600 -0.128520 0.882000 2167324
-0.264600 -0.123480 0.882000 2035743
-0.264600 -0.118440 0.882000 1706780
-0.265200 -0.113657 0.884000 1640202
-0.265200 -0.108606 0.884000 3278599
-0.266700 -0.104140 0.889000 4655618
-0.266700 -0.099060 0.889000 4919298
-0.267300 -0.094191 0.891000 4854803
-0.268200 -0.089400 0.894000 4654849
-0.268800 -0.084480 0.896000 4260097
-0.269400 -0.079537 0.898000 3802890
-0.270300 -0.074654 0.901000 3082502
-0.270900 -0.069660 0.903000 1837602
-0.270900 -0.064500 0.903000 2494237
-0.271500 -0.059471 0.905000 2298905
-0.272400 -0.054480 0.908000 1971738
-0.272400 -0.049291 0.908000 2102039
-0.260833 -0.217500 0.875000 11476583
-0.259641 -0.211529 0.871000 11682127
-0.255766 -0.203469 0.858000 11141408
-0.256362 -0.199029 0.860000 10552090
-0.256958 -0.194566 0.862000 9896213
-0.256958 -0.189640 0.862000 9634323
-0.257852 -0.185357 0.865000 9502994
-0.257852 -0.180414 0.865000 9306890
-0.258449 -0.175877 0.867000 7734026
-0.259045 -0.171317 0.869000 1380642
-0.259045 -0.166351 0.869000 1905183
-0.259641 -0.161757 0.871000 1708573
-0.260237 -0.157140 0.873000 1839389
-0.260237 -0.152151 0.873000 1774621
-0.260237 -0.147163 0.873000 1971734
-0.260833 -0.142500 0.875000 1971737
-0.260833 -0.137500 0.875000 1972251
-0.261728 -0.132954 0.878000 2299165
-0.262920 -0.128520 0.882000 2560803
-0.262920 -0.123480 0.882000 1903383
-0.262920 -0.118440 0.882000 1114895
-0.264410 -0.114043 0.887000 918300
-0.265007 -0.109220 0.889000 5047080
-0.265603 -0.104374 0.891000 8201262
-0.265603 -0.099283 0.891000 8917823
-0.265603 -0.094191 0.891000 8983842
-0.266497 -0.089400 0.894000 8519946
-0.267093 -0.084480 0.896000 7879269
-0.268584 -0.079803 0.901000 6488861
-0.268584 -0.074654 0.901000 3345953
-0.269180 -0.069660 0.903000 1311257
-0.269180 -0.064500 0.903000 2952983
-0.269776 -0.059471 0.905000 2429984
-0.270670 -0.054480 0.908000 2037021
-0.270670 -0.049291 0.908000 2233368
-0.258574 -0.217003 0.873000 11352166
-0.257390 -0.211043 0.869000 11747669
-0.254724 -0.203943 0.860000 11338523
-0.254131 -0.198566 0.858000 10814496
-0.254724 -0.194114 0.860000 10158618
-0.255316 -0.189640 0.862000 9896475
-0.256205 -0.185357 0.865000 9699608
-0.256205 -0.180414 0.865000 9569037
-0.256797 -0.175877 0.867000 7866374
-0.257390 -0.171317 0.869000 1708325
-0.257390 -0.166351 0.869000 2299426
-0.257982 -0.161757 0.871000 2102564
-0.257982 -0.156780 0.871000 2102818
-0.258574 -0.152151 0.873000 1971744
-0.258574 -0.147163 0.873000 2103574
-0.259167 -0.142500 0.875000 2103067
-0.259167 -0.137500 0.875000 2234144
-0.260055 -0.132954 0.878000 1971231
-0.261240 -0.128520 0.882000 1838121
-0.261240 -0.123480 0.882000 3015439
-0.261832 -0.118709 0.884000 4918273
-0.262721 -0.114043 0.887000 6095663
-0.263313 -0.109220 0.889000 8532297
-0.263906 -0.104374 0.891000 10316378
-0.263906 -0.099283 0.891000 10174587
-0.263906 -0.094191 0.891000 9770289
-0.264794 -0.089400 0.894000 10496019
-0.265387 -0.084480 0.896000 11780808
-0.266868 -0.079803 0.901000 8393519
-0.267460 -0.074820 0.903000 7155260
-0.267460 -0.069660 0.903000 5442319
-0.268052 -0.064643 0.905000 2690065
-0.268941 -0.059669 0.908000 2297895
-0.269533 -0.054600 0.910000 2299681
-0.269533 -0.049400 0.910000 2429977
-0.256911 -0.217003 0.873000 11207526
-0.255146 -0.210557 0.867000 11812436
-0.252497 -0.203469 0.858000 11535401
-0.252497 -0.198566 0.858000 11011621
-0.253674 -0.194566 0.862000 10421018
-0.253674 -0.189640 0.862000 10158874
-0.254557 -0.185357 0.865000 9961755
-0.254557 -0.180414 0.865000 9765648
-0.255146 -0.175877 0.867000 7997708
-0.255734 -0.171317 0.869000 2037289
-0.256323 -0.166734 0.871000 2693673
-0.256323 -0.161757 0.871000 2431527
-0.256911 -0.157140 0.873000 2300709
-0.256911 -0.152151 0.873000 2169378
-0.256911 -0.147163 0.873000 2234907
-0.257500 -0.142500 0.875000 2234652
-0.257500 -0.137500 0.875000 2496296
-0.258383 -0.132954 0.878000 1641241
-0.260149 -0.128811 0.884000 1179925
-0.260149 -0.123760 0.884000 4133678
-0.260149 -0.118709 0.884000 8721199
-0.261620 -0.114300 0.889000 11285584
-0.262209 -0.109466 0.891000 11948128
-0.262209 -0.104374 0.891000 12345702
-0.262209 -0.099283 0.891000 11428460
-0.263091 -0.094509 0.894000 10558281
-0.263091 -0.089400 0.894000 12452913
-0.263680 -0.084480 0.896000 15646407
-0.265151 -0.079803 0.901000 10357055
-0.265740 -0.074820 0.903000 10886465
-0.265740 -0.069660 0.903000 9505583
-0.266329 -0.064643 0.905000 2362919
-0.267211 -0.059669 0.908000 2164257
-0.267800 -0.054600 0.910000 2561572
-0.267800 -0.049400 0.910000 2561309
-0.252910 -0.210071 0.865000 12008532
-0.250863 -0.203469 0.858000 11734327
-0.251448 -0.199029 0.860000 11340842
-0.252032 -0.194566 0.862000 10683417
-0.252032 -0.189640 0.862000 10486809
-0.252910 -0.185357 0.865000 10224926
-0.252910 -0.180414 0.865000 10093587
-0.253494 -0.175877 0.867000 8260369
-0.254079 -0.171317 0.869000 2629165
-0.254079 -0.166351 0.869000 2957871
-0.254664 -0.161757 0.871000 2694955
-0.255249 -0.157140 0.873000 2628392
-0.255249 -0.152151 0.873000 2497572
-0.255249 -0.147163 0.873000 2497311
-0.255833 -0.142500 0.875000 2758942
-0.255833 -0.137500 0.875000 1838639
-0.257295 -0.133257 0.880000 4195091
-0.258465 -0.128811 0.884000 5771265
-0.258465 -0.123760 0.884000 8013901
-0.259342 -0.119111 0.887000 10240348
-0.260511 -0.114557 0.891000 11678833
-0.260511 -0.109466 0.891000 11882615
-0.261389 -0.104726 0.894000 12083570
-0.260511 -0.099283 0.891000 11355741
-0.261389 -0.094509 0.894000 11883361
-0.261389 -0.089400 0.894000 12537422
-0.262558 -0.084669 0.898000 14206662
-0.263435 -0.079803 0.901000 10754638
-0.264020 -0.074820 0.903000 10948166
-0.264605 -0.069814 0.905000 10365518
-0.265482 -0.064857 0.908000 7022397
-0.265482 -0.059669 0.908000 3606554
-0.266067 -0.054600 0.910000 2954535
-0.266067 -0.049400 0.910000 2626849
-0.251262 -0.210071 0.865000 12138322
-0.249810 -0.203943 0.860000 11996728
-0.249810 -0.199029 0.860000 11602475
-0.250390 -0.194566 0.862000 10880028
-0.250390 -0.189640 0.862000 10816029
-0.251262 -0.185357 0.865000 10488864
-0.251262 -0.180414 0.865000 10356501
-0.251843 -0.175877 0.867000 8523286
-0.252424 -0.171317 0.869000 3220787
-0.252424 -0.166351 0.869000 3222067
-0.253005 -0.161757 0.871000 2957870
-0.253586 -0.157140 0.873000 2890537
-0.254167 -0.152500 0.875000 2825254
-0.254167 -0.147500 0.875000 2693667
-0.254167 -0.142500 0.875000 3281696
-0.255038 -0.137971 0.878000 1179928
-0.256200 -0.133560 0.882000 6756664
-0.256781 -0.128811 0.884000 10299699
-0.256781 -0.123760 0.884000 11882080
-0.257652 -0.119111 0.887000 11827050
-0.258814 -0.114557 0.891000 12013428
-0.258814 -0.109466 0.891000 11876201
-0.259686 -0.104726 0.894000 11818093
-0.258814 -0.099283 0.891000 11359845
-0.259686 -0.094509 0.894000 13137522
-0.259686 -0.089400 0.894000 12664670
-0.260848 -0.084669 0.898000 12688839
-0.261719 -0.079803 0.901000 11141716
-0.262300 -0.074820 0.903000 10954061
-0.262881 -0.069814 0.905000 11222866
-0.263752 -0.064857 0.908000 11613257
-0.263752 -0.059669 0.908000 4983351
-0.264333 -0.054600 0.910000 3280425
-0.264333 -0.049400 0.910000 2626597
-0.248749 -0.209343 0.862000 12334928
-0.248171 -0.203943 0.860000 12062265
-0.248749 -0.199491 0.862000 11799596
-0.248749 -0.194566 0.862000 10814239
-0.249614 -0.190300 0.865000 11079201
-0.249614 -0.185357 0.865000 10685729
-0.250191 -0.180831 0.867000 10620183
-0.250769 -0.176283 0.869000 8590618
-0.250769 -0.171317 0.869000 3419962
-0.251346 -0.166734 0.871000 3222070
-0.251346 -0.161757 0.871000 2827825
-0.251923 -0.157140 0.873000 2825257
-0.252500 -0.152500 0.875000 2890793
-0.252500 -0.147500 0.875000 2758183
-0.253366 -0.142989 0.878000 3083299
-0.254520 -0.138600 0.882000 5839105
-0.254520 -0.133560 0.882000 9851740
-0.255097 -0.128811 0.884000 11424101
-0.255963 -0.124180 0.887000 11948660
-0.256540 -0.119380 0.889000 12016760
-0.257117 -0.114557 0.891000 12212856
-0.257983 -0.109834 0.894000 11945307
-0.257983 -0.104726 0.894000 11882089
-0.257983 -0.099617 0.894000 11485036
-0.258560 -0.094720 0.896000 13929092
-0.258560 -0.089600 0.896000 12215918
-0.260003 -0.084951 0.901000 12555720
-0.260580 -0.079980 0.903000 11413082
-0.260580 -0.074820 0.903000 11220052
-0.261157 -0.069814 0.905000 11286358
-0.262023 -0.064857 0.908000 12215381
-0.262600 -0.059800 0.910000 8269651
-0.262600 -0.054600 0.910000 2951468
-0.262600 -0.049400 0.910000 2823465
-0.246533 -0.208857 0.860000 12465227
-0.247107 -0.204417 0.862000 12126003
-0.247107 -0.199491 0.862000 11995176
-0.247967 -0.195243 0.865000 10682906
-0.247967 -0.190300 0.865000 11274786
-0.248540 -0.185786 0.867000 10947620
-0.248540 -0.180831 0.867000 10882331
-0.249113 -0.176283 0.869000 8724250
-0.249687 -0.171711 0.871000 3549497
-0.249687 -0.166734 0.871000 3221812
-0.250260 -0.162129 0.873000 2695982
-0.250833 -0.157500 0.875000 2760230
-0.251693 -0.153023 0.878000 2891047
-0.251693 -0.148006 0.878000 2887212
-0.252267 -0.143314 0.880000 2888491
-0.252840 -0.138600 0.882000 10501163
-0.253413 -0.133863 0.884000 12935791
-0.254273 -0.129249 0.887000 12548217
-0.254273 -0.124180 0.887000 12015746
-0.255420 -0.119649 0.891000 12275837
-0.255420 -0.114557 0.891000 12410745
-0.256280 -0.109834 0.894000 12009832
-0.256280 -0.104726 0.894000 11946606
-0.256280 -0.099617 0.894000 11618670
-0.257427 -0.094931 0.898000 14650246
-0.258287 -0.090100 0.901000 11820170
-0.258287 -0.084951 0.901000 12361153
-0.258860 -0.079980 0.903000 11665750
-0.258860 -0.074820 0.903000 11481942
-0.259433 -0.069814 0.905000 11358556
-0.260293 -0.064857 0.908000 12737640
-0.260867 -0.059800 0.910000 11486291
-0.260867 -0.054600 0.910000 2561079
-0.260867 -0.049400 0.910000 3085617
-0.244895 -0.208857 0.860000 12595783
-0.246319 -0.205129 0.865000 12061228
-0.246319 -0.200186 0.865000 11667492
-0.246319 -0.195243 0.865000 10813973
-0.246889 -0.190740 0.867000 11405091
-0.246889 -0.185786 0.867000 11078695
-0.247458 -0.181249 0.869000 10948895
-0.248028 -0.176689 0.871000 8526618
-0.248028 -0.171711 0.871000 3287352
-0.248597 -0.167117 0.873000 3024178
-0.248597 -0.162129 0.873000 2760492
-0.249167 -0.157500 0.875000 2694178
-0.250590 -0.153371 0.880000 2891301
-0.250590 -0.148343 0.880000 3673393
-0.250590 -0.143314 0.880000 7419186
-0.251160 -0.138600 0.882000 11353940
-0.251730 -0.133863 0.884000 12612482
-0.252584 -0.129249 0.887000 12479884
-0.253153 -0.124460 0.889000 12212112
-0.253723 -0.119649 0.891000 12473218
-0.253723 -0.114557 0.891000 12942202
-0.254577 -0.109834 0.894000 12144245
-0.254577 -0.104726 0.894000 12207220
-0.254577 -0.099617 0.894000 11948144
-0.255716 -0.094931 0.898000 14849161
-0.256570 -0.090100 0.901000 12353958
-0.256570 -0.084951 0.901000 12748730
-0.257140 -0.079980 0.903000 11611729
-0.257710 -0.074986 0.905000 11679064
-0.258564 -0.070046 0.908000 11617890
-0.259133 -0.065000 0.910000 12615546
-0.259133 -0.059800 0.910000 11547218
-0.259988 -0.054780 0.913000 7088450
-0.259133 -0.049400 0.910000 2757177
-0.243257 -0.208857 0.860000 12659270
-0.244671 -0.205129 0.865000 11994920
-0.244671 -0.200186 0.865000 11339296
-0.245237 -0.195694 0.867000 11010572
-0.245237 -0.190740 0.867000 11470619
-0.245237 -0.185786 0.867000 11208993
-0.245803 -0.181249 0.869000 10947101
-0.246369 -0.176689 0.871000 8331544
-0.246369 -0.171711 0.871000 2957623
-0.246934 -0.167117 0.873000 2760493
-0.247500 -0.162500 0.875000 2825513
-0.248914 -0.158400 0.880000 2628128
-0.249480 -0.153720 0.882000 2823975
-0.249480 -0.148680 0.882000 4458016
-0.249480 -0.143640 0.882000 11935780
-0.250046 -0.138914 0.884000 12204117
-0.250894 -0.134317 0.887000 12279414
-0.250894 -0.129249 0.887000 12414595
-0.251460 -0.124460 0.889000 12408965
-0.252026 -0.119649 0.891000 12732275
-0.252874 -0.114943 0.894000 13395839
-0.252874 -0.109834 0.894000 12280439
-0.252874 -0.104726 0.894000 12409981
-0.253440 -0.099840 0.896000 12272751
-0.254854 -0.095249 0.901000 15044487
-0.254854 -0.090100 0.901000 12887459
-0.254854 -0.084951 0.901000 13148092
-0.255420 -0.079980 0.903000 11615580
-0.256834 -0.075234 0.908000 11810138
-0.256834 -0.070046 0.908000 11882606
-0.257400 -0.065000 0.910000 12476287
-0.257400 -0.059800 0.910000 11611473
-0.258249 -0.054780 0.913000 11543111
-0.258249 -0.049563 0.913000 2494003
-0.243586 -0.210557 0.867000 12462662
-0.243586 -0.205603 0.867000 11929636
-0.243024 -0.200186 0.865000 11273243
-0.243586 -0.195694 0.867000 11010563
-0.244710 -0.191620 0.871000 11667220
-0.244710 -0.186643 0.871000 11274011
-0.244710 -0.181666 0.871000 10946330
-0.244710 -0.176689 0.871000 7607829
-0.245271 -0.172106 0.873000 3022901
-0.245833 -0.167500 0.875000 2693671
-0.246676 -0.163057 0.878000 2627879
-0.247238 -0.158400 0.880000 2562078
-0.247800 -0.153720 0.882000 1904168
-0.247800 -0.148680 0.882000 7147534
-0.248362 -0.143966 0.884000 11536919
-0.248362 -0.138914 0.884000 11944277
-0.249205 -0.134317 0.887000 12207722
-0.249767 -0.129540 0.889000 12344954
-0.250329 -0.124740 0.891000 12540282
-0.250329 -0.119649 0.891000 12603747
-0.251171 -0.114943 0.894000 13003395
-0.251733 -0.110080 0.896000 12476280
-0.251733 -0.104960 0.896000 12870021
-0.251733 -0.099840 0.896000 12274286
-0.253138 -0.095249 0.901000 13672582
-0.253700 -0.090300 0.903000 13477023
-0.253700 -0.085140 0.903000 13283519
-0.254262 -0.080157 0.905000 11747687
-0.255105 -0.075234 0.908000 12007261
-0.255667 -0.070200 0.910000 12277370
-0.255667 -0.065000 0.910000 12541828
-0.256510 -0.059997 0.913000 11742288
-0.256510 -0.054780 0.913000 11546188
-0.256510 -0.049563 0.913000 4266284
-0.243050 -0.211529 0.871000 12265287
-0.242492 -0.206077 0.869000 11863847
-0.241934 -0.200649 0.867000 11142171
-0.243050 -0.196597 0.871000 11075854
-0.243609 -0.192060 0.873000 11863573
-0.243609 -0.187071 0.873000 11273499
-0.243609 -0.182083 0.873000 10880282
-0.243609 -0.177094 0.873000 6952210
-0.243609 -0.172106 0.873000 3086384
-0.244167 -0.167500 0.875000 2562076
-0.245004 -0.163057 0.878000 2365985
-0.245562 -0.158400 0.880000 2561565
-0.246120 -0.153720 0.882000 919838
-0.246678 -0.149017 0.884000 9834800
-0.246678 -0.143966 0.884000 11076631
-0.246678 -0.138914 0.884000 11754073
-0.247515 -0.134317 0.887000 12141671
-0.248073 -0.129540 0.889000 12277878
-0.248631 -0.124740 0.891000 12608630
-0.248631 -0.119649 0.891000 12407146
-0.249469 -0.114943 0.894000 12541309
-0.250027 -0.110080 0.896000 12607611
-0.250585 -0.105194 0.898000 13330555
-0.250585 -0.100063 0.898000 12333931
-0.251422 -0.095249 0.901000 12271962
-0.251980 -0.090300 0.903000 14069944
-0.251980 -0.085140 0.903000 13337278
-0.252538 -0.080157 0.905000 11947104
-0.253375 -0.075234 0.908000 12139615
-0.253933 -0.070200 0.910000 12671860
-0.254770 -0.065214 0.913000 12608649
-0.254770 -0.059997 0.913000 11803729
-0.255329 -0.054900 0.915000 11544646
-0.255887 -0.049780 0.917000 6101561
-0.241391 -0.211529 0.871000 12263495
-0.240837 -0.206077 0.869000 11930410
-0.240837 -0.201111 0.869000 11142172
-0.241391 -0.196597 0.871000 11207192
-0.241946 -0.192060 0.873000 11733271
-0.241946 -0.187071 0.873000 11207962
-0.242500 -0.182500 0.875000 10815257
-0.242500 -0.177500 0.875000 6491918
-0.242500 -0.172500 0.875000 2823467
-0.242500 -0.167500 0.875000 2299665
-0.243331 -0.163057 0.878000 2300444
-0.244440 -0.158760 0.882000 2299164
-0.244994 -0.154069 0.884000 3473684
-0.244994 -0.149017 0.884000 10756946
-0.244994 -0.143966 0.884000 11075863
-0.245826 -0.139386 0.887000 11682653
-0.246380 -0.134620 0.889000 12071781
-0.246934 -0.129831 0.891000 12142193
-0.247766 -0.125160 0.894000 12745074
-0.247766 -0.120051 0.894000 12341361
-0.248320 -0.115200 0.896000 12471670
-0.248874 -0.110326 0.898000 12669310
-0.248874 -0.105194 0.898000 13269361
-0.249706 -0.100397 0.901000 12072296
-0.250260 -0.095460 0.903000 11666479
-0.250260 -0.090300 0.903000 14730961
-0.250814 -0.085329 0.905000 12554428
-0.250814 -0.080157 0.905000 12010584
-0.252200 -0.075400 0.910000 12005730
-0.252200 -0.070200 0.910000 12411502
-0.253031 -0.065214 0.913000 12540047
-0.253031 -0.059997 0.913000 11608401
-0.253586 -0.054900 0.915000 11478081
-0.254140 -0.049780 0.917000 6759749
-0.239732 -0.206551 0.871000 11995678
-0.239732 -0.201574 0.871000 11076629
-0.240283 -0.197049 0.873000 11272979
-0.240833 -0.192500 0.875000 11602205
-0.240833 -0.187500 0.875000 11142434
-0.240833 -0.182500 0.875000 10750234
-0.240833 -0.177500 0.875000 6033172
-0.240833 -0.172500 0.875000 2561065
-0.240833 -0.167500 0.875000 2038038
-0.242210 -0.163429 0.880000 2234651
-0.242760 -0.158760 0.882000 1971733
-0.243310 -0.154069 0.884000 5966619
-0.244136 -0.149523 0.887000 11696262
-0.244136 -0.144454 0.887000 11094368
-0.244136 -0.139386 0.887000 11688544
-0.244687 -0.134620 0.889000 12011624
-0.246063 -0.130269 0.894000 12069738
-0.246063 -0.125160 0.894000 12869490
-0.246063 -0.120051 0.894000 12277105
-0.246613 -0.115200 0.896000 12409723
-0.247164 -0.110326 0.898000 12665963
-0.247990 -0.105546 0.901000 13200497
-0.247990 -0.100397 0.901000 11880287
-0.248540 -0.095460 0.903000 11078456
-0.249090 -0.090500 0.905000 15391666
-0.249916 -0.085611 0.908000 11753614
-0.249916 -0.080423 0.908000 12073045
-0.250467 -0.075400 0.910000 11869756
-0.251292 -0.070431 0.913000 12214680
-0.251292 -0.065214 0.913000 12474252
-0.251843 -0.060129 0.915000 11403567
-0.252393 -0.055020 0.917000 11410757
-0.238620 -0.207026 0.873000 11863057
-0.238073 -0.201574 0.871000 10617103
-0.238620 -0.197049 0.873000 11010574
-0.239167 -0.192500 0.875000 11273251
-0.239167 -0.187500 0.875000 11142953
-0.239987 -0.183126 0.878000 11014683
-0.239987 -0.178109 0.878000 5508377
-0.239987 -0.173091 0.878000 2626856
-0.239987 -0.168074 0.878000 2234138
-0.241080 -0.163800 0.882000 2431003
-0.241627 -0.159120 0.884000 2036238
-0.242447 -0.154591 0.887000 7930915
-0.242993 -0.149860 0.889000 13209529
-0.242993 -0.144780 0.889000 12293033
-0.242447 -0.139386 0.887000 11619683
-0.243540 -0.134923 0.891000 11947115
-0.244360 -0.130269 0.894000 12010851
-0.244907 -0.125440 0.896000 12539249
-0.244907 -0.120320 0.896000 12144753
-0.245453 -0.115457 0.898000 12279167
-0.246273 -0.110694 0.901000 12207960
-0.246820 -0.105780 0.903000 12543090
-0.246820 -0.100620 0.903000 11743317
-0.247367 -0.095671 0.905000 11407170
-0.248187 -0.090800 0.908000 13532818
-0.248187 -0.085611 0.908000 11796833
-0.248187 -0.080423 0.908000 11934034
-0.249553 -0.075649 0.913000 11403543
-0.249553 -0.070431 0.913000 13666242
-0.250100 -0.065357 0.915000 13452681
-0.250647 -0.060260 0.917000 12264205
-0.251467 -0.055200 0.920000 12000842
-0.236957 -0.207026 0.873000 11666521
-0.236957 -0.202037 0.873000 10099788
-0.237500 -0.197500 0.875000 10748220
-0.237500 -0.192500 0.875000 10945588
-0.237500 -0.187500 0.875000 11142941
-0.238314 -0.183126 0.878000 11210767
-0.238314 -0.178109 0.878000 5048601
-0.238314 -0.173091 0.878000 2693423
-0.238857 -0.168457 0.880000 2364960
-0.239943 -0.164171 0.884000 2627872
-0.239943 -0.159120 0.884000 2168346
-0.241300 -0.154940 0.889000 9834539
-0.241300 -0.149860 0.889000 14721973
-0.241300 -0.144780 0.889000 13467803
-0.241843 -0.140014 0.891000 11554410
-0.242657 -0.135377 0.894000 11815538
-0.243200 -0.130560 0.896000 11949923
-0.243200 -0.125440 0.896000 12145263
-0.243200 -0.120320 0.896000 12012644
-0.244557 -0.115843 0.901000 12081277
-0.244557 -0.110694 0.901000 11749983
-0.245100 -0.105780 0.903000 11882358
-0.245100 -0.100620 0.903000 11605837
-0.246457 -0.095989 0.908000 11739712
-0.247000 -0.091000 0.910000 11740031
-0.247000 -0.085800 0.910000 11872619
-0.247000 -0.080600 0.910000 11803225
-0.247814 -0.075649 0.913000 10886466
-0.247814 -0.070431 0.913000 15132384
-0.248357 -0.065357 0.915000 14397123
-0.249714 -0.060457 0.920000 13076614
-0.249714 -0.055200 0.920000 12612772
-0.235294 -0.207026 0.873000 12545953
-0.235294 -0.202037 0.873000 11625354
-0.235833 -0.197500 0.875000 11617897
-0.235833 -0.192500 0.875000 11470662
-0.236642 -0.188143 0.878000 11082001
-0.236642 -0.183126 0.878000 10945540
-0.236642 -0.178109 0.878000 3803417
-0.236642 -0.173091 0.878000 2955319
-0.237181 -0.168457 0.880000 2693670
-0.239068 -0.164729 0.887000 2759205
-0.239068 -0.159660 0.887000 2560550
-0.240146 -0.155289 0.891000 10748212
-0.240954 -0.150703 0.894000 13998000
-0.240954 -0.145594 0.894000 12356492
-0.240954 -0.140486 0.894000 11684721
-0.240954 -0.135377 0.894000 11618682
-0.241493 -0.130560 0.896000 11882850
-0.242032 -0.125720 0.898000 12012909
-0.242032 -0.120589 0.898000 11879766
-0.242841 -0.115843 0.901000 12082299
-0.243380 -0.110940 0.903000 11817574
-0.243380 -0.105780 0.903000 11881083
-0.243380 -0.100620 0.903000 11276612
-0.245267 -0.096200 0.910000 11679295
-0.245267 -0.091000 0.910000 12011883
-0.245267 -0.085800 0.910000 12479606
-0.245267 -0.080600 0.910000 12076384
-0.246075 -0.075649 0.913000 11469165
-0.246614 -0.070586 0.915000 15525118
-0.247153 -0.065500 0.917000 15596542
-0.247962 -0.060457 0.920000 14866430
-0.248501 -0.055320 0.922000 14677758
-0.233631 -0.202037 0.873000 13082024
-0.234167 -0.197500 0.875000 12491927
-0.234167 -0.192500 0.875000 12022150
-0.234970 -0.188143 0.878000 11098727
-0.235505 -0.183543 0.880000 10696028
-0.234970 -0.178109 0.878000 2621777
-0.234970 -0.173091 0.878000 3217191
-0.236040 -0.168840 0.882000 2957091
-0.237378 -0.164729 0.887000 2825258
-0.237913 -0.160020 0.889000 3019817
-0.239251 -0.155811 0.894000 11681588
-0.239787 -0.151040 0.896000 13266610
-0.239251 -0.145594 0.894000 11163533
-0.239787 -0.140800 0.896000 11751274
-0.241125 -0.136437 0.901000 11357033
-0.239787 -0.130560 0.896000 11882587
-0.241125 -0.126140 0.901000 11883381
-0.241125 -0.120991 0.901000 11742563
-0.241660 -0.116100 0.903000 12012919
-0.241660 -0.110940 0.903000 11951470
-0.241660 -0.105780 0.903000 11882606
-0.241660 -0.100620 0.903000 11010381
-0.243533 -0.096200 0.910000 11613004
-0.243533 -0.091000 0.910000 12276587
-0.244336 -0.086083 0.913000 13001072
-0.244336 -0.080866 0.913000 12340577
-0.244871 -0.075814 0.915000 12017270
-0.245407 -0.070740 0.917000 15977202
-0.246210 -0.065714 0.920000 16710141
-0.246745 -0.060589 0.922000 16702169
-0.246745 -0.055320 0.922000 16699109
-0.232500 -0.197500 0.875000 12890821
-0.232500 -0.192500 0.875000 12760006
-0.233297 -0.188143 0.878000 12360125
-0.233829 -0.183543 0.880000 12227508
-0.233297 -0.178109 0.878000 6046089
-0.234360 -0.168840 0.882000 2299679
-0.236220 -0.165100 0.889000 3087919
-0.236751 -0.160380 0.891000 3412523
-0.238080 -0.156160 0.896000 11955252
-0.238611 -0.151377 0.898000 13408436
-0.238611 -0.146246 0.898000 11349645
-0.239409 -0.141586 0.901000 11947875
-0.239409 -0.136437 0.901000 11553112
-0.239409 -0.131289 0.901000 11947092
-0.239409 -0.126140 0.901000 11951229
-0.239940 -0.121260 0.903000 11881327
-0.239940 -0.116100 0.903000 11940980
-0.240471 -0.111186 0.905000 11946102
-0.240471 -0.106014 0.905000 11818337
-0.240471 -0.100843 0.905000 11280982
-0.241800 -0.096200 0.910000 11683418
-0.242597 -0.091300 0.913000 12144747
-0.242597 -0.086083 0.913000 12605545
-0.243129 -0.081043 0.915000 12009826
-0.243660 -0.075980 0.917000 13203070
-0.243660 -0.070740 0.917000 15652070
-0.244457 -0.065714 0.920000 16709372
-0.244989 -0.060589 0.922000 13542835
-0.244989 -0.055320 0.922000 13605579
-0.234527 -0.165100 0.889000 3283750
-0.235054 -0.160380 0.891000 3873316
-0.236901 -0.156509 0.898000 12207156
-0.237692 -0.151883 0.901000 13601668
-0.236901 -0.146246 0.898000 11553401
-0.237692 -0.141586 0.901000 12078440
-0.238220 -0.136740 0.903000 11751014
-0.238220 -0.131580 0.903000 12078425
-0.238220 -0.126420 0.903000 11949684
-0.238748 -0.121529 0.905000 12082287
-0.238748 -0.116357 0.905000 11815794
-0.238748 -0.111186 0.905000 11875693
-0.238748 -0.106014 0.905000 11684449
-0.238748 -0.100843 0.905000 11486044
-0.240858 -0.096517 0.913000 11749732
-0.240858 -0.091300 0.913000 12013677
-0.241386 -0.086271 0.915000 12211306
-0.241913 -0.081220 0.917000 11745889
-0.242705 -0.076229 0.920000 14320509
-0.242705 -0.070971 0.920000 15322855
-0.243232 -0.065857 0.922000 16643323
-0.243232 -0.060589 0.922000 10436781
-0.244024 -0.055500 0.925000 10522047
-0.232833 -0.165100 0.889000 2362140
-0.233357 -0.160380 0.891000 2953501
-0.234667 -0.156160 0.896000 11225653
-0.235190 -0.151377 0.898000 11945812
-0.235190 -0.146246 0.898000 11556197
-0.235976 -0.141586 0.901000 11882349
-0.235976 -0.136437 0.901000 11687284
-0.236500 -0.131580 0.903000 11814494
-0.236500 -0.126420 0.903000 11815532
-0.237810 -0.121931 0.908000 11949423
-0.237810 -0.116743 0.908000 11819119
-0.237024 -0.111186 0.905000 11946083
-0.237024 -0.106014 0.905000 11682912
-0.237810 -0.101177 0.908000 11617889
-0.239119 -0.096517 0.913000 11949934
-0.239643 -0.091500 0.915000 12013935
-0.240167 -0.086460 0.917000 12080234
-0.240167 -0.081220 0.917000 11284576
-0.241476 -0.076394 0.922000 14789756
-0.241476 -0.071126 0.922000 15390951
-0.241476 -0.065857 0.922000 16708858
-0.242262 -0.060786 0.925000 10714791
-0.242262 -0.055500 0.925000 11236274
-0.231660 -0.160380 0.891000 2099498
-0.233480 -0.156509 0.898000 10230567
-0.234260 -0.151883 0.901000 10355271
-0.234260 -0.146734 0.901000 11488344
-0.234260 -0.141586 0.901000 11685737
-0.234780 -0.136740 0.903000 11620975
-0.234780 -0.131580 0.903000 11613000
-0.235300 -0.126700 0.905000 11686258
-0.236600 -0.122200 0.910000 11816815
-0.236600 -0.117000 0.910000 11817068
-0.236600 -0.111800 0.910000 12015464
-0.236080 -0.106366 0.908000 11617621
-0.237380 -0.101734 0.913000 11750502
-0.237380 -0.096517 0.913000 12145258
-0.237380 -0.091300 0.913000 11948399
-0.237900 -0.086271 0.915000 11947116
-0.239200 -0.081486 0.920000 10828633
-0.239200 -0.076229 0.920000 15246759
-0.239200 -0.070971 0.920000 15458282
-0.239200 -0.065714 0.920000 16706547
-0.239720 -0.060589 0.922000 10980521
-0.240500 -0.055500 0.925000 11903931
-0.231770 -0.156509 0.898000 6095129
-0.232544 -0.151883 0.901000 9636153
-0.232544 -0.146734 0.901000 11620426
-0.233060 -0.141900 0.903000 11686757
-0.233060 -0.136740 0.903000 11817835
-0.234350 -0.132309 0.908000 11352369
-0.234350 -0.127120 0.908000 11622008
-0.235641 -0.122603 0.913000 11752559
-0.236157 -0.117643 0.915000 11684968
-0.235641 -0.112169 0.913000 11817580
-0.236157 -0.107186 0.915000 11157066
-0.236673 -0.102180 0.917000 11686763
-0.236673 -0.096940 0.917000 11882342
-0.236673 -0.091700 0.917000 11882862
-0.236673 -0.086460 0.917000 11813998
-0.237448 -0.081486 0.920000 10953554
-0.238738 -0.076643 0.925000 15592145
-0.237964 -0.071126 0.922000 15262189
-0.237448 -0.065714 0.920000 15855085
-0.237964 -0.060589 0.922000 10914986
-0.239254 -0.055620 0.927000 12300996
-0.230828 -0.151883 0.901000 8982846
-0.231340 -0.147060 0.903000 11680841
-0.231340 -0.141900 0.903000 11688045
-0.233133 -0.137800 0.910000 11949420
-0.233902 -0.133037 0.913000 11087943
-0.233902 -0.127820 0.913000 11490415
-0.234414 -0.122871 0.915000 11753076
-0.234927 -0.117900 0.917000 11487575
-0.235695 -0.113029 0.920000 11685492
-0.236208 -0.108006 0.922000 10633047
-0.236208 -0.102737 0.922000 11689834
-0.235695 -0.097257 0.920000 11617636
-0.235695 -0.092000 0.920000 11818855
-0.235695 -0.086743 0.920000 11617122
-0.236208 -0.081663 0.922000 11077683
-0.236976 -0.076643 0.925000 15913944
-0.236976 -0.071357 0.925000 15129825
-0.236208 -0.065857 0.922000 14996201
-0.236976 -0.060786 0.925000 10785214
-0.237489 -0.055620 0.927000 12695251
-0.229111 -0.151883 0.901000 8467522
-0.229620 -0.147060 0.903000 9447752
-0.230129 -0.142214 0.905000 10570868
-0.231400 -0.137800 0.910000 11359085
-0.232671 -0.133329 0.915000 11357277
-0.232671 -0.128100 0.915000 11290471
-0.233180 -0.123140 0.917000 11688313
-0.233943 -0.118286 0.920000 11546693
-0.234451 -0.113274 0.922000 11688316
-0.235214 -0.108357 0.925000 11026276
-0.235214 -0.103071 0.925000 11819625
-0.235214 -0.097786 0.925000 11614817
-0.234451 -0.092200 0.922000 11687264
-0.235214 -0.087214 0.925000 11616086
-0.235214 -0.081929 0.925000 11807252
-0.235723 -0.076809 0.927000 15782368
-0.235723 -0.071511 0.927000 15126229
-0.235723 -0.066214 0.927000 13879781
-0.235723 -0.060917 0.927000 11708370
-0.236486 -0.055800 0.930000 13160675
-0.227395 -0.146734 0.901000 7161718
-0.227900 -0.141900 0.903000 9453164
-0.230424 -0.138254 0.913000 10763348
-0.230929 -0.133329 0.915000 11557971
-0.231433 -0.128380 0.917000 11093609
-0.232190 -0.123543 0.920000 11689584
-0.232190 -0.118286 0.920000 11553364
-0.233452 -0.113643 0.925000 11755636
-0.233957 -0.108591 0.927000 11423848
-0.233957 -0.103294 0.927000 11949674
-0.233957 -0.097997 0.927000 11551842
-0.233957 -0.092700 0.927000 11557985
-0.233957 -0.087403 0.927000 11551324
-0.233957 -0.082106 0.927000 12583488
-0.234714 -0.077057 0.930000 15591407
-0.234714 -0.071743 0.930000 15124970
-0.234714 -0.066429 0.930000 12696799
-0.234714 -0.061114 0.930000 12627666
-0.225679 -0.146734 0.901000 9602211
-0.226180 -0.141900 0.903000 9656420
-0.228685 -0.138254 0.913000 10164283
-0.229687 -0.133620 0.917000 10112584
-0.230438 -0.128800 0.920000 10500970
-0.230438 -0.123543 0.920000 11360870
-0.230438 -0.118286 0.920000 11556707
-0.231690 -0.113643 0.925000 11556203
-0.232943 -0.108943 0.930000 11558509
-0.232943 -0.103629 0.930000 11753578
-0.233444 -0.098526 0.932000 11551586
-0.233444 -0.093200 0.932000 11621729
-0.232943 -0.087686 0.930000 11751011
-0.232943 -0.082371 0.930000 12539243
-0.234195 -0.077471 0.935000 15531006
-0.234195 -0.072129 0.935000 15460094
-0.234195 -0.066786 0.935000 12691930
-0.233444 -0.061246 0.932000 12758737
-0.226946 -0.138254 0.913000 9528427
-0.228686 -0.134057 0.920000 8671346
-0.229183 -0.129080 0.922000 9847666
-0.229183 -0.123811 0.922000 11033445
-0.229929 -0.118929 0.925000 11488090
-0.230426 -0.113889 0.927000 11424329
-0.231171 -0.108943 0.930000 11620193
-0.231669 -0.103851 0.932000 11557226
-0.232414 -0.098843 0.935000 11489383
-0.232414 -0.093500 0.935000 11687521
-0.231669 -0.087874 0.932000 11946334
-0.232414 -0.082814 0.935000 12540520
-0.232911 -0.077637 0.937000 15380684
-0.232911 -0.072283 0.937000 15853796
-0.232911 -0.066929 0.937000 12626619
-0.233657 -0.061771 0.940000 12955073
-0.225207 -0.138254 0.913000 10983836
-0.226933 -0.134057 0.920000 10846363
-0.227427 -0.129080 0.922000 10973051
-0.227427 -0.123811 0.922000 10770788
-0.228167 -0.118929 0.925000 10435152
-0.228660 -0.113889 0.927000 9776934
-0.229400 -0.108943 0.930000 10697045
-0.229893 -0.103851 0.932000 11295082
-0.229893 -0.098526 0.932000 11688299
-0.231127 -0.093700 0.937000 11753312
-0.230633 -0.088157 0.935000 11750490
-0.230633 -0.082814 0.935000 12411748
-0.231127 -0.077637 0.937000 12725658
-0.231127 -0.072283 0.937000 13871562
-0.231127 -0.066929 0.937000 12359324
-0.232360 -0.061903 0.942000 13084592
-0.225181 -0.134057 0.920000 12952982
-0.225670 -0.129080 0.922000 12032399
-0.225670 -0.123811 0.922000 10587015
-0.226405 -0.118929 0.925000 9398906
-0.226894 -0.113889 0.927000 8201562
-0.227629 -0.108943 0.930000 9714533
-0.228118 -0.103851 0.932000 11096163
-0.228852 -0.098843 0.935000 11882082
-0.229342 -0.093700 0.937000 11818328
-0.229342 -0.088346 0.937000 11549514
-0.229342 -0.082991 0.937000 12288877
-0.229342 -0.077637 0.937000 10114955
-0.229342 -0.072283 0.937000 11895186
-0.229342 -0.066929 0.937000 12009296
-0.230566 -0.061903 0.942000 13209435
-0.223914 -0.123811 0.922000 11968682
-0.225129 -0.119186 0.927000 11444899
-0.225129 -0.113889 0.927000 10909581
-0.226343 -0.109177 0.932000 10644085
-0.227071 -0.104186 0.935000 10637147
-0.227557 -0.099054 0.937000 10298201
-0.228286 -0.094000 0.940000 9778768
-0.227557 -0.088346 0.937000 9574203
-0.227557 -0.082991 0.937000 10837365
-0.227557 -0.077637 0.937000 10184573
-0.228286 -0.072514 0.940000 10568538
-0.228286 -0.067143 0.940000 9765125
-0.223363 -0.119186 0.927000 13477535
-0.223363 -0.113889 0.927000 13612441
-0.224568 -0.109177 0.932000 11573901
-0.225290 -0.104186 0.935000 10259076
-0.225772 -0.099054 0.937000 8675967
-0.226495 -0.094000 0.940000 7811952
-0.225772 -0.088346 0.937000 7612252
-0.225772 -0.082991 0.937000 9456497
-0.226495 -0.077886 0.940000 10237536
-0.226977 -0.072669 0.942000 9240888
-0.227700 -0.067500 0.945000 7477006
-0.221597 -0.113889 0.927000 13478564
-0.222314 -0.108943 0.930000 12563365
-0.223510 -0.104186 0.935000 11969452
-0.223988 -0.099054 0.937000 11248037
-0.225900 -0.094500 0.945000 10648976
-0.223988 -0.088346 0.937000 9792638
-0.224705 -0.083257 0.940000 9917805
-0.224705 -0.077886 0.940000 9765187
-0.225183 -0.072669 0.942000 8132374
-0.225900 -0.067500 0.945000 6689047
-0.224100 -0.094500 0.945000 13546906
-0.222203 -0.088346 0.937000 11967893
-0.222914 -0.083257 0.940000 10458252
-0.222914 -0.077886 0.940000 9268087
-0.223389 -0.072669 0.942000 7100510
-0.224100 -0.067500 0.945000 5915482
-0.221124 -0.083257 0.940000 11970219
-0.286813 -0.211556 0.878000 9902593
-0.286813 -0.206539 0.878000 9773074
-0.285833 -0.140833 0.875000 6378838
-0.285141 -0.211556 0.878000 8454420
-0.284167 -0.205833 0.875000 7407893
-0.285141 -0.141316 0.878000 1442093
-0.286440 -0.136920 0.882000 2627880
-0.282500 -0.210833 0.875000 9112871
-0.280563 -0.204422 0.869000 7996184
-0.279917 -0.198997 0.867000 7602689
-0.279917 -0.194043 0.867000 7733505
-0.283469 -0.141316 0.878000 2032900
-0.284760 -0.136920 0.882000 2490627
-0.280191 -0.210351 0.873000 9770553
-0.278908 -0.204422 0.869000 8585998
-0.277624 -0.198538 0.865000 8062215
-0.277624 -0.193595 0.865000 6816263
-0.278266 -0.189089 0.867000 6488328
-0.281796 -0.151350 0.878000 2691340
-0.282438 -0.146667 0.880000 2624267
-0.281796 -0.141316 0.878000 2559753
-0.283080 -0.136920 0.882000 2362121
-0.283722 -0.132179 0.884000 1248777
-0.284685 -0.127559 0.887000 788235
-0.285969 -0.123043 0.891000 721673
-0.286931 -0.118349 0.894000 197640
-0.286931 -0.113240 0.894000 131336
-0.278529 -0.210351 0.873000 9970251
-0.276614 -0.203951 0.867000 8782341
-0.274381 -0.197390 0.860000 8061708
-0.275976 -0.193595 0.865000 7275276
-0.277252 -0.189525 0.869000 6947855
-0.277252 -0.184559 0.869000 6685718
-0.279167 -0.155833 0.875000 1642267
-0.280124 -0.151350 0.878000 2166549
-0.280124 -0.146333 0.878000 2034706
-0.280762 -0.141638 0.880000 2100494
-0.281400 -0.136920 0.882000 1969936
-0.282038 -0.132179 0.884000 1445136
-0.283633 -0.127847 0.889000 1051157
-0.283633 -0.122767 0.889000 1181968
-0.284271 -0.117951 0.891000 919823
-0.285229 -0.113240 0.894000 854031
-0.285229 -0.077480 0.894000 3670273
-0.277500 -0.210833 0.875000 10234959
-0.274329 -0.203481 0.865000 8913158
-0.273377 -0.197850 0.862000 8127243
-0.274329 -0.193595 0.865000 7668492
-0.275597 -0.189525 0.869000 7471883
-0.275597 -0.184559 0.869000 7406608
-0.276231 -0.180007 0.871000 7341319
-0.277500 -0.160833 0.875000 1969432
-0.277500 -0.155833 0.875000 1707284
-0.277500 -0.150833 0.875000 1707538
-0.278451 -0.146333 0.878000 1379344
-0.278451 -0.141316 0.878000 1641742
-0.279720 -0.136920 0.882000 1510924
-0.279720 -0.131880 0.882000 1641484
-0.281306 -0.127559 0.887000 1248273
-0.281940 -0.122767 0.889000 1641484
-0.282574 -0.117951 0.891000 1575437
-0.282574 -0.112860 0.891000 1575951
-0.281940 -0.107527 0.889000 1706511
-0.281306 -0.102216 0.887000 1510929
-0.284794 -0.088090 0.898000 2230537
-0.284160 -0.082773 0.896000 1509640
-0.284160 -0.077653 0.896000 460299
-0.278040 -0.217560 0.882000 10827126
-0.275833 -0.210833 0.875000 10364754
-0.271735 -0.202775 0.862000 9109768
-0.271105 -0.197390 0.860000 8389129
-0.272681 -0.193595 0.865000 7799308
-0.273942 -0.189525 0.869000 7537159
-0.273942 -0.184559 0.869000 7471882
-0.274572 -0.180007 0.871000 7407113
-0.275203 -0.175431 0.873000 3149332
-0.275833 -0.170833 0.875000 2100246
-0.275833 -0.165833 0.875000 1903892
-0.275833 -0.160833 0.875000 1707281
-0.276779 -0.156368 0.878000 1444366
-0.276779 -0.151350 0.878000 1510927
-0.276779 -0.146333 0.878000 1314063
-0.276779 -0.141316 0.878000 1444878
-0.277410 -0.136610 0.880000 1379337
-0.278670 -0.132179 0.884000 1510152
-0.279616 -0.127559 0.887000 1182732
-0.280247 -0.122767 0.889000 1510408
-0.280247 -0.117687 0.889000 1378827
-0.280247 -0.112607 0.889000 1379086
-0.280247 -0.107527 0.889000 1772047
-0.280247 -0.102447 0.889000 1576460
-0.283084 -0.093221 0.898000 1838354
-0.282453 -0.087893 0.896000 1903633
-0.282453 -0.082773 0.896000 1641743
-0.282453 -0.077653 0.896000 1118229
-0.284030 -0.072938 0.901000 1182485
-0.284660 -0.067940 0.903000 1379356
-0.275733 -0.217067 0.880000 10829172
-0.272287 -0.209388 0.869000 10561360
-0.270093 -0.202775 0.862000 9240843
-0.270093 -0.197850 0.862000 8585486
-0.271033 -0.193595 0.865000 7930380
-0.271660 -0.189089 0.867000 7667977
-0.272287 -0.184559 0.869000 7471882
-0.272287 -0.179593 0.869000 7537415
-0.272913 -0.175030 0.871000 3344913
-0.273540 -0.170443 0.873000 1903635
-0.274167 -0.165833 0.875000 1707283
-0.274167 -0.160833 0.875000 1445393
-0.275107 -0.156368 0.878000 1182478
-0.275107 -0.151350 0.878000 1314062
-0.275107 -0.146333 0.878000 1182988
-0.275107 -0.141316 0.878000 1248524
-0.275733 -0.136610 0.880000 1182728
-0.276360 -0.131880 0.882000 1379336
-0.276987 -0.127128 0.884000 1116939
-0.277927 -0.122490 0.887000 1313547
-0.277927 -0.117422 0.887000 1182477
-0.277927 -0.112353 0.887000 1182736
-0.277927 -0.107285 0.887000 1772815
-0.278553 -0.102447 0.889000 1642512
-0.279180 -0.097586 0.891000 1511186
-0.280747 -0.093013 0.896000 1707538
-0.280747 -0.087893 0.896000 1576721
-0.280747 -0.082773 0.896000 1838866
-0.281373 -0.077827 0.898000 1708563
-0.282313 -0.072938 0.901000 2101012
-0.282940 -0.067940 0.903000 2363412
-0.275303 -0.218053 0.884000 10959729
-0.270631 -0.209388 0.869000 10693197
-0.268451 -0.202775 0.862000 9634062
-0.267829 -0.197390 0.860000 8913427
-0.269386 -0.193595 0.865000 8257805
-0.270009 -0.189089 0.867000 7930378
-0.270631 -0.184559 0.869000 7734026
-0.270631 -0.179593 0.869000 7734276
-0.271254 -0.175030 0.871000 4065806
-0.271877 -0.170443 0.873000 1510160
-0.272500 -0.165833 0.875000 1576465
-0.272500 -0.160833 0.875000 1379600
-0.272500 -0.155833 0.875000 1248270
-0.272500 -0.150833 0.875000 1248269
-0.273434 -0.146333 0.878000 1379593
-0.273434 -0.141316 0.878000 1248521
-0.274057 -0.136610 0.880000 1182728
-0.275303 -0.132179 0.884000 1248519
-0.275303 -0.127128 0.884000 1312778
-0.276237 -0.122490 0.887000 1510157
-0.276237 -0.117422 0.887000 1509904
-0.276237 -0.112353 0.887000 1314321
-0.276237 -0.107285 0.887000 1773072
-0.276860 -0.102447 0.889000 1708051
-0.278417 -0.097914 0.894000 1773587
-0.279040 -0.093013 0.896000 1904146
-0.279040 -0.087893 0.896000 1642769
-0.279040 -0.082773 0.896000 1839125
-0.279663 -0.077827 0.898000 1708818
-0.280597 -0.072938 0.901000 1969939
-0.281220 -0.067940 0.903000 2036749
-0.281220 -0.062780 0.903000 2363150
-0.282777 -0.057939 0.908000 2559506
-0.273000 -0.217560 0.882000 11027564
-0.270214 -0.210351 0.873000 10893133
-0.267738 -0.203481 0.865000 9961741
-0.266190 -0.197390 0.860000 9175567
-0.266810 -0.192924 0.862000 8519948
-0.267738 -0.188652 0.865000 8192521
-0.267738 -0.183710 0.865000 7996167
-0.268357 -0.179180 0.867000 7930630
-0.268976 -0.174628 0.869000 4720399
-0.269595 -0.170052 0.871000 1183244
-0.270214 -0.165454 0.873000 1379855
-0.270214 -0.160466 0.873000 1314064
-0.270214 -0.155477 0.873000 1248270
-0.270214 -0.150489 0.873000 1248270
-0.270214 -0.145500 0.873000 1575692
-0.270833 -0.140833 0.875000 1182729
-0.271762 -0.136299 0.878000 1117192
-0.273000 -0.131880 0.882000 1117705
-0.273000 -0.126840 0.882000 1444876
