# .PCD v.7 - Point Cloud Data file format
VERSION .7
FIELDS x y z rgb
SIZE 4 4 4 4
TYPE F F F I
COUNT 1 1 1 1
WIDTH 1281
HEIGHT 1
POINTS 1281
DATA ascii
-0.257580 -0.036797 0.729000 2100502
-0.257580 -0.032631 0.729000 2494227
-0.258287 -0.028544 0.731000 2824725
-0.258640 -0.024400 0.732000 3088671
-0.242837 -0.173079 0.691000 10624852
-0.242134 -0.168641 0.689000 11742546
-0.237566 -0.161596 0.676000 11936840
-0.236863 -0.157267 0.674000 11537458
-0.237566 -0.153870 0.676000 11209511
-0.238269 -0.150451 0.678000 10751274
-0.238269 -0.146577 0.678000 10225958
-0.238620 -0.142913 0.679000 10094109
-0.238971 -0.139238 0.680000 9831965
-0.240377 -0.136149 0.684000 9570080
-0.241080 -0.132627 0.686000 9046806
-0.241080 -0.128707 0.686000 5245718
-0.242134 -0.125332 0.689000 2103852
-0.242837 -0.121748 0.691000 1840420
-0.242837 -0.117799 0.691000 1512478
-0.242837 -0.113850 0.691000 1380378
-0.243540 -0.110220 0.693000 1511447
-0.243891 -0.106413 0.694000 1510936
-0.244243 -0.102595 0.695000 1379855
-0.244946 -0.098908 0.697000 1248272
-0.245297 -0.095061 0.698000 1182737
-0.246351 -0.091464 0.701000 1313557
-0.246351 -0.087458 0.701000 1379603
-0.247406 -0.083810 0.704000 1444882
-0.247406 -0.079787 0.704000 1182994
-0.247757 -0.075871 0.705000 1314061
-0.248460 -0.072047 0.707000 1182737
-0.248811 -0.068103 0.708000 1313810
-0.249866 -0.064329 0.711000 1182992
-0.250920 -0.060520 0.714000 1379601
-0.250920 -0.056440 0.714000 1248530
-0.251623 -0.052507 0.716000 1182992
-0.253029 -0.048686 0.720000 1380109
-0.253731 -0.044695 0.722000 1379855
-0.255137 -0.040794 0.726000 1706771
-0.256191 -0.036797 0.729000 1642516
-0.256191 -0.032631 0.729000 1904658
-0.257246 -0.028583 0.732000 2298133
-0.257246 -0.024400 0.732000 2758170
-0.241171 -0.172829 0.690000 11146594
-0.240123 -0.168151 0.687000 11808336
-0.235929 -0.161357 0.675000 11870783
-0.235579 -0.157267 0.674000 11537712
-0.236278 -0.153870 0.676000 11209512
-0.236977 -0.150451 0.678000 10950188
-0.236977 -0.146577 0.678000 10554407
-0.237676 -0.143124 0.680000 10291742
-0.238725 -0.139852 0.683000 10094112
-0.239773 -0.136547 0.686000 9767201
-0.240123 -0.132820 0.687000 9441558
-0.240123 -0.128894 0.687000 4592419
-0.241171 -0.125514 0.690000 2300975
-0.241521 -0.121748 0.691000 1972519
-0.242220 -0.118140 0.693000 1709344
-0.242220 -0.114180 0.693000 1642778
-0.242220 -0.110220 0.693000 1642520
-0.242570 -0.106413 0.694000 1511450
-0.242919 -0.102595 0.695000 1510929
-0.243618 -0.098908 0.697000 1379857
-0.243968 -0.095061 0.698000 1314068
-0.244667 -0.091333 0.700000 1379605
-0.245715 -0.087708 0.703000 1511445
-0.246065 -0.083810 0.704000 1445141
-0.246065 -0.079787 0.704000 1576471
-0.246414 -0.075871 0.705000 1445136
-0.246414 -0.071843 0.705000 1379861
-0.247463 -0.068103 0.708000 1445142
-0.248511 -0.064329 0.711000 1445394
-0.249560 -0.060520 0.714000 1511187
-0.249560 -0.056440 0.714000 1510935
-0.250259 -0.052507 0.716000 1380370
-0.251657 -0.048686 0.720000 1577229
-0.252356 -0.044695 0.722000 1577235
-0.253405 -0.040738 0.725000 1837846
-0.253754 -0.036646 0.726000 1576978
-0.254453 -0.032587 0.728000 1773841
-0.255502 -0.028544 0.731000 1970196
-0.255502 -0.024367 0.731000 2232341
-0.256550 -0.020272 0.734000 2626069
-0.261094 -0.012094 0.747000 2758177
-0.238814 -0.172077 0.687000 11679100
-0.238467 -0.167907 0.686000 11939147
-0.234990 -0.161596 0.676000 11803193
-0.234295 -0.157267 0.674000 11538233
-0.235686 -0.154326 0.678000 11212334
-0.236033 -0.150673 0.679000 11083314
-0.236381 -0.147010 0.680000 10817579
-0.237076 -0.143545 0.682000 10488611
-0.237424 -0.139852 0.683000 10357027
-0.238814 -0.136746 0.687000 10030116
-0.239510 -0.133207 0.689000 9834523
-0.239510 -0.129270 0.689000 4003114
-0.239857 -0.125514 0.690000 2498350
-0.240205 -0.121748 0.691000 2170152
-0.240900 -0.118140 0.693000 1840932
-0.240900 -0.114180 0.693000 1839391
-0.240900 -0.110220 0.693000 1774109
-0.241595 -0.106567 0.695000 1576735
-0.242290 -0.102890 0.697000 1576728
-0.242638 -0.099050 0.698000 1511450
-0.243333 -0.095333 0.700000 1380120
-0.243681 -0.091464 0.701000 1445913
-0.244376 -0.087708 0.703000 1577498
-0.244724 -0.083810 0.704000 1445402
-0.245071 -0.079900 0.705000 1970459
-0.245071 -0.075871 0.705000 1576472
-0.245767 -0.072047 0.707000 1511959
-0.246114 -0.068103 0.708000 1577240
-0.247157 -0.064329 0.711000 1708821
-0.248200 -0.060520 0.714000 1708052
-0.248895 -0.056598 0.716000 1709079
-0.249243 -0.052580 0.717000 1643540
-0.250286 -0.048686 0.720000 1708818
-0.250981 -0.044695 0.722000 1709332
-0.252024 -0.040738 0.725000 1904662
-0.252371 -0.036646 0.726000 1511700
-0.253067 -0.032587 0.728000 1643023
-0.254110 -0.028544 0.731000 1708308
-0.254457 -0.024400 0.732000 1708307
-0.255152 -0.020272 0.734000 2035218
-0.259671 -0.012094 0.747000 2625820
-0.237506 -0.172077 0.687000 12014998
-0.236469 -0.167417 0.684000 12003397
-0.233703 -0.161596 0.676000 11735347
-0.233703 -0.157733 0.676000 11407937
-0.234394 -0.154326 0.678000 11213621
-0.235086 -0.150895 0.680000 11149880
-0.235777 -0.147442 0.682000 11014704
-0.236123 -0.143755 0.683000 10620200
-0.237506 -0.140671 0.687000 10554150
-0.238197 -0.137144 0.689000 10227494
-0.238197 -0.133207 0.689000 10097439
-0.238197 -0.129270 0.689000 3808561
-0.238889 -0.125696 0.691000 2695982
-0.239580 -0.122100 0.693000 2367016
-0.239580 -0.118140 0.693000 2038313
-0.239580 -0.114180 0.693000 1971236
-0.239926 -0.110379 0.694000 2102562
-0.240271 -0.106567 0.695000 1905187
-0.241309 -0.103038 0.698000 1970719
-0.241309 -0.099050 0.698000 1839650
-0.242000 -0.095333 0.700000 1773852
-0.242346 -0.091464 0.701000 1708829
-0.243037 -0.087708 0.703000 1905952
-0.243383 -0.083810 0.704000 1905695
-0.243729 -0.079900 0.705000 2168095
-0.244420 -0.076087 0.707000 1905695
-0.244766 -0.072149 0.708000 1905946
-0.244766 -0.068103 0.708000 1906202
-0.246494 -0.064510 0.713000 1971736
-0.246840 -0.060520 0.714000 1972245
-0.247531 -0.056598 0.716000 1972248
-0.247877 -0.052580 0.717000 1971989
-0.248914 -0.048686 0.720000 1906199
-0.249951 -0.044757 0.723000 1906453
-0.250989 -0.040794 0.726000 1970454
-0.250989 -0.036646 0.726000 1709334
-0.251680 -0.032587 0.728000 1708814
-0.252717 -0.028544 0.731000 1708308
-0.253063 -0.024400 0.732000 1905425
-0.253754 -0.020272 0.734000 1969934
-0.255829 -0.016210 0.740000 2298127
-0.257557 -0.012062 0.745000 2429207
-0.235166 -0.167417 0.684000 12075899
-0.232415 -0.161596 0.676000 11608923
-0.232415 -0.157733 0.676000 11276873
-0.233447 -0.154553 0.679000 11149622
-0.233790 -0.150895 0.680000 11150393
-0.235853 -0.148307 0.686000 11212853
-0.236885 -0.145018 0.689000 10817581
-0.236885 -0.141081 0.689000 10685481
-0.236885 -0.137144 0.689000 10424617
-0.236885 -0.133207 0.689000 10295584
-0.237229 -0.129457 0.690000 3612978
-0.237572 -0.125696 0.691000 2827055
-0.238260 -0.122100 0.693000 2629165
-0.238260 -0.118140 0.693000 2169897
-0.238260 -0.114180 0.693000 2169124
-0.238604 -0.110379 0.694000 2365729
-0.239635 -0.106873 0.697000 2234400
-0.239979 -0.103038 0.698000 2299936
-0.239979 -0.099050 0.698000 2168868
-0.240667 -0.095333 0.700000 2103326
-0.241010 -0.091464 0.701000 2037793
-0.242042 -0.087832 0.704000 2169377
-0.242386 -0.083929 0.705000 2366243
-0.243073 -0.080127 0.707000 2365985
-0.243073 -0.076087 0.707000 2235169
-0.243417 -0.072149 0.708000 2234910
-0.244449 -0.068391 0.711000 2235166
-0.246168 -0.064781 0.716000 2234910
-0.246168 -0.060690 0.716000 2235675
-0.246168 -0.056598 0.716000 2235165
-0.246511 -0.052580 0.717000 2234907
-0.247543 -0.048686 0.720000 2103581
-0.249262 -0.044881 0.725000 2169370
-0.250293 -0.040907 0.728000 2037527
-0.249606 -0.036646 0.726000 1906714
-0.250293 -0.032587 0.728000 1774613
-0.251325 -0.028544 0.731000 1707799
-0.251669 -0.024400 0.732000 2035986
-0.253044 -0.020328 0.736000 1904654
-0.254419 -0.016210 0.740000 2167311
-0.256138 -0.012062 0.745000 2232596
-0.233863 -0.167417 0.684000 12224944
-0.231128 -0.157733 0.676000 11351120
-0.232153 -0.154553 0.679000 11084087
-0.233179 -0.151339 0.682000 11149882
-0.234547 -0.148307 0.686000 11345211
-0.236256 -0.145439 0.691000 10949425
-0.235914 -0.141286 0.690000 10817068
-0.235914 -0.137343 0.690000 10556204
-0.236256 -0.133593 0.691000 8855073
-0.236940 -0.130020 0.693000 3154227
-0.236256 -0.125696 0.691000 2957872
-0.236940 -0.122100 0.693000 2695217
-0.236940 -0.118140 0.693000 2432554
-0.237282 -0.114345 0.694000 2432291
-0.238308 -0.110856 0.697000 2563616
-0.238308 -0.106873 0.697000 2628637
-0.238650 -0.103038 0.698000 2563618
-0.239333 -0.099333 0.700000 2432549
-0.239333 -0.095333 0.700000 2432801
-0.240359 -0.091725 0.703000 2432549
-0.241043 -0.087957 0.705000 2498338
-0.241727 -0.084167 0.707000 2563878
-0.242069 -0.080240 0.708000 2629155
-0.242069 -0.076194 0.708000 2498083
-0.242069 -0.072149 0.708000 2432546
-0.242752 -0.068295 0.710000 2497825
-0.244804 -0.064781 0.716000 2497315
-0.244804 -0.060690 0.716000 2497825
-0.244804 -0.056598 0.716000 2432546
-0.245830 -0.052727 0.719000 2366753
-0.246171 -0.048686 0.720000 2366244
-0.248223 -0.044943 0.726000 2300446
-0.248907 -0.040907 0.728000 2365977
-0.248223 -0.036646 0.726000 2103837
-0.249249 -0.032631 0.729000 2037020
-0.250274 -0.028583 0.732000 1839898
-0.250958 -0.024467 0.734000 2100756
-0.251984 -0.020355 0.737000 1904654
-0.253693 -0.016253 0.742000 2167312
-0.254719 -0.012062 0.745000 2102033
-0.229840 -0.157733 0.676000 11437449
-0.230860 -0.154553 0.679000 11027812
-0.231880 -0.151339 0.682000 11148373
-0.233240 -0.148307 0.686000 11411259
-0.234940 -0.145439 0.691000 11015468
-0.235620 -0.141900 0.693000 10883629
-0.235620 -0.137940 0.693000 10752559
-0.235960 -0.134173 0.694000 7346211
-0.235620 -0.130020 0.693000 2761776
-0.234940 -0.125696 0.691000 3023149
-0.235620 -0.122100 0.693000 2760749
-0.235960 -0.118310 0.694000 2694697
-0.236300 -0.114510 0.695000 2694695
-0.236980 -0.110856 0.697000 2760743
-0.237320 -0.107027 0.698000 2957604
-0.238000 -0.103333 0.700000 2761253
-0.238000 -0.099333 0.700000 2761513
-0.238000 -0.095333 0.700000 2761509
-0.239020 -0.091725 0.703000 2826793
-0.240380 -0.088207 0.707000 2826793
-0.240720 -0.084286 0.708000 2761259
-0.240720 -0.080240 0.708000 2891562
-0.240720 -0.076194 0.708000 2826536
-0.241400 -0.072352 0.710000 2563882
-0.241740 -0.068391 0.711000 2694951
-0.244460 -0.065052 0.719000 2760487
-0.244460 -0.060944 0.719000 2694951
-0.244460 -0.056835 0.719000 2563624
-0.244800 -0.052800 0.720000 2498342
-0.245480 -0.048821 0.722000 2563366
-0.246840 -0.044943 0.726000 2431523
-0.247520 -0.040907 0.728000 2628381
-0.246840 -0.036646 0.726000 2235680
-0.248540 -0.032721 0.731000 2234654
-0.248880 -0.028583 0.732000 2037022
-0.249560 -0.024467 0.734000 2101529
-0.251260 -0.020410 0.739000 1904145
-0.252280 -0.016253 0.742000 2167313
-0.253300 -0.012062 0.745000 2036496
-0.228552 -0.157733 0.676000 11509186
-0.229567 -0.154553 0.679000 11106705
-0.230581 -0.151339 0.682000 11160175
-0.233624 -0.145439 0.691000 10885159
-0.233624 -0.141490 0.691000 10883374
-0.234638 -0.138139 0.694000 10297137
-0.234638 -0.134173 0.694000 4852773
-0.234300 -0.130020 0.693000 3023149
-0.233624 -0.125696 0.691000 3022635
-0.234300 -0.122100 0.693000 2694440
-0.234638 -0.118310 0.694000 2825001
-0.234976 -0.114510 0.695000 2826282
-0.236667 -0.111333 0.700000 2892334
-0.236667 -0.107333 0.700000 2957098
-0.236667 -0.103333 0.700000 2957864
-0.236667 -0.099333 0.700000 3023661
-0.237005 -0.095470 0.701000 3154473
-0.238019 -0.091855 0.704000 2957613
-0.240048 -0.088581 0.710000 2696751
-0.240048 -0.084524 0.710000 2695472
-0.240048 -0.080467 0.710000 2499121
-0.240048 -0.076410 0.710000 2433069
-0.240048 -0.072352 0.710000 2170418
-0.240386 -0.068391 0.711000 2367276
-0.243429 -0.065143 0.720000 2302508
-0.243429 -0.061029 0.720000 2498092
-0.243090 -0.056835 0.719000 2957102
-0.243429 -0.052800 0.720000 2760234
-0.244443 -0.048889 0.723000 2759976
-0.246133 -0.045067 0.728000 2563368
-0.246133 -0.040907 0.728000 2629153
-0.245457 -0.036646 0.726000 2498082
-0.247486 -0.032766 0.732000 2366240
-0.248162 -0.028661 0.734000 2234402
-0.248162 -0.024467 0.734000 2168093
-0.249852 -0.020410 0.739000 2035732
-0.250867 -0.016253 0.742000 2167058
-0.252557 -0.012094 0.747000 2102031
-0.233316 -0.142105 0.694000 10821197
-0.234325 -0.138736 0.697000 9840926
-0.233652 -0.134367 0.695000 2365732
-0.233316 -0.130208 0.694000 3351093
-0.232308 -0.125696 0.691000 3023151
-0.232980 -0.122100 0.693000 2628396
-0.233316 -0.118310 0.694000 2890794
-0.235670 -0.115498 0.701000 2956844
-0.236342 -0.111810 0.703000 2957356
-0.236342 -0.107793 0.703000 3021856
-0.236342 -0.103776 0.703000 3088171
-0.235670 -0.099475 0.701000 3285296
-0.235670 -0.095470 0.701000 3481375
-0.238023 -0.092377 0.708000 3087903
-0.239031 -0.088706 0.711000 2497568
-0.238695 -0.084524 0.710000 2629152
-0.240712 -0.081147 0.716000 2104094
-0.238695 -0.076410 0.710000 2103584
-0.240040 -0.072760 0.714000 1709090
-0.242057 -0.069257 0.720000 2037790
-0.242730 -0.065324 0.722000 1775135
-0.243066 -0.061283 0.723000 2299939
-0.244074 -0.057389 0.726000 3284006
-0.242057 -0.052800 0.720000 3022883
-0.243738 -0.049024 0.725000 2890798
-0.245083 -0.045129 0.729000 2695469
-0.244747 -0.040907 0.728000 2629156
-0.244074 -0.036646 0.726000 2694694
-0.247772 -0.032990 0.737000 2498081
-0.246764 -0.028661 0.734000 2431778
-0.247436 -0.024533 0.736000 2234399
-0.248445 -0.020410 0.739000 2166298
-0.249453 -0.016253 0.742000 2101522
-0.250462 -0.012062 0.745000 2167312
-0.232329 -0.142310 0.695000 11090797
-0.232997 -0.138736 0.697000 7082507
-0.231994 -0.134173 0.694000 2760995
-0.231994 -0.130208 0.694000 3548220
-0.231660 -0.126060 0.693000 3417651
-0.231660 -0.122100 0.693000 3088687
-0.232329 -0.118481 0.695000 3153707
-0.235337 -0.115992 0.704000 3087917
-0.235003 -0.111810 0.703000 2694954
-0.235003 -0.107793 0.703000 2496277
-0.236340 -0.104367 0.707000 2693422
-0.234334 -0.099475 0.701000 2757683
-0.238346 -0.097104 0.713000 3216405
-0.238346 -0.093030 0.713000 3740433
-0.238346 -0.088955 0.713000 4001810
-0.239349 -0.085238 0.716000 4264720
-0.239349 -0.081147 0.716000 4264716
-0.239683 -0.077163 0.717000 4460562
-0.240351 -0.073270 0.719000 4523793
-0.240351 -0.069161 0.719000 4526352
-0.241354 -0.065324 0.722000 4392979
-0.241689 -0.061283 0.723000 4002073
-0.242691 -0.057389 0.726000 3151135
-0.243360 -0.053387 0.728000 2691612
-0.243694 -0.049294 0.729000 2299955
-0.243694 -0.045129 0.729000 2629425
-0.243694 -0.040963 0.729000 2891303
-0.242691 -0.036646 0.726000 2760233
-0.247037 -0.033079 0.739000 2563875
-0.246369 -0.028778 0.737000 2498082
-0.246369 -0.024567 0.737000 2366241
-0.247037 -0.020410 0.739000 2233119
-0.248040 -0.016253 0.742000 2101010
-0.249043 -0.012062 0.745000 2035984
-0.231005 -0.142310 0.695000 11302024
-0.231670 -0.138736 0.697000 4262735
-0.230672 -0.134173 0.694000 3088194
-0.233996 -0.115992 0.704000 3284518
-0.234329 -0.112129 0.705000 2431006
-0.233664 -0.107793 0.703000 1969167
-0.235990 -0.104810 0.710000 2299178
-0.236988 -0.101178 0.713000 2294301
-0.237320 -0.097240 0.714000 2888745
-0.237985 -0.093421 0.716000 4327474
-0.237985 -0.089330 0.716000 5511997
-0.238317 -0.085357 0.717000 5901118
-0.238982 -0.081487 0.719000 6364734
-0.238982 -0.077378 0.719000 6821698
-0.239314 -0.073371 0.720000 7284290
-0.239314 -0.069257 0.720000 7083846
-0.239979 -0.065324 0.722000 7022917
-0.240976 -0.061452 0.725000 5642049
-0.241973 -0.057547 0.728000 2954301
-0.242306 -0.053460 0.729000 2360115
-0.242970 -0.049430 0.731000 1706528
-0.243303 -0.045314 0.732000 2563358
-0.243303 -0.041131 0.732000 3153448
-0.244965 -0.037201 0.737000 2826541
-0.245630 -0.033079 0.739000 2563622
-0.244965 -0.028778 0.737000 2564389
-0.245630 -0.024633 0.739000 2498082
-0.245630 -0.020410 0.739000 2365217
-0.246959 -0.016275 0.743000 2036759
-0.248289 -0.012094 0.747000 1970195
-0.230342 -0.138736 0.697000 8350867
-0.229350 -0.134173 0.694000 5980000
-0.233977 -0.112606 0.708000 3608850
-0.234638 -0.108867 0.710000 5117193
-0.234969 -0.104957 0.711000 5909287
-0.235960 -0.101320 0.714000 6494726
-0.236621 -0.097512 0.716000 7223358
-0.236621 -0.093421 0.716000 8009811
-0.236951 -0.089454 0.717000 8801896
-0.237943 -0.085714 0.720000 9063788
-0.237943 -0.081600 0.720000 9124976
-0.238604 -0.077701 0.722000 9587057
-0.238604 -0.073575 0.722000 9789298
-0.238604 -0.069450 0.722000 9652603
-0.239595 -0.065595 0.725000 9725047
-0.239926 -0.061537 0.726000 8865384
-0.240587 -0.057547 0.728000 7156828
-0.240917 -0.053460 0.729000 6170185
-0.241909 -0.049497 0.732000 5046542
-0.241909 -0.045314 0.732000 3018251
-0.241909 -0.041131 0.732000 2759210
-0.243561 -0.037201 0.737000 2694704
-0.244222 -0.033079 0.739000 2759466
-0.244222 -0.028856 0.739000 2629927
-0.244222 -0.024633 0.739000 2629668
-0.244552 -0.020438 0.740000 2497570
-0.246205 -0.016319 0.745000 2234909
-0.246866 -0.012094 0.747000 2102038
-0.228029 -0.134173 0.694000 8813446
-0.232629 -0.112606 0.708000 4724284
-0.233614 -0.109020 0.711000 8260139
-0.234271 -0.105252 0.713000 9508899
-0.235257 -0.101604 0.716000 10753598
-0.235586 -0.097649 0.717000 11553625
-0.236243 -0.093812 0.719000 11683427
-0.236571 -0.089829 0.720000 12081262
-0.237229 -0.085952 0.722000 12223613
-0.237229 -0.081827 0.722000 11883373
-0.237557 -0.077809 0.723000 12278131
-0.237557 -0.073677 0.723000 12279676
-0.238214 -0.069738 0.725000 12217206
-0.239200 -0.065867 0.728000 12345716
-0.239200 -0.061707 0.728000 12015472
-0.239529 -0.057626 0.729000 11351891
-0.240186 -0.053607 0.731000 9972790
-0.240514 -0.049497 0.732000 8336208
-0.241171 -0.045438 0.734000 3408183
-0.242157 -0.041412 0.737000 2364718
-0.242814 -0.037302 0.739000 2562348
-0.243143 -0.033124 0.740000 2891561
-0.243143 -0.028895 0.740000 2761257
-0.243143 -0.024667 0.740000 2761000
-0.243143 -0.020438 0.740000 2629669
-0.244786 -0.016319 0.745000 2366496
-0.245443 -0.012094 0.747000 2168346
-0.232913 -0.109327 0.713000 9512780
-0.233240 -0.105400 0.714000 9900831
-0.234220 -0.101746 0.717000 11157109
-0.234220 -0.097649 0.717000 11426933
-0.235200 -0.093943 0.720000 11554930
-0.235200 -0.089829 0.720000 11818612
-0.235853 -0.085952 0.722000 11954829
-0.235853 -0.081827 0.722000 11820905
-0.236833 -0.078024 0.725000 12212853
-0.236833 -0.073881 0.725000 12148101
-0.237160 -0.069834 0.726000 11952496
-0.237813 -0.065867 0.728000 12081520
-0.238140 -0.061791 0.729000 11752568
-0.238793 -0.057784 0.731000 11217483
-0.239120 -0.053680 0.732000 10360354
-0.239773 -0.049632 0.734000 12172690
-0.240427 -0.045562 0.736000 8015459
-0.241407 -0.041525 0.739000 5974835
-0.241733 -0.037352 0.740000 3740711
-0.242387 -0.033213 0.742000 2498856
-0.242387 -0.028973 0.742000 2892330
-0.242387 -0.024733 0.742000 2892076
-0.242387 -0.020493 0.742000 2695463
-0.244020 -0.016363 0.747000 2563619
-0.232530 -0.109787 0.716000 10833784
-0.232854 -0.105843 0.717000 10298950
-0.233829 -0.102171 0.720000 11565178
-0.232854 -0.097649 0.717000 11294839
-0.234478 -0.094204 0.722000 11358578
-0.234803 -0.090203 0.723000 11555695
-0.234803 -0.086071 0.723000 11755392
-0.234803 -0.081940 0.723000 11754089
-0.235452 -0.078024 0.725000 12146548
-0.235452 -0.073881 0.725000 11952256
-0.236427 -0.070027 0.728000 11753846
-0.236751 -0.065957 0.729000 11819635
-0.236751 -0.061791 0.729000 11425646
-0.237726 -0.057863 0.732000 11031664
-0.237726 -0.053680 0.732000 10685000
-0.238375 -0.049632 0.734000 15976882
-0.239025 -0.045562 0.736000 12679575
-0.239999 -0.041525 0.739000 9577790
-0.240324 -0.037352 0.740000 4984379
-0.240973 -0.033213 0.742000 2037810
-0.241298 -0.029012 0.743000 3023156
-0.240973 -0.024733 0.742000 3023918
-0.241298 -0.020521 0.743000 2826794
-0.243571 -0.016429 0.750000 2694952
-0.231166 -0.109787 0.716000 11564708
-0.232457 -0.106286 0.720000 11096174
-0.233103 -0.102455 0.722000 11560063
-0.232457 -0.098057 0.720000 11425400
-0.233103 -0.094204 0.722000 11424882
-0.233426 -0.090203 0.723000 11619947
-0.234071 -0.086310 0.725000 11688562
-0.234394 -0.082280 0.726000 11685480
-0.234394 -0.078131 0.726000 11885171
-0.234394 -0.073983 0.726000 11883387
-0.235363 -0.070123 0.729000 11754107
-0.236009 -0.066138 0.731000 11951991
-0.236009 -0.061961 0.731000 11547236
-0.236331 -0.057863 0.732000 12625812
-0.236977 -0.053827 0.734000 11553645
-0.236977 -0.049632 0.734000 15583442
-0.237946 -0.045624 0.737000 12084171
-0.238591 -0.041525 0.739000 10431817
-0.238914 -0.037352 0.740000 8138575
-0.241174 -0.033437 0.747000 5444412
-0.241174 -0.029169 0.747000 2759230
-0.239883 -0.024767 0.743000 3089712
-0.239883 -0.020521 0.743000 2892333
-0.242789 -0.016472 0.752000 2826541
-0.233011 -0.111320 0.726000 12352411
-0.233653 -0.107467 0.728000 11820663
-0.233653 -0.103307 0.728000 11622016
-0.232690 -0.098738 0.725000 11492219
-0.232690 -0.094595 0.725000 11490936
-0.233011 -0.090577 0.726000 11687793
-0.233974 -0.086786 0.729000 11624563
-0.233974 -0.082620 0.729000 11620718
-0.233653 -0.078347 0.728000 11689853
-0.233653 -0.074187 0.728000 11817849
-0.234616 -0.070315 0.731000 11754108
-0.234937 -0.066229 0.732000 12016764
-0.234937 -0.062046 0.732000 11605352
-0.235579 -0.058021 0.734000 14200231
-0.236221 -0.053973 0.736000 12403602
-0.236542 -0.049835 0.737000 15193298
-0.236542 -0.045624 0.737000 11546274
-0.237184 -0.041525 0.739000 11221324
-0.238147 -0.037453 0.742000 11349839
-0.239110 -0.033348 0.745000 8794184
-0.239751 -0.029169 0.747000 2494006
-0.239110 -0.024833 0.745000 3089711
-0.239751 -0.020631 0.747000 3023663
-0.231629 -0.111320 0.726000 12485777
-0.232586 -0.107614 0.729000 11822464
-0.232267 -0.103307 0.728000 11558784
-0.231310 -0.098738 0.725000 11494269
-0.231310 -0.094595 0.725000 11623037
-0.232267 -0.090827 0.728000 11755639
-0.233224 -0.087024 0.731000 11623028
-0.232586 -0.082620 0.729000 11687028
-0.232586 -0.078454 0.729000 11556998
-0.233224 -0.074492 0.731000 11818104
-0.234819 -0.070796 0.736000 11820156
-0.234181 -0.066410 0.734000 11951490
-0.234181 -0.062215 0.734000 12080236
-0.234819 -0.058179 0.736000 13606586
-0.235776 -0.054193 0.739000 12553398
-0.235138 -0.049835 0.737000 14077650
-0.235776 -0.045748 0.739000 11356024
-0.236733 -0.041693 0.742000 11688271
-0.237052 -0.037504 0.743000 11279951
-0.238329 -0.033437 0.747000 10115156
-0.239286 -0.029286 0.750000 5578797
-0.238329 -0.024900 0.747000 2368557
-0.238648 -0.020659 0.748000 3089457
-0.231197 -0.107614 0.729000 11832211
-0.230880 -0.103307 0.728000 11497101
-0.230246 -0.098874 0.726000 11429252
-0.230880 -0.094987 0.728000 11755898
-0.231197 -0.090951 0.729000 11756153
-0.231831 -0.087024 0.731000 11623035
-0.231831 -0.082847 0.731000 11688309
-0.232149 -0.078777 0.732000 11491197
-0.232783 -0.074798 0.734000 11752565
-0.233734 -0.070892 0.737000 11886204
-0.233417 -0.066590 0.736000 11882348
-0.232783 -0.062215 0.734000 12545131
-0.233734 -0.058258 0.737000 12943014
-0.234686 -0.054267 0.740000 12700625
-0.235320 -0.050173 0.742000 12880832
-0.235320 -0.045933 0.742000 11166060
-0.235637 -0.041750 0.743000 12078426
-0.236271 -0.037605 0.745000 11210303
-0.237223 -0.033482 0.748000 11356253
-0.238491 -0.029364 0.752000 8728144
-0.237857 -0.025000 0.750000 1579321
-0.238491 -0.020770 0.752000 3155507
-0.229809 -0.107614 0.729000 12693159
-0.229493 -0.103307 0.728000 12357530
-0.229809 -0.095117 0.729000 11758711
-0.229809 -0.090951 0.729000 11690108
-0.230754 -0.087143 0.732000 11623297
-0.231385 -0.083187 0.734000 11690614
-0.232015 -0.079208 0.736000 11556724
-0.232330 -0.075104 0.737000 11753330
-0.232330 -0.070892 0.737000 11689339
-0.232330 -0.066681 0.737000 11351381
-0.232330 -0.062470 0.737000 11755882
-0.232961 -0.058416 0.739000 12074642
-0.234222 -0.054487 0.743000 13356267
-0.234852 -0.050376 0.745000 12284333
-0.234852 -0.046119 0.745000 11092831
-0.234852 -0.041862 0.745000 11752806
-0.235483 -0.037706 0.747000 11216943
-0.236429 -0.033571 0.750000 11483494
-0.237374 -0.029403 0.753000 10440818
-0.237374 -0.025100 0.753000 4657988
-0.237374 -0.020797 0.753000 2958901
-0.228420 -0.107614 0.729000 13479080
-0.229360 -0.095509 0.732000 11828109
-0.229047 -0.091201 0.731000 11561609
-0.229987 -0.087381 0.734000 11622531
-0.230613 -0.083413 0.736000 11690103
-0.230927 -0.079315 0.737000 11622517
-0.231553 -0.075308 0.739000 11688308
-0.231867 -0.071181 0.740000 11557493
-0.232493 -0.067133 0.742000 10757435
-0.232807 -0.062978 0.743000 11027260
-0.231867 -0.058495 0.740000 11240604
-0.233433 -0.054633 0.745000 14015208
-0.234060 -0.050511 0.747000 11629194
-0.234373 -0.046305 0.748000 11022688
-0.234373 -0.042030 0.748000 11422047
-0.235000 -0.037857 0.750000 11149392
-0.235627 -0.033661 0.752000 11621234
-0.235940 -0.029403 0.753000 12217991
-0.236567 -0.025167 0.755000 7676997
-0.236567 -0.020852 0.755000 2696762
-0.227966 -0.095509 0.732000 12491427
-0.227654 -0.091201 0.731000 12224918
-0.229211 -0.087619 0.736000 11957124
-0.229211 -0.083413 0.736000 11557752
-0.230146 -0.079530 0.739000 11491957
-0.230146 -0.075308 0.739000 11688821
-0.230457 -0.071181 0.740000 11423086
-0.231391 -0.067224 0.743000 10749985
-0.232014 -0.063148 0.745000 10752526
-0.231391 -0.058732 0.743000 13560486
-0.232949 -0.054853 0.748000 13482469
-0.233571 -0.050714 0.750000 11495016
-0.233571 -0.046429 0.750000 11091297
-0.234194 -0.042255 0.752000 11353689
-0.234194 -0.037958 0.752000 11487600
-0.234506 -0.033706 0.753000 11820927
-0.235129 -0.029481 0.755000 11954075
-0.235440 -0.025200 0.756000 9517894
-0.236063 -0.020935 0.758000 3546942
-0.227810 -0.087619 0.736000 12295064
-0.228119 -0.083527 0.737000 11366029
-0.229048 -0.079638 0.740000 11426180
-0.229048 -0.075410 0.740000 11623282
-0.229048 -0.071181 0.740000 11227230
-0.229976 -0.067224 0.743000 10686002
-0.231214 -0.063317 0.747000 10552138
-0.231214 -0.059049 0.747000 15836048
-0.232143 -0.055000 0.750000 13015734
-0.232762 -0.050850 0.752000 11350353
-0.232762 -0.046552 0.752000 11224407
-0.233071 -0.042311 0.753000 11281476
-0.233071 -0.038009 0.753000 11822969
-0.233690 -0.033795 0.755000 11952762
-0.234000 -0.029520 0.756000 11758470
-0.234619 -0.025267 0.758000 11282496
-0.226715 -0.083527 0.737000 12291489
-0.227638 -0.079638 0.740000 12024210
-0.227638 -0.075410 0.740000 11689071
-0.227638 -0.071181 0.740000 11092813
-0.229791 -0.067586 0.747000 10884163
-0.230099 -0.063402 0.748000 11158150
-0.230714 -0.059286 0.750000 13460347
-0.230714 -0.055000 0.750000 11748231
-0.231330 -0.050850 0.752000 10881594
-0.231637 -0.046614 0.753000 10756685
-0.232560 -0.042480 0.756000 10880046
-0.231637 -0.038009 0.753000 11624066
-0.233790 -0.034019 0.760000 11952501
-0.233175 -0.029598 0.758000 11353456
-0.233790 -0.025333 0.760000 10954555
-0.226229 -0.079638 0.740000 12624030
-0.226229 -0.075410 0.740000 11762828
-0.226229 -0.071181 0.740000 11029618
-0.228369 -0.067586 0.747000 11094115
-0.228674 -0.063402 0.748000 11825018
-0.229286 -0.059286 0.750000 11098492
-0.229897 -0.055147 0.752000 10554247
-0.230203 -0.050917 0.753000 10429526
-0.231120 -0.046800 0.756000 10289466
-0.231120 -0.042480 0.756000 10501502
-0.231731 -0.038261 0.758000 11425157
-0.232343 -0.034019 0.760000 11883887
-0.232343 -0.029676 0.760000 10949433
-0.232649 -0.025367 0.761000 10558509
-0.224819 -0.071181 0.740000 12025751
-0.226946 -0.067586 0.747000 11626116
-0.227250 -0.063402 0.748000 11888493
-0.227857 -0.059286 0.750000 11560061
-0.228769 -0.055220 0.753000 11158919
-0.229680 -0.051120 0.756000 11035249
-0.230288 -0.046924 0.758000 11542567
-0.230288 -0.042592 0.758000 12756430
-0.231199 -0.038412 0.761000 12478599
-0.231807 -0.034153 0.763000 11287401
-0.231807 -0.029793 0.763000 10225153
-0.227334 -0.055220 0.753000 11754879
-0.228844 -0.051255 0.758000 11551581
-0.229448 -0.047048 0.760000 12730755
-0.230353 -0.042873 0.763000 14996453
-0.230957 -0.038614 0.765000 13617603
-0.230957 -0.034243 0.765000 10643108
-0.230957 -0.029871 0.765000 9503070
-0.228000 -0.051390 0.760000 12321098
-0.228000 -0.047048 0.760000 13939166
-0.228900 -0.042873 0.763000 15194365
-0.229500 -0.038614 0.765000 15134974
-0.230100 -0.034332 0.767000 12968672
-0.230100 -0.029950 0.767000 12218042
-0.226850 -0.051458 0.761000 13141394
-0.226850 -0.047110 0.761000 15202528
-0.228043 -0.042986 0.765000 15329277
-0.228639 -0.038715 0.767000 16710651
-0.228937 -0.034377 0.768000 15190990
-0.228937 -0.029989 0.768000 14932426
-0.225401 -0.051458 0.761000 13557978
-0.225401 -0.047110 0.761000 14867681
-0.226586 -0.042986 0.765000 15595005
-0.227474 -0.038766 0.768000 14604791
-0.227474 -0.034377 0.768000 12881085
-0.223951 -0.047110 0.761000 14600907
-0.225129 -0.042986 0.765000 15852001
-0.226011 -0.038766 0.768000 12497114
-0.227189 -0.034556 0.772000 10588605
-0.223671 -0.042986 0.765000 14203846
-0.225133 -0.038867 0.770000 12494780
-0.225718 -0.034556 0.772000 11512509
-0.222214 -0.042986 0.765000 12495028
-0.223667 -0.038867 0.770000 12496305
-0.224248 -0.034556 0.772000 12364214
-0.286895 -0.161257 0.680000 12431556
-0.287739 -0.157834 0.682000 12232892
-0.288583 -0.154389 0.684000 12101813
-0.285180 -0.161020 0.679000 12695207
-0.285600 -0.157371 0.680000 12430256
-0.286860 -0.154163 0.683000 12234422
-0.283887 -0.161020 0.679000 11038346
-0.283887 -0.157140 0.679000 11248547
-0.283887 -0.153260 0.679000 11244727
-0.283469 -0.149160 0.678000 11774657
-0.282177 -0.160783 0.678000 9372005
-0.282593 -0.157140 0.679000 10049113
-0.282177 -0.153034 0.678000 10306909
-0.282177 -0.149160 0.678000 11965579
-0.280886 -0.160783 0.678000 9835327
-0.280886 -0.156909 0.678000 8913168
-0.280886 -0.153034 0.678000 8852483
-0.279643 -0.148500 0.675000 9992277
-0.279594 -0.164657 0.678000 10755919
-0.278770 -0.160309 0.676000 10366782
-0.278770 -0.156446 0.676000 7733792
-0.278770 -0.152583 0.676000 7407891
-0.279594 -0.149160 0.678000 7945014
-0.278303 -0.164657 0.678000 10822459
-0.277071 -0.160071 0.675000 10564413
-0.276661 -0.155983 0.674000 8127536
-0.277071 -0.152357 0.675000 7736866
-0.277482 -0.148720 0.676000 7539224
-0.278646 -0.165629 0.682000 10889798
-0.274560 -0.159360 0.672000 10763845
-0.274151 -0.155289 0.671000 8457002
-0.274560 -0.151680 0.672000 8065053
-0.275377 -0.148280 0.674000 7146778
-0.275786 -0.144643 0.675000 6750517
-0.277753 -0.169774 0.683000 11087183
-0.277753 -0.165871 0.683000 10890577
-0.273280 -0.159360 0.672000 10894412
-0.272467 -0.155057 0.670000 8847909
-0.272873 -0.151454 0.671000 7932696
-0.273280 -0.147840 0.672000 7343900
-0.274093 -0.144429 0.674000 6883601
-0.276452 -0.169774 0.683000 10944839
-0.275238 -0.165143 0.680000 10826316
-0.272000 -0.159360 0.672000 11024461
-0.270786 -0.154826 0.669000 9244457
-0.269976 -0.150551 0.667000 7865879
-0.271595 -0.147620 0.671000 7474198
-0.272810 -0.144429 0.674000 7082259
-0.275151 -0.169774 0.683000 10819902
-0.275151 -0.165871 0.683000 10761799
-0.271526 -0.159834 0.674000 10959693
-0.269511 -0.154826 0.669000 9437741
-0.268706 -0.150551 0.667000 7865621
-0.269511 -0.147180 0.669000 7539217
-0.271526 -0.144429 0.674000 6950421
-0.272331 -0.140994 0.676000 6754581
-0.274251 -0.170023 0.684000 10758723
-0.273850 -0.165871 0.683000 10631245
-0.270242 -0.159834 0.674000 10895182
-0.267435 -0.154363 0.667000 9572654
-0.267435 -0.150551 0.667000 7865362
-0.267435 -0.146740 0.667000 7603726
-0.269039 -0.143786 0.671000 6818321
-0.270242 -0.140577 0.674000 6950164
-0.271846 -0.137537 0.678000 6886428
-0.272648 -0.134057 0.680000 6621964
-0.273450 -0.130554 0.682000 5835800
-0.274146 -0.170769 0.687000 10759240
-0.272550 -0.165871 0.683000 10696787
-0.268958 -0.159834 0.674000 10894671
-0.266165 -0.154363 0.667000 9635120
-0.266165 -0.150551 0.667000 7865359
-0.266165 -0.146740 0.667000 7603467
-0.267761 -0.143786 0.671000 6817548
-0.268160 -0.140160 0.672000 6817555
-0.269756 -0.137131 0.676000 6753557
-0.270554 -0.133663 0.678000 6688276
-0.270953 -0.129980 0.679000 6296098
-0.275220 -0.176220 0.693000 11889308
-0.272837 -0.170769 0.687000 10761804
-0.271249 -0.165871 0.683000 10762323
-0.268071 -0.160071 0.675000 10893909
-0.264894 -0.154363 0.667000 9703218
-0.264497 -0.150326 0.666000 7865108
-0.264894 -0.146740 0.667000 7602955
-0.266483 -0.143786 0.671000 6817292
-0.266880 -0.140160 0.672000 6620685
-0.268469 -0.137131 0.676000 6620945
-0.269263 -0.133663 0.678000 6753299
-0.270057 -0.130171 0.680000 6819868
-0.273110 -0.175711 0.691000 11361671
-0.272319 -0.171266 0.689000 10761551
-0.269552 -0.165629 0.682000 10761811
-0.266786 -0.160071 0.675000 10894426
-0.264414 -0.154826 0.669000 10028341
-0.263229 -0.150326 0.666000 7996185
-0.263624 -0.146740 0.667000 7734027
-0.264810 -0.143571 0.670000 6817036
-0.265600 -0.140160 0.672000 6620424
-0.267181 -0.137131 0.676000 6620428
-0.267971 -0.133663 0.678000 6556434
-0.268762 -0.130171 0.680000 6622742
-0.271400 -0.175457 0.690000 10831232
-0.271007 -0.171266 0.689000 10828367
-0.269827 -0.166600 0.686000 10761552
-0.265107 -0.159834 0.674000 10894678
-0.263140 -0.154826 0.669000 10294327
-0.261960 -0.150326 0.666000 8127257
-0.262353 -0.146740 0.667000 7799821
-0.263140 -0.143357 0.669000 6882316
-0.264320 -0.140160 0.672000 6554889
-0.265893 -0.137131 0.676000 6554894
-0.266680 -0.133663 0.678000 6293520
-0.267467 -0.130171 0.680000 6490641
-0.268647 -0.126843 0.683000 5705493
-0.270086 -0.175457 0.690000 10554745
-0.269694 -0.171266 0.689000 10828366
-0.268520 -0.166600 0.686000 10761038
-0.263823 -0.159834 0.674000 10828369
-0.261866 -0.154826 0.669000 10423353
-0.261083 -0.150551 0.667000 8192537
-0.261083 -0.146740 0.667000 7865359
-0.261866 -0.143357 0.669000 7013388
-0.263040 -0.140160 0.672000 6620170
-0.264214 -0.136929 0.675000 6554895
-0.265389 -0.133663 0.678000 6358287
-0.265780 -0.129980 0.679000 6490380
-0.267346 -0.126843 0.683000 5967634
-0.270477 -0.116483 0.691000 1838605
-0.268771 -0.175457 0.690000 10299255
-0.268771 -0.171514 0.690000 10893906
-0.267213 -0.166600 0.686000 10761295
-0.262929 -0.160071 0.675000 10762576
-0.260981 -0.155057 0.670000 10557498
-0.259812 -0.150551 0.667000 8323351
-0.259812 -0.146740 0.667000 7865365
-0.260591 -0.143357 0.669000 7144209
-0.261370 -0.139951 0.671000 6620431
-0.262929 -0.136929 0.675000 6620175
-0.264097 -0.133663 0.678000 6423822
-0.264487 -0.129980 0.679000 6489867
-0.265655 -0.126657 0.682000 6228498
-0.268771 -0.120257 0.690000 1314065
-0.269161 -0.116483 0.691000 1379339
-0.271888 -0.105697 0.698000 2361864
-0.272667 -0.102000 0.700000 197129
-0.267070 -0.171266 0.689000 10828629
-0.265907 -0.166600 0.686000 10695248
-0.261643 -0.160071 0.675000 10762830
-0.260092 -0.155289 0.671000 10556475
-0.259317 -0.151003 0.669000 8454677
-0.258542 -0.146740 0.667000 8062235
-0.259317 -0.143357 0.669000 7275541
-0.260092 -0.139951 0.671000 6817043
-0.261643 -0.136929 0.675000 6685711
-0.262806 -0.133663 0.678000 6423565
-0.263193 -0.129980 0.679000 6424330
-0.264356 -0.126657 0.682000 6294546
-0.266294 -0.123660 0.687000 1116949
-0.267457 -0.120257 0.690000 1247504
-0.267845 -0.116483 0.691000 1314056
-0.270170 -0.105546 0.697000 1904141
-0.270558 -0.101709 0.698000 920081
-0.264600 -0.170520 0.686000 10828883
-0.264600 -0.166600 0.686000 10564174
-0.260357 -0.160071 0.675000 10762060
-0.258429 -0.155057 0.670000 10492217
-0.256886 -0.150326 0.666000 8585495
-0.256886 -0.146520 0.666000 8258326
-0.258043 -0.143357 0.669000 7406356
-0.258814 -0.139951 0.671000 7013395
-0.260357 -0.136929 0.675000 6751246
-0.261514 -0.133663 0.678000 6358542
-0.262286 -0.130171 0.680000 6358285
-0.263057 -0.126657 0.682000 6293782
-0.263829 -0.123120 0.684000 1116949
-0.266143 -0.120257 0.690000 1182481
-0.266143 -0.116314 0.690000 1248267
-0.267686 -0.113023 0.694000 1510673
-0.268071 -0.109214 0.695000 1445389
-0.268843 -0.105546 0.697000 1379851
-0.269229 -0.101709 0.698000 1642000
-0.263293 -0.170520 0.686000 10763089
-0.263293 -0.166600 0.686000 10629708
-0.259071 -0.160071 0.675000 10827593
-0.256769 -0.154826 0.669000 10553911
-0.255617 -0.150326 0.666000 8651288
-0.255617 -0.146520 0.666000 8258321
-0.256769 -0.143357 0.669000 7472146
-0.257920 -0.140160 0.672000 7144466
-0.259071 -0.136929 0.675000 6882317
-0.260223 -0.133663 0.678000 6620688
-0.260607 -0.129980 0.679000 6554895
-0.261758 -0.126657 0.682000 6425114
-0.262142 -0.122940 0.683000 1182485
-0.263677 -0.119734 0.687000 1248274
-0.264445 -0.116146 0.689000 1248270
-0.266364 -0.113023 0.694000 1379602
-0.266748 -0.109214 0.695000 1314062
-0.266748 -0.105243 0.695000 1248522
-0.266748 -0.101271 0.695000 1445135
-0.267515 -0.097580 0.697000 1706767
-0.262369 -0.170769 0.687000 10697041
-0.260459 -0.165629 0.682000 10696013
-0.257786 -0.160071 0.675000 10827595
-0.255494 -0.154826 0.669000 10556467
-0.254349 -0.150326 0.666000 8782359
-0.254730 -0.146740 0.667000 8258576
-0.255876 -0.143571 0.670000 7602959
-0.256640 -0.140160 0.672000 7209999
-0.257404 -0.136726 0.674000 6947851
-0.258168 -0.133269 0.676000 6817037
-0.259313 -0.129980 0.679000 6685707
-0.260459 -0.126657 0.682000 6490390
-0.260841 -0.122940 0.683000 1248282
-0.262369 -0.119734 0.687000 1248018
-0.263132 -0.116146 0.689000 1248270
-0.263514 -0.112371 0.690000 1248526
-0.265042 -0.109057 0.694000 1182734
-0.265424 -0.105243 0.695000 1117451
-0.265424 -0.101271 0.695000 1248271
-0.266188 -0.097580 0.697000 1313808
-0.266570 -0.093731 0.698000 1576461
-0.266570 -0.089743 0.698000 1968143
-0.261820 -0.171266 0.689000 10697040
-0.259160 -0.165629 0.682000 10696015
-0.256880 -0.160309 0.676000 10958157
-0.254600 -0.155057 0.670000 10554672
-0.253080 -0.150326 0.666000 8782357
-0.254220 -0.147180 0.669000 8323856
-0.254980 -0.143786 0.671000 7668492
-0.256120 -0.140577 0.674000 7341068
-0.256120 -0.136726 0.674000 7078921
-0.256880 -0.133269 0.676000 6947594
-0.258020 -0.129980 0.679000 6817031
-0.259160 -0.126657 0.682000 6687762
-0.259540 -0.122940 0.683000 1248286
-0.261060 -0.119734 0.687000 1181970
-0.261820 -0.116146 0.689000 1313550
-0.261820 -0.112209 0.689000 1248267
-0.263720 -0.109057 0.694000 1182734
-0.264100 -0.105243 0.695000 1117196
-0.264860 -0.101563 0.697000 1182734
-0.264860 -0.097580 0.697000 1182481
-0.265240 -0.093731 0.698000 1314058
-0.265240 -0.089743 0.698000 1640205
-0.266380 -0.086123 0.701000 1181974
-0.260886 -0.171514 0.690000 10696784
-0.257861 -0.165629 0.682000 10696015
-0.255592 -0.160309 0.676000 11153995
-0.254080 -0.155520 0.672000 10555951
-0.252946 -0.151003 0.669000 8847892
-0.253324 -0.147400 0.670000 8389648
-0.254080 -0.144000 0.672000 7734029
-0.254836 -0.140577 0.674000 7406604
-0.255214 -0.136929 0.675000 7144460
-0.255592 -0.133269 0.676000 7078668
-0.256727 -0.129980 0.679000 7013896
-0.257861 -0.126657 0.682000 6883345
-0.258617 -0.123120 0.684000 1182746
-0.259751 -0.119734 0.687000 1116691
-0.260508 -0.116146 0.689000 1378837
-0.260508 -0.112209 0.689000 1248267
-0.262020 -0.108900 0.693000 1182734
-0.262776 -0.105243 0.695000 1116940
-0.262776 -0.101271 0.695000 1182734
-0.263910 -0.097720 0.698000 985870
-0.264667 -0.094000 0.700000 1116939
-0.264667 -0.090000 0.700000 1248013
-0.265045 -0.086123 0.701000 1510672
-0.265801 -0.082351 0.703000 2230032
-0.259571 -0.171514 0.690000 10696528
-0.256938 -0.165871 0.683000 10696272
-0.254305 -0.160309 0.676000 11088201
-0.252424 -0.155289 0.671000 10421294
-0.251671 -0.151003 0.669000 8978963
-0.252424 -0.147620 0.671000 8520977
-0.252800 -0.144000 0.672000 7799566
-0.253552 -0.140577 0.674000 7537676
-0.253929 -0.136929 0.675000 7209999
-0.254305 -0.133269 0.676000 7209742
-0.255433 -0.129980 0.679000 7079177
-0.256562 -0.126657 0.682000 7015185
-0.257314 -0.123120 0.684000 1182485
-0.258443 -0.119734 0.687000 1182229
-0.258443 -0.115809 0.687000 1313308
-0.259195 -0.112209 0.689000 1248268
-0.259948 -0.108586 0.691000 1248270
-0.261076 -0.105091 0.694000 1050893
-0.261076 -0.101126 0.694000 1182477
-0.262205 -0.097580 0.697000 1051147
-0.262581 -0.093731 0.698000 1116939
-0.263333 -0.090000 0.700000 1248269
-0.263333 -0.086000 0.700000 1313802
-0.263710 -0.082117 0.701000 1902861
-0.257134 -0.170769 0.687000 10762318
-0.255637 -0.165871 0.683000 10696018
-0.252269 -0.159834 0.674000 11021899
-0.251520 -0.155520 0.672000 10227763
-0.250771 -0.151229 0.670000 9044247
-0.251146 -0.147620 0.671000 8586258
-0.251520 -0.144000 0.672000 7865102
-0.252643 -0.140786 0.675000 7668494
-0.253017 -0.137131 0.676000 7275278
-0.253017 -0.133269 0.676000 7275532
-0.254140 -0.129980 0.679000 7209994
-0.255263 -0.126657 0.682000 7079951
-0.256760 -0.123480 0.686000 1116949
-0.257134 -0.119734 0.687000 1182481
-0.257134 -0.115809 0.687000 1182229
-0.257883 -0.112209 0.689000 1182733
-0.258631 -0.108586 0.691000 1379339
-0.259754 -0.105091 0.694000 985868
-0.259754 -0.101126 0.694000 1116685
-0.260877 -0.097580 0.697000 1116939
-0.261251 -0.093731 0.698000 1116428
-0.262000 -0.090000 0.700000 1182730
-0.262000 -0.086000 0.700000 1117196
-0.262374 -0.082117 0.701000 1509643
-0.262374 -0.078111 0.701000 1837585
-0.257315 -0.171763 0.691000 10762060
-0.254709 -0.166114 0.684000 10762068
-0.250985 -0.159834 0.674000 11153484
-0.250240 -0.155520 0.672000 10554425
-0.249495 -0.151229 0.670000 9306907
-0.250240 -0.147840 0.672000 8848148
-0.250240 -0.144000 0.672000 8061710
-0.251730 -0.140994 0.676000 7864849
-0.251730 -0.137131 0.676000 7406605
-0.251730 -0.133269 0.676000 7341067
-0.252847 -0.129980 0.679000 7210251
-0.253964 -0.126657 0.682000 7015438
-0.255453 -0.123480 0.686000 1051413
-0.255826 -0.119734 0.687000 1182222
-0.255826 -0.115809 0.687000 1182734
-0.256570 -0.112209 0.689000 985870
-0.256943 -0.108429 0.690000 1248264
-0.258060 -0.104940 0.693000 1051658
-0.258432 -0.101126 0.694000 1116684
-0.258805 -0.097300 0.695000 1116940
-0.259550 -0.093597 0.697000 1116941
-0.260667 -0.090000 0.700000 1182216
-0.260667 -0.086000 0.700000 1182477
-0.261784 -0.082351 0.703000 1313034
-0.261784 -0.078334 0.703000 1575436
-0.256740 -0.172260 0.693000 10827598
-0.254517 -0.166843 0.687000 10762066
-0.251924 -0.161257 0.680000 11284557
-0.249701 -0.155983 0.674000 10818357
-0.248219 -0.151229 0.670000 9634592
-0.248590 -0.147620 0.671000 9045013
-0.248960 -0.144000 0.672000 8323606
-0.250442 -0.140994 0.676000 7996179
-0.251183 -0.137537 0.678000 7603215
-0.251183 -0.133663 0.678000 7406860
-0.251553 -0.129980 0.679000 7276044
-0.251924 -0.126286 0.680000 6948879
-0.254517 -0.123660 0.687000 985877
-0.254517 -0.119734 0.687000 1182477
-0.255258 -0.116146 0.689000 1182734
-0.255258 -0.112209 0.689000 789262
-0.255999 -0.108586 0.691000 1182219
-0.257110 -0.105091 0.694000 1116939
-0.257110 -0.101126 0.694000 1116684
-0.257481 -0.097300 0.695000 1116940
-0.258592 -0.093731 0.698000 1182480
-0.259333 -0.090000 0.700000 1116684
-0.259704 -0.086123 0.701000 1313293
-0.259704 -0.082117 0.701000 1116938
-0.260445 -0.078334 0.703000 1247754
-0.261186 -0.074529 0.705000 1182474
-0.255420 -0.172260 0.693000 10892623
-0.253946 -0.167329 0.689000 10827088
-0.250629 -0.161257 0.680000 11416142
-0.247680 -0.155520 0.672000 10619441
-0.246943 -0.151229 0.670000 9896996
-0.247680 -0.147840 0.672000 9373207
-0.247680 -0.144000 0.672000 8651550
-0.249154 -0.140994 0.676000 8323606
-0.249891 -0.137537 0.678000 7865361
-0.249891 -0.133663 0.678000 7668750
-0.250260 -0.129980 0.679000 7406861
-0.250629 -0.126286 0.680000 6818833
-0.253209 -0.123660 0.687000 920341
-0.253946 -0.120083 0.689000 1248267
-0.253946 -0.116146 0.689000 1182477
-0.253946 -0.112209 0.689000 985869
-0.254683 -0.108586 0.691000 1116941
-0.255420 -0.104940 0.693000 985612
-0.255789 -0.101126 0.694000 1051148
-0.256894 -0.097580 0.697000 1116684
-0.257263 -0.093731 0.698000 1051154
-0.258000 -0.090000 0.700000 1116688
-0.258369 -0.086123 0.701000 1182220
-0.259106 -0.082351 0.703000 1116938
-0.259106 -0.078334 0.703000 1248008
-0.259843 -0.074529 0.705000 1182731
-0.254100 -0.172260 0.693000 10958161
-0.251900 -0.166843 0.687000 10892370
-0.249333 -0.161257 0.680000 11611985
-0.246033 -0.155289 0.671000 10423857
-0.246033 -0.151454 0.671000 10224418
-0.246400 -0.147840 0.672000 9635352
-0.246400 -0.144000 0.672000 8979485
-0.247867 -0.140994 0.676000 8586262
-0.248967 -0.137740 0.679000 8192787
-0.248600 -0.133663 0.678000 7865359
-0.249333 -0.130171 0.680000 7537424
-0.250067 -0.126657 0.682000 6686738
-0.251900 -0.123660 0.687000 855317
-0.252633 -0.120083 0.689000 1314061
-0.252633 -0.116146 0.689000 1182478
-0.252633 -0.112209 0.689000 1182478
-0.253367 -0.108586 0.691000 1117197
-0.254100 -0.104940 0.693000 789263
-0.254100 -0.100980 0.693000 920076
-0.254833 -0.097300 0.695000 1116684
-0.255933 -0.093731 0.698000 985358
-0.256667 -0.090000 0.700000 1116430
-0.257033 -0.086123 0.701000 1116684
-0.257767 -0.082351 0.703000 1116937
-0.258133 -0.078446 0.704000 1313800
-0.258500 -0.074529 0.705000 1182475
-0.259233 -0.070700 0.707000 1182228
-0.253510 -0.176729 0.695000 10754660
-0.252780 -0.172260 0.693000 10957907
-0.250591 -0.166843 0.687000 11023189
-0.248768 -0.161731 0.682000 11611476
-0.244755 -0.155289 0.671000 10423090
-0.244755 -0.151454 0.671000 10290463
-0.245120 -0.147840 0.672000 9766938
-0.245120 -0.144000 0.672000 9176604
-0.246579 -0.140994 0.676000 8848406
-0.247673 -0.137740 0.679000 8520724
-0.247673 -0.133860 0.679000 8193041
-0.248768 -0.130554 0.682000 7930898
-0.249132 -0.126843 0.683000 6228244
-0.250591 -0.123660 0.687000 986133
-0.250591 -0.119734 0.687000 1314063
-0.251321 -0.116146 0.689000 1182734
-0.251321 -0.112209 0.689000 1181968
-0.252050 -0.108586 0.691000 1051405
-0.252780 -0.104940 0.693000 986131
-0.253145 -0.101126 0.694000 1051148
-0.254239 -0.097580 0.697000 1050891
-0.254604 -0.093731 0.698000 985354
-0.255333 -0.090000 0.700000 1050892
-0.255333 -0.086000 0.700000 1051147
-0.256428 -0.082351 0.703000 1117193
-0.256792 -0.078446 0.704000 1313544
-0.257157 -0.074529 0.705000 1182474
-0.258251 -0.070800 0.708000 1116692
-0.259346 -0.062974 0.711000 1509637
-0.252186 -0.176729 0.695000 10558309
-0.251460 -0.172260 0.693000 11023698
-0.250009 -0.167329 0.689000 11153487
-0.247469 -0.161731 0.682000 11610704
-0.243477 -0.155289 0.671000 10422577
-0.243477 -0.151454 0.671000 10421539
-0.243840 -0.147840 0.672000 9831964
-0.243840 -0.144000 0.672000 9438493
-0.245291 -0.140994 0.676000 9045271
-0.246380 -0.137740 0.679000 8848659
-0.246743 -0.134057 0.680000 8455442
-0.247469 -0.130554 0.682000 8323856
-0.247831 -0.126843 0.683000 5703444
-0.249283 -0.123660 0.687000 1117210
-0.250009 -0.120083 0.689000 1314068
-0.250009 -0.116146 0.689000 1248271
-0.250009 -0.112209 0.689000 1116688
-0.250734 -0.108586 0.691000 986126
-0.251460 -0.104940 0.693000 1116687
-0.251823 -0.101126 0.694000 1116941
-0.252911 -0.097580 0.697000 985355
-0.253274 -0.093731 0.698000 985355
-0.254000 -0.090000 0.700000 919563
-0.254363 -0.086123 0.701000 919819
-0.255089 -0.082351 0.703000 1116682
-0.255814 -0.078557 0.705000 1313799
-0.256540 -0.074740 0.707000 1116938
-0.257629 -0.071000 0.710000 1116435
-0.257629 -0.066943 0.710000 1182477
-0.257629 -0.062886 0.710000 1182729
-0.257991 -0.058911 0.711000 1313550
-0.250862 -0.176729 0.695000 10491750
-0.250140 -0.172260 0.693000 11023697
-0.248696 -0.167329 0.689000 11283529
-0.244004 -0.160309 0.676000 11609675
-0.242560 -0.155520 0.672000 10618417
-0.242199 -0.151454 0.671000 10421287
-0.243282 -0.148280 0.674000 9897246
-0.242560 -0.144000 0.672000 9503774
-0.244726 -0.141411 0.678000 9242136
-0.245087 -0.137740 0.679000 9045522
-0.245448 -0.134057 0.680000 8718098
-0.246170 -0.130554 0.682000 8652302
-0.246891 -0.127029 0.684000 5507348
-0.247974 -0.123660 0.687000 1314335
-0.248696 -0.120083 0.689000 1445401
-0.248696 -0.116146 0.689000 1313808
-0.249057 -0.112371 0.690000 1248017
-0.249418 -0.108586 0.691000 985870
-0.250140 -0.104940 0.693000 1181964
-0.250501 -0.101126 0.694000 1116941
-0.251584 -0.097580 0.697000 985355
-0.251945 -0.093731 0.698000 1050892
-0.253028 -0.090129 0.701000 1115915
-0.253750 -0.086369 0.703000 985354
-0.254110 -0.082469 0.704000 1116427
-0.254471 -0.078557 0.705000 1182470
-0.255193 -0.074740 0.707000 1117194
-0.256276 -0.071000 0.710000 1116690
-0.256276 -0.066943 0.710000 1182477
