# .PCD v.7 - Point Cloud Data file format
VERSION .7
FIELDS x y z rgb
SIZE 4 4 4 4
TYPE F F F I
COUNT 1 1 1 1
WIDTH 1271
HEIGHT 1
POINTS 1271
DATA ascii
-0.235641 -0.193904 0.913000 11947888
-0.235641 -0.188687 0.913000 11815528
-0.235641 -0.183470 0.913000 11750503
-0.236673 -0.179033 0.917000 11678037
-0.237448 -0.174362 0.920000 11948148
-0.238738 -0.170024 0.925000 11945072
-0.238738 -0.164738 0.925000 12279161
-0.239254 -0.159797 0.927000 11811695
-0.240029 -0.155000 0.930000 13916308
-0.241319 -0.150490 0.935000 15851756
-0.241319 -0.145148 0.935000 16645630
-0.242610 -0.140552 0.940000 11770822
-0.243900 -0.135900 0.945000 11906525
-0.229034 -0.215411 0.894000 11288882
-0.230828 -0.211950 0.901000 11949676
-0.231852 -0.207719 0.905000 11421800
-0.231852 -0.202548 0.905000 12012647
-0.233133 -0.198467 0.910000 11751778
-0.233902 -0.193904 0.913000 11685745
-0.233902 -0.188687 0.913000 11747688
-0.234414 -0.183871 0.915000 11618925
-0.235695 -0.179619 0.920000 11481697
-0.236208 -0.174741 0.922000 11882863
-0.236976 -0.170024 0.925000 11677550
-0.237489 -0.165094 0.927000 12012394
-0.238257 -0.160314 0.930000 11353441
-0.238770 -0.155333 0.932000 15174315
-0.239538 -0.150490 0.935000 15850478
-0.240050 -0.145458 0.937000 16509176
-0.240819 -0.140552 0.940000 11706048
-0.242100 -0.135900 0.945000 13286103
-0.229620 -0.217580 0.903000 8395265
-0.229620 -0.212420 0.903000 11885152
-0.230129 -0.207719 0.905000 11286894
-0.230891 -0.203219 0.908000 11553640
-0.232163 -0.199121 0.913000 11353939
-0.232163 -0.193904 0.913000 11488626
-0.232671 -0.189100 0.915000 11813735
-0.233180 -0.184273 0.917000 11683699
-0.234451 -0.180010 0.922000 11682668
-0.235214 -0.175310 0.925000 11948650
-0.235723 -0.170391 0.927000 11747947
-0.235723 -0.165094 0.927000 11940955
-0.236994 -0.160659 0.932000 11412307
-0.236994 -0.155333 0.932000 15323842
-0.237757 -0.150490 0.935000 15523055
-0.238266 -0.145458 0.937000 15655411
-0.239537 -0.140851 0.942000 11572666
-0.241063 -0.136331 0.948000 13813201
-0.227395 -0.217098 0.901000 5439745
-0.227900 -0.212420 0.903000 11746355
-0.228405 -0.207719 0.905000 11151728
-0.229667 -0.203667 0.910000 11091309
-0.230929 -0.199557 0.915000 11023708
-0.231433 -0.194753 0.917000 11287141
-0.231433 -0.189513 0.917000 11882592
-0.232190 -0.184876 0.920000 11681643
-0.233452 -0.180595 0.925000 11816813
-0.233452 -0.175310 0.925000 11945574
-0.234714 -0.170943 0.930000 11815526
-0.234714 -0.165629 0.930000 11811934
-0.235219 -0.160659 0.932000 11406399
-0.235976 -0.155833 0.935000 15387093
-0.236481 -0.150812 0.937000 15257064
-0.237238 -0.145924 0.940000 14800368
-0.238500 -0.141300 0.945000 11378636
-0.239762 -0.136619 0.950000 14270162
-0.225679 -0.217098 0.901000 3277313
-0.226180 -0.212420 0.903000 8195078
-0.226681 -0.207719 0.905000 11159154
-0.227933 -0.203667 0.910000 11086195
-0.230438 -0.200648 0.920000 11356517
-0.230438 -0.195390 0.920000 11347033
-0.230438 -0.190133 0.920000 11684441
-0.230939 -0.185278 0.922000 11614819
-0.231690 -0.180595 0.925000 11817069
-0.232191 -0.175689 0.927000 11745122
-0.232943 -0.170943 0.930000 11683168
-0.233444 -0.165985 0.932000 11680609
-0.234195 -0.161176 0.935000 12134442
-0.234696 -0.156167 0.937000 15717353
-0.235448 -0.151295 0.940000 15192288
-0.235949 -0.146234 0.942000 13552878
-0.237451 -0.141749 0.948000 12630237
-0.238704 -0.137050 0.953000 14209491
-0.224460 -0.212420 0.903000 4588568
-0.225703 -0.208408 0.908000 11226185
-0.226946 -0.204338 0.913000 11091287
-0.228686 -0.200648 0.920000 11622003
-0.229183 -0.195815 0.922000 11353188
-0.229929 -0.191167 0.925000 11487075
-0.229929 -0.185881 0.925000 11485793
-0.230426 -0.180986 0.927000 11816041
-0.231171 -0.176257 0.930000 11549790
-0.231669 -0.171310 0.932000 11552607
-0.232414 -0.166519 0.935000 11483741
-0.232911 -0.161521 0.937000 12914025
-0.233657 -0.156667 0.940000 15985651
-0.234154 -0.151617 0.942000 15194093
-0.234900 -0.146700 0.945000 12302566
-0.235646 -0.141749 0.948000 13943749
-0.236889 -0.137050 0.953000 14064838
-0.223973 -0.208408 0.908000 7151135
-0.225207 -0.204338 0.913000 11093818
-0.227427 -0.201084 0.922000 11554433
-0.228167 -0.196452 0.925000 11687023
-0.228660 -0.191580 0.927000 11354988
-0.228660 -0.186283 0.927000 11555424
-0.229400 -0.181571 0.930000 11553124
-0.229893 -0.176636 0.932000 11481690
-0.230633 -0.171862 0.935000 11550813
-0.231127 -0.166875 0.937000 11352665
-0.231867 -0.162038 0.940000 13730472
-0.232360 -0.157000 0.942000 16318205
-0.232360 -0.151617 0.942000 15460858
-0.233100 -0.146700 0.945000 12627679
-0.234333 -0.142048 0.950000 13742253
-0.235073 -0.137050 0.953000 12619193
-0.222244 -0.208408 0.908000 3081261
-0.223957 -0.204786 0.915000 11021346
-0.226405 -0.201738 0.925000 11491143
-0.226405 -0.196452 0.925000 11947110
-0.226894 -0.191580 0.927000 11222095
-0.227629 -0.186886 0.930000 11554910
-0.228118 -0.181962 0.932000 11290214
-0.228852 -0.177205 0.935000 11352159
-0.229342 -0.172230 0.937000 11615844
-0.230076 -0.167410 0.940000 11217483
-0.230566 -0.162383 0.942000 14597000
-0.230566 -0.157000 0.942000 16574438
-0.231300 -0.152100 0.945000 15659260
-0.232034 -0.147166 0.948000 12889041
-0.233258 -0.142496 0.953000 13549520
-0.222214 -0.204786 0.915000 5832971
-0.224643 -0.201738 0.925000 9908748
-0.225129 -0.196877 0.927000 11422558
-0.225857 -0.192200 0.930000 10885681
-0.226343 -0.187288 0.932000 11424093
-0.227071 -0.182548 0.935000 11487080
-0.227071 -0.177205 0.935000 11484773
-0.227557 -0.172230 0.937000 11748971
-0.228771 -0.167766 0.942000 10884414
-0.229500 -0.162900 0.945000 13074535
-0.229500 -0.157500 0.945000 14857934
-0.230229 -0.152583 0.948000 14931454
-0.230714 -0.147476 0.950000 12816324
-0.231443 -0.142496 0.953000 13418738
-0.220471 -0.204786 0.915000 660790
-0.222881 -0.201738 0.925000 8325639
-0.223363 -0.196877 0.927000 10825532
-0.224568 -0.192613 0.932000 10621482
-0.225290 -0.187890 0.935000 11289437
-0.225772 -0.182938 0.937000 11682916
-0.226495 -0.178152 0.940000 11551595
-0.226977 -0.173149 0.942000 11943531
-0.227700 -0.168300 0.945000 10492758
-0.227700 -0.162900 0.945000 11565703
-0.228423 -0.158000 0.948000 13137326
-0.228905 -0.152905 0.950000 14265472
-0.229628 -0.147942 0.953000 12757437
-0.229628 -0.142496 0.953000 13221355
-0.221119 -0.201738 0.925000 4653825
-0.222314 -0.197514 0.930000 7341593
-0.222792 -0.192613 0.932000 9969186
-0.223510 -0.187890 0.935000 11489373
-0.224705 -0.183524 0.940000 11816544
-0.225183 -0.178531 0.942000 11487345
-0.225183 -0.173149 0.942000 11616619
-0.225900 -0.168300 0.945000 10946926
-0.226617 -0.163417 0.948000 12018598
-0.227095 -0.158333 0.950000 13336207
-0.227812 -0.153388 0.953000 12015361
-0.227812 -0.147942 0.953000 12496311
-0.228290 -0.142795 0.955000 11575523
-0.220543 -0.202829 0.930000 983368
-0.221017 -0.197939 0.932000 3867434
-0.221729 -0.193233 0.935000 9379090
-0.222203 -0.188292 0.937000 11681081
-0.223389 -0.183914 0.942000 11885926
-0.223389 -0.178531 0.942000 11421803
-0.224100 -0.173700 0.945000 11289682
-0.224100 -0.168300 0.945000 11353959
-0.224811 -0.163417 0.948000 12548752
-0.225286 -0.158333 0.950000 13533327
-0.225997 -0.153388 0.953000 9830665
-0.226471 -0.148252 0.955000 12208732
-0.226471 -0.142795 0.955000 9928562
-0.218771 -0.202829 0.930000 6842767
-0.219242 -0.197939 0.932000 5636411
-0.219948 -0.193233 0.935000 4982785
-0.220418 -0.188292 0.937000 7209236
-0.221594 -0.183914 0.942000 10371180
-0.222300 -0.179100 0.945000 11357798
-0.223006 -0.174251 0.948000 11284792
-0.223006 -0.168834 0.948000 11762015
-0.224182 -0.164279 0.953000 12546170
-0.224182 -0.158833 0.953000 12616591
-0.224652 -0.153710 0.955000 10291985
-0.225358 -0.148718 0.958000 10027265
-0.225358 -0.143244 0.958000 5710081
-0.217467 -0.197939 0.932000 7430001
-0.218167 -0.193233 0.935000 655687
-0.219333 -0.188895 0.940000 2687268
-0.219800 -0.183914 0.942000 8782391
-0.220500 -0.179100 0.945000 11219514
-0.221200 -0.174251 0.948000 11346482
-0.221667 -0.169190 0.950000 12080203
-0.222367 -0.164279 0.953000 12477006
-0.222833 -0.159167 0.955000 11685980
-0.223533 -0.154192 0.958000 10757921
-0.223533 -0.148718 0.958000 7866904
-0.223533 -0.143244 0.958000 1442072
-0.216386 -0.193233 0.935000 6380941
-0.217543 -0.188895 0.940000 4849973
-0.218006 -0.183914 0.942000 4849921
-0.218700 -0.179100 0.945000 5832974
-0.219394 -0.174251 0.948000 7998252
-0.219857 -0.169190 0.950000 9588280
-0.220551 -0.164279 0.953000 9714722
-0.221014 -0.159167 0.955000 8986409
-0.221709 -0.154192 0.958000 7409456
-0.222403 -0.149184 0.961000 5112110
-0.215752 -0.188895 0.940000 6970988
-0.216900 -0.184500 0.945000 917831
-0.216900 -0.179100 0.945000 395054
-0.217589 -0.174251 0.948000 4654619
-0.218736 -0.169725 0.953000 7018268
-0.219195 -0.164624 0.955000 6947090
-0.219195 -0.159167 0.955000 6294043
-0.219884 -0.154192 0.958000 4067364
-0.220572 -0.149184 0.961000 2362918
-0.215100 -0.184500 0.945000 6776460
-0.215100 -0.179100 0.945000 4921934
-0.215100 -0.173700 0.945000 4526346
-0.216238 -0.169190 0.950000 3997953
-0.217376 -0.164624 0.955000 3670273
-0.217376 -0.159167 0.955000 3277070
-0.218742 -0.154675 0.961000 2625048
-0.219197 -0.149494 0.963000 2104607
-0.213300 -0.173700 0.945000 4406359
-0.214429 -0.169190 0.950000 924739
-0.215557 -0.164624 0.955000 393526
-0.216234 -0.159667 0.958000 263982
-0.216911 -0.154675 0.961000 1179956
-0.217363 -0.149494 0.963000 1837356
-0.214410 -0.165141 0.958000 5393003
-0.215081 -0.160167 0.961000 4724814
-0.215081 -0.154675 0.961000 4727375
-0.215529 -0.149494 0.963000 4981306
-0.213250 -0.154675 0.961000 8356730
-0.286705 -0.265707 0.848000 10555698
-0.285690 -0.259938 0.845000 9830664
-0.285090 -0.265707 0.848000 10757943
-0.284081 -0.259938 0.845000 8651279
-0.285480 -0.272467 0.854000 10884935
-0.284143 -0.266333 0.850000 10758204
-0.282471 -0.259938 0.845000 9371927
-0.282471 -0.255110 0.845000 9044483
-0.283853 -0.272467 0.854000 10888262
-0.282524 -0.266333 0.850000 10824001
-0.280197 -0.259323 0.843000 10029346
-0.280197 -0.254506 0.843000 8913679
-0.282227 -0.272467 0.854000 10824262
-0.280905 -0.266333 0.850000 10824005
-0.279252 -0.259938 0.845000 10358317
-0.278591 -0.254506 0.843000 9306907
-0.278591 -0.249689 0.843000 8193051
-0.281914 -0.273743 0.858000 10757957
-0.278629 -0.265707 0.848000 10889026
-0.277643 -0.259938 0.845000 10687022
-0.276986 -0.254506 0.843000 9765656
-0.276986 -0.249689 0.843000 8717335
-0.276986 -0.244871 0.843000 7801101
-0.280280 -0.273743 0.858000 10823748
-0.277013 -0.265707 0.848000 10954046
-0.275380 -0.259323 0.843000 10883120
-0.275380 -0.254506 0.843000 10027797
-0.275380 -0.249689 0.843000 9110546
-0.276033 -0.245452 0.845000 8390162
-0.276033 -0.240624 0.845000 7931158
-0.278973 -0.238307 0.854000 7472655
-0.279627 -0.233973 0.856000 4459546
-0.278646 -0.273743 0.858000 10822721
-0.276048 -0.266333 0.850000 11019061
-0.273774 -0.259323 0.843000 11013422
-0.273125 -0.253902 0.841000 10289430
-0.273774 -0.249689 0.843000 9503506
-0.274424 -0.245452 0.845000 8979474
-0.276048 -0.242048 0.850000 8455700
-0.277347 -0.238307 0.854000 8325394
-0.278646 -0.234520 0.858000 5903124
-0.282868 -0.213188 0.871000 525068
-0.277011 -0.273743 0.858000 10821694
-0.275074 -0.266960 0.852000 10953260
-0.272169 -0.259323 0.843000 11143724
-0.271523 -0.253902 0.841000 10354967
-0.270877 -0.248504 0.839000 9765651
-0.272814 -0.245452 0.845000 9241617
-0.274429 -0.242048 0.850000 8783633
-0.275720 -0.238307 0.854000 8521493
-0.277011 -0.234520 0.858000 7347726
-0.277657 -0.230152 0.860000 1574678
-0.281209 -0.218165 0.871000 1051158
-0.281209 -0.213188 0.871000 1116439
-0.286374 -0.206967 0.887000 1248026
-0.286374 -0.201898 0.887000 1379873
-0.285406 -0.196164 0.884000 1574921
-0.276019 -0.279295 0.860000 10624320
-0.275377 -0.273743 0.858000 10756159
-0.273451 -0.266960 0.852000 10952497
-0.270563 -0.259323 0.843000 11275314
-0.269921 -0.253902 0.841000 10486041
-0.269279 -0.248504 0.839000 9962004
-0.271205 -0.245452 0.845000 9503503
-0.272810 -0.242048 0.850000 9045009
-0.274093 -0.238307 0.854000 8782609
-0.275377 -0.234520 0.858000 8721422
-0.275377 -0.229617 0.858000 1705493
-0.278908 -0.217664 0.869000 1379347
-0.280191 -0.213677 0.873000 1706261
-0.281796 -0.209884 0.878000 1772308
-0.284685 -0.206967 0.887000 2100500
-0.284685 -0.201898 0.887000 2231576
-0.283722 -0.196164 0.884000 2624782
-0.284685 -0.191761 0.887000 2951946
-0.285969 -0.187534 0.891000 1706764
-0.274381 -0.279295 0.860000 10689861
-0.273743 -0.273743 0.858000 10689600
-0.271829 -0.266960 0.852000 10953013
-0.268957 -0.259323 0.843000 11537720
-0.267681 -0.253298 0.839000 10617114
-0.267681 -0.248504 0.839000 10092822
-0.269595 -0.245452 0.845000 9634316
-0.270552 -0.241478 0.848000 9241105
-0.271829 -0.237749 0.852000 8913676
-0.273743 -0.234520 0.858000 8917006
-0.273743 -0.229617 0.858000 2098452
-0.277252 -0.217664 0.869000 1510416
-0.278529 -0.213677 0.873000 1378579
-0.280124 -0.209884 0.878000 1509903
-0.282038 -0.206267 0.884000 1772302
-0.282995 -0.201898 0.887000 1968911
-0.282038 -0.196164 0.884000 2297107
-0.282995 -0.191761 0.887000 2494225
-0.284271 -0.187534 0.891000 2100758
-0.287462 -0.184490 0.901000 1839385
-0.273377 -0.279945 0.862000 10821954
-0.272743 -0.274381 0.860000 10624828
-0.270206 -0.266960 0.852000 11018039
-0.267351 -0.259323 0.843000 11800374
-0.266083 -0.253298 0.839000 10813727
-0.265449 -0.247911 0.837000 10223895
-0.267986 -0.245452 0.845000 9765394
-0.268937 -0.241478 0.848000 9371923
-0.270206 -0.237749 0.852000 9110285
-0.271474 -0.233973 0.856000 9047052
-0.272109 -0.229617 0.858000 2491413
-0.275597 -0.217664 0.869000 1575695
-0.276866 -0.213677 0.873000 1116945
-0.277500 -0.209167 0.875000 1248015
-0.280354 -0.206267 0.884000 1509904
-0.280354 -0.201215 0.884000 1707024
-0.280354 -0.196164 0.884000 1969684
-0.281306 -0.191761 0.887000 1969683
-0.282574 -0.187534 0.891000 2494483
-0.284160 -0.183467 0.896000 2428692
-0.285746 -0.179342 0.901000 2560280
-0.271735 -0.279945 0.862000 10822718
-0.271105 -0.274381 0.860000 10692151
-0.269213 -0.267587 0.854000 11083064
-0.265115 -0.258708 0.841000 11866931
-0.264485 -0.253298 0.839000 11010339
-0.263854 -0.247911 0.837000 10486297
-0.266376 -0.245452 0.845000 9962008
-0.267322 -0.241478 0.848000 9568534
-0.268583 -0.237749 0.852000 9372173
-0.269844 -0.233973 0.856000 9243915
-0.269844 -0.229082 0.856000 2491413
-0.269844 -0.224190 0.856000 1378065
-0.273942 -0.217664 0.869000 1575181
-0.274572 -0.213188 0.871000 1248270
-0.275833 -0.209167 0.875000 1444110
-0.277410 -0.205333 0.880000 1575953
-0.278040 -0.200760 0.882000 1838098
-0.278670 -0.196164 0.884000 2035220
-0.279616 -0.191761 0.887000 2166037
-0.280247 -0.187113 0.889000 2298128
-0.282453 -0.183467 0.896000 2297359
-0.283084 -0.178745 0.898000 2298133
-0.271033 -0.280919 0.865000 10823233
-0.269467 -0.274381 0.860000 10692665
-0.267587 -0.267587 0.854000 11213880
-0.263513 -0.258708 0.841000 11866421
-0.262887 -0.253298 0.839000 11206948
-0.262260 -0.247911 0.837000 10682909
-0.264140 -0.244871 0.843000 10223897
-0.265707 -0.241478 0.848000 9765397
-0.266333 -0.237190 0.850000 9568527
-0.268213 -0.233973 0.856000 9374475
-0.268840 -0.229617 0.858000 2556698
-0.269467 -0.225238 0.860000 1509394
-0.270093 -0.220836 0.862000 1509649
-0.271660 -0.217163 0.867000 1509902
-0.272913 -0.213188 0.871000 1444880
-0.274167 -0.209167 0.875000 1641489
-0.275733 -0.205333 0.880000 1576467
-0.276360 -0.200760 0.882000 1969683
-0.276987 -0.196164 0.884000 2100763
-0.277927 -0.191761 0.887000 2362901
-0.278553 -0.187113 0.889000 2101776
-0.280747 -0.183467 0.896000 2100754
-0.282313 -0.179342 0.901000 2101270
-0.282940 -0.174580 0.903000 2101528
-0.284507 -0.165170 0.908000 2101528
-0.269386 -0.280919 0.865000 10822979
-0.268451 -0.275019 0.862000 10627644
-0.265960 -0.267587 0.854000 11279160
-0.261911 -0.258708 0.841000 12129591
-0.261289 -0.253298 0.839000 11403812
-0.261289 -0.248504 0.839000 10879778
-0.262534 -0.244871 0.843000 10486553
-0.263157 -0.240624 0.845000 10027540
-0.265337 -0.237749 0.852000 9830929
-0.266583 -0.233973 0.856000 9637386
-0.267206 -0.229617 0.858000 2753566
-0.267829 -0.225238 0.860000 1444372
-0.269386 -0.221605 0.865000 1444884
-0.270009 -0.217163 0.867000 1575184
-0.271254 -0.213188 0.871000 1576466
-0.271877 -0.208689 0.873000 1707283
-0.273434 -0.204867 0.878000 1642260
-0.273434 -0.199850 0.878000 1969685
-0.275303 -0.196164 0.884000 2100770
-0.276860 -0.192193 0.889000 2362645
-0.277483 -0.187534 0.891000 2297871
-0.279040 -0.183467 0.896000 2297109
-0.279663 -0.178745 0.898000 2232599
-0.281220 -0.174580 0.903000 2429209
-0.282777 -0.165170 0.908000 2363415
-0.284334 -0.160862 0.913000 2625551
-0.268357 -0.286523 0.867000 10559065
-0.267738 -0.280919 0.865000 10822475
-0.266810 -0.275019 0.862000 10561855
-0.263714 -0.266960 0.852000 11344443
-0.260929 -0.259323 0.843000 12324922
-0.259690 -0.253298 0.839000 11600421
-0.259690 -0.248504 0.839000 11010854
-0.260929 -0.244871 0.843000 10748965
-0.261548 -0.240624 0.845000 10224411
-0.263095 -0.237190 0.850000 10027280
-0.264952 -0.233973 0.856000 9898763
-0.265571 -0.229617 0.858000 3015457
-0.266810 -0.225762 0.862000 1314069
-0.266810 -0.220836 0.862000 1445138
-0.268357 -0.217163 0.867000 1576721
-0.268976 -0.212698 0.869000 1707543
-0.270214 -0.208689 0.873000 1707542
-0.271762 -0.204867 0.878000 1707797
-0.271762 -0.199850 0.878000 1970196
-0.273619 -0.196164 0.884000 2100764
-0.275167 -0.192193 0.889000 2362905
-0.275786 -0.187534 0.891000 2428181
-0.277333 -0.183467 0.896000 2493978
-0.277952 -0.178745 0.898000 2298129
-0.279500 -0.174580 0.903000 2690835
-0.280119 -0.169795 0.905000 2495525
-0.281048 -0.165170 0.908000 2559773
-0.283214 -0.161214 0.915000 2625816
-0.266706 -0.286523 0.867000 10554458
-0.266090 -0.280919 0.865000 10822483
-0.265168 -0.275019 0.862000 10692418
-0.262707 -0.267587 0.854000 11410494
-0.259323 -0.259323 0.843000 12128573
-0.258092 -0.253298 0.839000 11666470
-0.258708 -0.249096 0.841000 10945834
-0.259323 -0.244871 0.843000 10945584
-0.259938 -0.240624 0.845000 10486563
-0.261476 -0.237190 0.850000 10289678
-0.263322 -0.233973 0.856000 10161676
-0.263937 -0.229617 0.858000 3147812
-0.265168 -0.225762 0.862000 1642775
-0.265168 -0.220836 0.862000 1642512
-0.266706 -0.217163 0.867000 1774098
-0.267321 -0.212698 0.869000 1904667
-0.267936 -0.208210 0.871000 1969688
-0.269167 -0.204167 0.875000 1904662
-0.270090 -0.199850 0.878000 2167059
-0.272858 -0.196830 0.887000 2101014
-0.273473 -0.192193 0.889000 1903901
-0.274089 -0.187534 0.891000 1837595
-0.275627 -0.183467 0.896000 1706526
-0.276242 -0.178745 0.898000 1509898
-0.277780 -0.174580 0.903000 1771789
-0.278395 -0.169795 0.905000 1707052
-0.279318 -0.165170 0.908000 2034468
-0.280856 -0.160862 0.913000 2166816
-0.284548 -0.147119 0.925000 2100246
-0.285163 -0.142140 0.927000 1968412
-0.265054 -0.286523 0.867000 10558044
-0.264443 -0.280919 0.865000 10821963
-0.263526 -0.275019 0.862000 10757952
-0.260469 -0.266960 0.852000 11541055
-0.257717 -0.259323 0.843000 11932224
-0.257106 -0.253902 0.841000 11797290
-0.257106 -0.249096 0.841000 10814764
-0.257717 -0.244871 0.843000 11076665
-0.258329 -0.240624 0.845000 10683174
-0.259857 -0.237190 0.850000 10486293
-0.261691 -0.233973 0.856000 10423310
-0.262303 -0.229617 0.858000 3213862
-0.263526 -0.225762 0.862000 1971229
-0.263526 -0.220836 0.862000 1904917
-0.264443 -0.216662 0.865000 1970455
-0.265666 -0.212698 0.869000 2166808
-0.266277 -0.208210 0.871000 2166809
-0.267500 -0.204167 0.875000 2101274
-0.268417 -0.199850 0.878000 2297875
-0.270251 -0.196164 0.884000 2100239
-0.271780 -0.192193 0.889000 1378576
-0.272391 -0.187534 0.891000 1245967
-0.273920 -0.183467 0.896000 853776
-0.274531 -0.178745 0.898000 655649
-0.276060 -0.174580 0.903000 788519
-0.276671 -0.169795 0.905000 983330
-0.277589 -0.165170 0.908000 1509924
-0.279729 -0.161214 0.915000 1772817
-0.282786 -0.147119 0.925000 2232089
-0.283397 -0.142140 0.927000 2494743
-0.263403 -0.286523 0.867000 10553181
-0.261884 -0.279945 0.862000 10887490
-0.261884 -0.275019 0.862000 10823487
-0.259453 -0.267587 0.854000 11672895
-0.256111 -0.259323 0.843000 11997252
-0.255504 -0.253902 0.841000 11732014
-0.255504 -0.249096 0.841000 11077422
-0.256111 -0.244871 0.843000 11539266
-0.257630 -0.241478 0.848000 10748713
-0.258846 -0.237749 0.852000 10617627
-0.260061 -0.233973 0.856000 10554897
-0.260669 -0.229617 0.858000 3214120
-0.261884 -0.225762 0.862000 2298660
-0.261884 -0.220836 0.862000 2167578
-0.262795 -0.216662 0.865000 2167069
-0.264010 -0.212698 0.869000 2364181
-0.264618 -0.208210 0.871000 2167066
-0.265226 -0.203700 0.873000 2166814
-0.266745 -0.199850 0.878000 1707028
-0.269479 -0.196830 0.887000 2754056
-0.270087 -0.192193 0.889000 3933187
-0.271606 -0.188166 0.894000 4656131
-0.272213 -0.183467 0.896000 5378051
-0.273732 -0.179342 0.901000 5708088
-0.274340 -0.174580 0.903000 5969217
-0.274948 -0.169795 0.905000 5578008
-0.275859 -0.165170 0.908000 4724517
-0.277986 -0.161214 0.915000 3409410
-0.279505 -0.156838 0.920000 1509909
-0.281024 -0.147119 0.925000 2494747
-0.281631 -0.142140 0.927000 2494481
-0.284062 -0.138024 0.935000 1773077
-0.261751 -0.286523 0.867000 10557789
-0.260242 -0.279945 0.862000 10886975
-0.259638 -0.274381 0.860000 10887994
-0.256015 -0.265707 0.848000 11870268
-0.254506 -0.259323 0.843000 11996217
-0.253902 -0.253902 0.841000 11600688
-0.254506 -0.249689 0.843000 11339306
-0.255110 -0.245452 0.845000 12070220
-0.255110 -0.240624 0.845000 10750264
-0.257223 -0.237749 0.852000 10748706
-0.258430 -0.233973 0.856000 10621205
-0.259034 -0.229617 0.858000 3214891
-0.260242 -0.225762 0.862000 2561319
-0.261148 -0.221605 0.865000 2429983
-0.261751 -0.217163 0.867000 2364448
-0.262355 -0.212698 0.869000 2561565
-0.262959 -0.208210 0.871000 2167839
-0.263563 -0.203700 0.873000 2297627
-0.265072 -0.199850 0.878000 1116688
-0.267790 -0.196830 0.887000 3473694
-0.268393 -0.192193 0.889000 6428203
-0.269903 -0.188166 0.894000 8131887
-0.270507 -0.183467 0.896000 9907001
-0.272016 -0.179342 0.901000 10700633
-0.273224 -0.174967 0.905000 11091289
-0.273224 -0.169795 0.905000 10239042
-0.274130 -0.165170 0.908000 7933723
-0.276847 -0.161567 0.917000 5046580
-0.278356 -0.157179 0.922000 657448
-0.279262 -0.152405 0.925000 1707309
-0.279262 -0.147119 0.925000 2690843
-0.279866 -0.142140 0.927000 2560278
-0.281375 -0.137581 0.932000 2625555
-0.258600 -0.279945 0.862000 10887483
-0.258600 -0.275019 0.862000 10952502
-0.254400 -0.265707 0.848000 11868472
-0.252900 -0.259323 0.843000 11928365
-0.252900 -0.254506 0.843000 11535409
-0.252900 -0.249689 0.843000 11141926
-0.253500 -0.245452 0.845000 12205910
-0.255000 -0.242048 0.850000 10813766
-0.255600 -0.237749 0.852000 10815016
-0.256800 -0.233973 0.856000 10295320
-0.258000 -0.230152 0.860000 3018542
-0.258600 -0.225762 0.862000 2692907
-0.259500 -0.221605 0.865000 2561828
-0.260100 -0.217163 0.867000 2561827
-0.260700 -0.212698 0.869000 2692900
-0.261300 -0.208210 0.871000 2233637
-0.262500 -0.204167 0.875000 3409943
-0.264000 -0.200305 0.880000 5510925
-0.266100 -0.196830 0.887000 7479860
-0.267300 -0.192626 0.891000 9193299
-0.268200 -0.188166 0.894000 9845595
-0.268800 -0.183467 0.896000 10769775
-0.270300 -0.179342 0.901000 11031161
-0.271500 -0.174967 0.905000 11163505
-0.272400 -0.170358 0.908000 10634091
-0.272400 -0.165170 0.908000 8914449
-0.274500 -0.161214 0.915000 9129061
-0.276600 -0.157179 0.922000 5378364
-0.277500 -0.152405 0.925000 4327986
-0.278100 -0.147437 0.927000 1772570
-0.278100 -0.142140 0.927000 2232346
-0.279600 -0.137581 0.932000 2493970
-0.256958 -0.279945 0.862000 10887485
-0.256958 -0.275019 0.862000 11017787
-0.253381 -0.266333 0.850000 11932995
-0.251294 -0.259323 0.843000 11797803
-0.251294 -0.254506 0.843000 11469615
-0.251294 -0.249689 0.843000 10945319
-0.251890 -0.245452 0.845000 12408175
-0.253381 -0.242048 0.850000 10816576
-0.254573 -0.238307 0.854000 10946090
-0.255170 -0.233973 0.856000 9967385
-0.256362 -0.230152 0.860000 2757424
-0.257852 -0.226548 0.865000 2824746
-0.257852 -0.221605 0.865000 2694184
-0.258449 -0.217163 0.867000 2759208
-0.259045 -0.212698 0.869000 2890277
-0.259641 -0.208210 0.871000 2297381
-0.260833 -0.204167 0.875000 4522286
-0.262920 -0.200760 0.882000 9907765
-0.264410 -0.196830 0.887000 11547989
-0.265007 -0.192193 0.889000 11948647
-0.265603 -0.187534 0.891000 11550570
-0.267093 -0.183467 0.896000 11620719
-0.268584 -0.179342 0.901000 11424636
-0.269776 -0.174967 0.905000 11161456
-0.270670 -0.170358 0.908000 11030121
-0.270670 -0.165170 0.908000 9901884
-0.272757 -0.161214 0.915000 13280389
-0.275738 -0.157690 0.925000 10046315
-0.275738 -0.152405 0.925000 6949176
-0.276334 -0.147437 0.927000 789278
-0.276334 -0.142140 0.927000 1969434
-0.277825 -0.137581 0.932000 2298647
-0.278719 -0.132681 0.935000 2560282
-0.255316 -0.279945 0.862000 10952766
-0.255316 -0.275019 0.862000 11214399
-0.251762 -0.266333 0.850000 11932494
-0.250281 -0.259938 0.845000 11862825
-0.249689 -0.254506 0.843000 11273260
-0.249689 -0.249689 0.843000 10879271
-0.251170 -0.246324 0.848000 12868232
-0.252354 -0.242617 0.852000 10879289
-0.252947 -0.238307 0.854000 10946347
-0.253539 -0.233973 0.856000 9575963
-0.254724 -0.230152 0.860000 2692145
-0.255316 -0.225762 0.862000 2825770
-0.256205 -0.221605 0.865000 2825772
-0.257390 -0.217664 0.869000 2891308
-0.257982 -0.213188 0.871000 2627109
-0.257982 -0.208210 0.871000 4655397
-0.259167 -0.204167 0.875000 8002372
-0.261240 -0.200760 0.882000 10962269
-0.262721 -0.196830 0.887000 11685750
-0.263313 -0.192193 0.889000 11950715
-0.263906 -0.187534 0.891000 11751288
-0.265387 -0.183467 0.896000 11619694
-0.266868 -0.179342 0.901000 11489919
-0.268052 -0.174967 0.905000 11357550
-0.268941 -0.170358 0.908000 11027559
-0.269533 -0.165533 0.910000 11162470
-0.271014 -0.161214 0.915000 13013413
-0.273088 -0.157179 0.922000 10710170
-0.273976 -0.152405 0.925000 8591166
-0.274569 -0.147437 0.927000 5511714
-0.275457 -0.142600 0.930000 2689049
-0.276050 -0.137581 0.932000 2430237
-0.277530 -0.132965 0.937000 2495001
-0.277530 -0.127610 0.937000 1511712
-0.253086 -0.279295 0.860000 11017531
-0.252497 -0.273743 0.858000 11411006
-0.250731 -0.266960 0.852000 11996478
-0.248671 -0.259938 0.845000 11862815
-0.248671 -0.255110 0.845000 11141929
-0.248671 -0.250281 0.845000 10813738
-0.250143 -0.246905 0.850000 13334143
-0.250731 -0.242617 0.852000 10880557
-0.251320 -0.238307 0.854000 11011115
-0.252497 -0.234520 0.858000 9180701
-0.253086 -0.230152 0.860000 2561840
-0.253674 -0.225762 0.862000 2760491
-0.255146 -0.222117 0.867000 3023149
-0.256323 -0.218165 0.871000 3022637
-0.256323 -0.213188 0.871000 2428976
-0.256911 -0.208689 0.873000 7018282
-0.258383 -0.204867 0.878000 11476294
-0.259560 -0.200760 0.882000 12011368
-0.261031 -0.196830 0.887000 11884662
-0.261620 -0.192193 0.889000 11884153
-0.262209 -0.187534 0.891000 12014975
-0.263680 -0.183467 0.896000 11620211
-0.265151 -0.179342 0.901000 11555702
-0.266329 -0.174967 0.905000 11553899
-0.267211 -0.170358 0.908000 11025249
-0.267800 -0.165533 0.910000 12349555
-0.269271 -0.161214 0.915000 12754852
-0.271331 -0.157179 0.922000 11295646
-0.272214 -0.152405 0.925000 10295881
-0.272803 -0.147437 0.927000 10165043
-0.273686 -0.142600 0.930000 3408171
-0.274274 -0.137581 0.932000 2560284
-0.275746 -0.132965 0.937000 2495773
-0.276629 -0.128019 0.940000 2495007
-0.277217 -0.122909 0.942000 2885140
-0.251448 -0.279295 0.860000 11082296
-0.250278 -0.273105 0.856000 11607612
-0.249109 -0.266960 0.852000 12061229
-0.247062 -0.259938 0.845000 11862549
-0.247062 -0.255110 0.845000 11141926
-0.247062 -0.250281 0.845000 11206957
-0.248524 -0.246905 0.850000 12735093
-0.249693 -0.243187 0.854000 10944800
-0.249693 -0.238307 0.854000 10880810
-0.250863 -0.234520 0.858000 7604768
-0.252032 -0.230688 0.862000 2693678
-0.252032 -0.225762 0.862000 2891564
-0.254079 -0.222630 0.869000 3154477
-0.254664 -0.218165 0.871000 3153967
-0.254664 -0.213188 0.871000 3674170
-0.255249 -0.208689 0.873000 9581871
-0.256710 -0.204867 0.878000 11476296
-0.258465 -0.201215 0.884000 12147059
-0.259342 -0.196830 0.887000 11949174
-0.259927 -0.192193 0.889000 11883384
-0.261389 -0.188166 0.894000 11949701
-0.261973 -0.183467 0.896000 11751799
-0.262558 -0.178745 0.898000 11620205
-0.264020 -0.174580 0.903000 11619689
-0.265482 -0.170358 0.908000 11088730
-0.266067 -0.165533 0.910000 13142401
-0.267529 -0.161214 0.915000 12622499
-0.268990 -0.156838 0.920000 11298723
-0.270452 -0.152405 0.925000 10361683
-0.271037 -0.147437 0.927000 10627141
-0.271914 -0.142600 0.930000 6689340
-0.273376 -0.138024 0.935000 1575194
-0.273961 -0.132965 0.937000 2561057
-0.275423 -0.128291 0.942000 2494749
-0.249810 -0.279295 0.860000 11212588
-0.248648 -0.273105 0.856000 11737404
-0.247486 -0.266960 0.852000 12125486
-0.246324 -0.260861 0.848000 11797533
-0.245452 -0.255110 0.845000 11141926
-0.246324 -0.251170 0.848000 11608629
-0.247486 -0.247486 0.852000 12138574
-0.248067 -0.243187 0.854000 10945313
-0.248648 -0.238865 0.856000 10814496
-0.249810 -0.235067 0.860000 6032924
-0.251262 -0.231490 0.865000 2825773
-0.251262 -0.226548 0.865000 3022636
-0.252424 -0.222630 0.869000 3285549
-0.253005 -0.218165 0.871000 3218992
-0.253005 -0.213188 0.871000 4916254
-0.254167 -0.209167 0.875000 12068414
-0.255619 -0.205333 0.880000 11475525
-0.256781 -0.201215 0.884000 12212599
-0.257652 -0.196830 0.887000 12079225
-0.258233 -0.192193 0.889000 11883123
-0.259686 -0.188166 0.894000 11950721
-0.260267 -0.183467 0.896000 11817077
-0.261719 -0.179342 0.901000 11751278
-0.262881 -0.174967 0.905000 11686261
-0.263752 -0.170358 0.908000 11220579
-0.264333 -0.165533 0.910000 13930109
-0.265786 -0.161214 0.915000 12426922
-0.267238 -0.156838 0.920000 11295902
-0.268690 -0.152405 0.925000 10495832
-0.269271 -0.147437 0.927000 11020872
-0.270143 -0.142600 0.930000 10033483
-0.271595 -0.138024 0.935000 526888
-0.272176 -0.132965 0.937000 2625833
-0.274500 -0.128700 0.945000 2495518
-0.248171 -0.279295 0.860000 11342623
-0.247017 -0.273105 0.856000 11736380
-0.245863 -0.266960 0.852000 11929647
-0.245286 -0.261476 0.850000 11732262
-0.243843 -0.255110 0.845000 11273253
-0.244709 -0.251170 0.848000 11613501
-0.245863 -0.247486 0.852000 11605286
-0.247017 -0.243756 0.856000 10945571
-0.247594 -0.239423 0.858000 10685206
-0.248171 -0.235067 0.860000 3801881
-0.249614 -0.231490 0.865000 2825003
-0.250191 -0.227071 0.867000 3022379
-0.251346 -0.223142 0.871000 3219757
-0.251346 -0.218165 0.871000 3021618
-0.251923 -0.213677 0.873000 7279617
-0.253943 -0.210362 0.880000 11865165
-0.255097 -0.206267 0.884000 11673409
-0.255097 -0.201215 0.884000 12410747
-0.256540 -0.197273 0.889000 12278140
-0.256540 -0.192193 0.889000 12079982
-0.257983 -0.188166 0.894000 12080509
-0.259137 -0.183876 0.898000 12014450
-0.260580 -0.179740 0.903000 11882606
-0.261157 -0.174967 0.905000 11818369
-0.262600 -0.170733 0.910000 11486316
-0.263466 -0.166079 0.913000 13736826
-0.264620 -0.161567 0.917000 12558256
-0.265486 -0.156838 0.920000 11233434
-0.266929 -0.152405 0.925000 10692701
-0.267506 -0.147437 0.927000 11087436
-0.268949 -0.142907 0.932000 10893913
-0.269814 -0.138024 0.935000 5183286
-0.270391 -0.132965 0.937000 2166320
-0.272700 -0.128700 0.945000 2495518
-0.246533 -0.279295 0.860000 11474771
-0.245387 -0.273105 0.856000 11734584
-0.244813 -0.267587 0.854000 11733291
-0.244240 -0.262091 0.852000 11601443
-0.243093 -0.256015 0.848000 11404326
-0.243667 -0.251762 0.850000 11606829
-0.244813 -0.248067 0.854000 11075875
-0.245387 -0.243756 0.856000 10880032
-0.245960 -0.239423 0.858000 10554899
-0.246533 -0.235067 0.860000 1575708
-0.247967 -0.231490 0.865000 2890026
-0.248540 -0.227071 0.867000 2955815
-0.249687 -0.223142 0.871000 3088170
-0.249687 -0.218165 0.871000 2823212
-0.250260 -0.213677 0.873000 9580841
-0.252840 -0.210840 0.882000 11620743
-0.253413 -0.206267 0.884000 11799131
-0.254273 -0.201898 0.887000 12541312
-0.254847 -0.197273 0.889000 12476032
-0.255420 -0.192626 0.891000 12212859
-0.256280 -0.188166 0.894000 12210561
-0.257427 -0.183876 0.898000 12146040
-0.258287 -0.179342 0.901000 12013429
-0.259433 -0.174967 0.905000 11884155
-0.260867 -0.170733 0.910000 11744102
-0.261727 -0.166079 0.913000 13535614
-0.262873 -0.161567 0.917000 12696001
-0.263733 -0.156838 0.920000 11100822
-0.265167 -0.152405 0.925000 10955615
-0.265167 -0.147119 0.925000 11153490
-0.267173 -0.142907 0.932000 11748446
-0.268033 -0.138024 0.935000 9841221
-0.268607 -0.132965 0.937000 1641011
-0.270900 -0.128700 0.945000 2495779
-0.243756 -0.273105 0.856000 11602229
-0.243187 -0.267587 0.854000 11273767
-0.242617 -0.262091 0.852000 11404833
-0.242048 -0.256619 0.850000 11207975
-0.243187 -0.252947 0.854000 11404060
-0.243756 -0.248648 0.856000 11010847
-0.244326 -0.244326 0.858000 10814493
-0.244326 -0.239423 0.858000 9702928
-0.244895 -0.235067 0.860000 1836575
-0.246319 -0.231490 0.865000 2430249
-0.247458 -0.227595 0.869000 2888739
-0.248028 -0.223142 0.871000 3022375
-0.248597 -0.218666 0.873000 2428198
-0.249167 -0.214167 0.875000 11224912
-0.251160 -0.210840 0.882000 13282241
-0.251730 -0.206267 0.884000 12403573
-0.252584 -0.201898 0.887000 12672389
-0.253153 -0.197273 0.889000 12737924
-0.254577 -0.193274 0.894000 12476040
-0.255147 -0.188587 0.896000 12409220
-0.255716 -0.183876 0.898000 12343422
-0.257140 -0.179740 0.903000 12144507
-0.257710 -0.174967 0.905000 12082293
-0.259133 -0.170733 0.910000 11679072
-0.260557 -0.166443 0.915000 12159618
-0.261127 -0.161567 0.917000 12956882
-0.261981 -0.156838 0.920000 11096722
-0.263405 -0.152405 0.925000 11021408
-0.263405 -0.147119 0.925000 11284824
-0.265398 -0.142907 0.932000 11751523
-0.266252 -0.138024 0.935000 10302036
-0.266822 -0.132965 0.937000 3280437
-0.269100 -0.128700 0.945000 2495784
-0.242126 -0.273105 0.856000 11423590
-0.241560 -0.267587 0.854000 10880330
-0.240994 -0.262091 0.852000 11143229
-0.241560 -0.257827 0.854000 11011875
-0.242126 -0.253539 0.856000 11142430
-0.242691 -0.249229 0.858000 10945830
-0.242691 -0.244326 0.858000 10749214
-0.243257 -0.239981 0.860000 8852490
-0.243257 -0.235067 0.860000 2033692
-0.244671 -0.231490 0.865000 2037029
-0.246369 -0.228119 0.871000 2758177
-0.247500 -0.224167 0.875000 3022119
-0.247500 -0.219167 0.875000 2034721
-0.247500 -0.214167 0.875000 12804945
-0.249480 -0.210840 0.882000 14854848
-0.250046 -0.206267 0.884000 13062258
-0.250894 -0.201898 0.887000 12737409
-0.251460 -0.197273 0.889000 12934021
-0.252874 -0.193274 0.894000 12738957
-0.253440 -0.188587 0.896000 12672647
-0.254854 -0.184490 0.901000 12476808
-0.255420 -0.179740 0.903000 12275328
-0.255986 -0.174967 0.905000 12213120
-0.257400 -0.170733 0.910000 11545945
-0.258814 -0.166443 0.915000 10695527
-0.259380 -0.161567 0.917000 13292510
-0.260794 -0.157179 0.922000 11031691
-0.261643 -0.152405 0.925000 11087452
-0.261643 -0.147119 0.925000 11351637
-0.263623 -0.142907 0.932000 11753323
-0.265037 -0.138319 0.937000 10758478
-0.265886 -0.133390 0.940000 4917807
-0.267300 -0.128700 0.945000 2429997
-0.239933 -0.267587 0.854000 11623789
-0.239371 -0.262091 0.852000 11145304
-0.239933 -0.257827 0.854000 10685215
-0.241057 -0.254131 0.858000 10748704
-0.241619 -0.249810 0.860000 10816045
-0.241619 -0.244895 0.860000 10881054
-0.241619 -0.239981 0.860000 7147267
-0.242181 -0.235613 0.862000 2493464
-0.243586 -0.232026 0.867000 2298401
-0.244710 -0.228119 0.871000 2757664
-0.245833 -0.224167 0.875000 2693159
-0.245833 -0.219167 0.875000 4326172
-0.247238 -0.215390 0.880000 12805713
-0.248362 -0.211318 0.884000 14393791
-0.249205 -0.206967 0.887000 12538990
-0.249205 -0.201898 0.887000 12605052
-0.250329 -0.197717 0.891000 12868229
-0.251171 -0.193274 0.894000 12935827
-0.252295 -0.189008 0.898000 12738442
-0.253138 -0.184490 0.901000 12941970
-0.254262 -0.180138 0.905000 12473476
-0.255105 -0.175547 0.908000 12475531
-0.255667 -0.170733 0.910000 11412050
-0.257071 -0.166443 0.915000 10748236
-0.258476 -0.162095 0.920000 13483754
-0.258476 -0.156838 0.920000 10965892
-0.259881 -0.152405 0.925000 11350615
-0.260443 -0.147437 0.927000 11551570
-0.261848 -0.142907 0.932000 11818867
-0.263252 -0.138319 0.937000 10685768
-0.264095 -0.133390 0.940000 6755880
-0.265500 -0.128700 0.945000 2233649
-0.238307 -0.257827 0.854000 10362969
-0.239981 -0.254724 0.860000 10295110
-0.239981 -0.249810 0.860000 10684718
-0.239981 -0.244895 0.860000 10949153
-0.240539 -0.240539 0.862000 5509911
-0.240539 -0.235613 0.862000 2888482
-0.241376 -0.231490 0.865000 2561058
-0.243050 -0.228119 0.871000 2692382
-0.244167 -0.224167 0.875000 2364966
-0.245004 -0.219918 0.878000 6555420
-0.246120 -0.215880 0.882000 12876654
-0.247515 -0.212035 0.887000 13931448
-0.247515 -0.206967 0.887000 12078182
-0.248073 -0.202353 0.889000 12408185
-0.249469 -0.198383 0.894000 12802685
-0.250027 -0.193707 0.896000 13066890
-0.250585 -0.189008 0.898000 12804486
-0.251980 -0.184900 0.903000 13330829
-0.252538 -0.180138 0.905000 12605059
-0.253375 -0.175547 0.908000 12672393
-0.254770 -0.171296 0.913000 11278160
-0.255887 -0.166807 0.917000 10821703
-0.256724 -0.162095 0.920000 13749744
-0.257282 -0.157179 0.922000 10891382
-0.258119 -0.152405 0.925000 11617878
-0.258677 -0.147437 0.927000 11747153
-0.260910 -0.143367 0.935000 11950198
-0.261468 -0.138319 0.937000 10557509
-0.262305 -0.133390 0.940000 8592934
-0.263700 -0.128700 0.945000 1969970
-0.237789 -0.259034 0.858000 11694483
-0.238343 -0.254724 0.860000 11161197
-0.238897 -0.250390 0.862000 10623535
-0.238897 -0.245465 0.862000 9312549
-0.240283 -0.241934 0.867000 4264491
-0.238897 -0.235613 0.862000 3022380
-0.240283 -0.232026 0.867000 2561571
-0.241391 -0.228119 0.871000 2627100
-0.242500 -0.224167 0.875000 2167588
-0.243331 -0.219918 0.878000 7930397
-0.244440 -0.215880 0.882000 12941450
-0.245826 -0.212035 0.887000 13865136
-0.245826 -0.206967 0.887000 11945821
-0.246380 -0.202353 0.889000 12276341
-0.247766 -0.198383 0.894000 12605300
-0.248320 -0.193707 0.896000 12870274
-0.248874 -0.189008 0.898000 12738945
-0.250260 -0.184900 0.903000 13065608
-0.250814 -0.180138 0.905000 12670850
-0.251646 -0.175547 0.908000 12672903
-0.253031 -0.171296 0.913000 11541837
-0.254140 -0.166807 0.917000 11273027
-0.254140 -0.161567 0.917000 13085429
-0.256357 -0.157690 0.925000 10289511
-0.256911 -0.152734 0.927000 11280213
-0.256911 -0.147437 0.927000 11555665
-0.259129 -0.143367 0.935000 11818104
-0.259683 -0.138319 0.937000 10617154
-0.260514 -0.133390 0.940000 9509668
-0.261069 -0.128291 0.942000 1902386
-0.236154 -0.259034 0.858000 12952213
-0.236705 -0.254724 0.860000 11960966
-0.237255 -0.250390 0.862000 10571881
-0.237255 -0.245465 0.862000 7673401
-0.238631 -0.241934 0.867000 3020590
-0.238631 -0.232026 0.867000 2627621
-0.239732 -0.228119 0.871000 2561310
-0.241659 -0.224935 0.878000 1906212
-0.242210 -0.220419 0.880000 9314086
-0.243310 -0.216370 0.884000 13007269
-0.244136 -0.212035 0.887000 13797277
-0.244687 -0.207433 0.889000 11813994
-0.245237 -0.202809 0.891000 12078194
-0.246063 -0.198383 0.894000 12408425
-0.246613 -0.193707 0.896000 12606847
-0.247164 -0.189008 0.898000 12672641
-0.248540 -0.184900 0.903000 12738443
-0.249090 -0.180138 0.905000 12736643
-0.249916 -0.175547 0.908000 12673159
-0.251292 -0.171296 0.913000 11801679
-0.252393 -0.166807 0.917000 11743831
-0.253219 -0.162095 0.920000 12486577
-0.254595 -0.157690 0.925000 9702756
-0.255146 -0.152734 0.927000 10947650
-0.255971 -0.147914 0.930000 11288690
-0.257348 -0.143367 0.935000 11684981
-0.257898 -0.138319 0.937000 10686514
-0.258724 -0.133390 0.940000 10424098
-0.259274 -0.128291 0.942000 1838124
-0.234520 -0.259034 0.858000 12885398
-0.235067 -0.254724 0.860000 12559520
-0.235067 -0.249810 0.860000 11895971
-0.235613 -0.245465 0.862000 7674190
-0.237527 -0.232561 0.869000 2693415
-0.239167 -0.229167 0.875000 2692384
-0.240533 -0.225448 0.880000 2101796
-0.241080 -0.220920 0.882000 10238256
-0.241627 -0.216370 0.884000 13407167
-0.242993 -0.212513 0.889000 12614283
-0.243540 -0.207900 0.891000 11749239
-0.243540 -0.202809 0.891000 11945326
-0.244360 -0.198383 0.894000 12143710
-0.244907 -0.193707 0.896000 12407420
-0.246273 -0.189639 0.901000 12539264
-0.247367 -0.185310 0.905000 12673166
-0.247367 -0.180138 0.905000 12803715
-0.248733 -0.175933 0.910000 12739976
-0.250100 -0.171671 0.915000 11934032
-0.250647 -0.166807 0.917000 12215147
-0.251467 -0.162095 0.920000 12541805
-0.252833 -0.157690 0.925000 11085664
-0.253380 -0.152734 0.927000 11471918
-0.254747 -0.148232 0.932000 13328787
-0.255567 -0.143367 0.935000 11682674
-0.256113 -0.138319 0.937000 10354978
-0.256933 -0.133390 0.940000 10357536
-0.258300 -0.128700 0.945000 2556711
-0.235871 -0.232561 0.869000 2824490
-0.238314 -0.229952 0.878000 2823966
-0.239400 -0.225960 0.882000 2233633
-0.239943 -0.221421 0.884000 11088161
-0.240757 -0.217104 0.887000 13864852
-0.241300 -0.212513 0.889000 11426179
-0.241843 -0.207900 0.891000 11684982
-0.242657 -0.203491 0.894000 11748967
-0.243200 -0.198827 0.896000 11881315
-0.243743 -0.194139 0.898000 12210297
-0.244557 -0.189639 0.901000 12406907
-0.245643 -0.185310 0.905000 12540290
-0.246457 -0.180735 0.908000 12935809
-0.247000 -0.175933 0.910000 12802682
-0.248357 -0.171671 0.915000 12065623
-0.248900 -0.166807 0.917000 12606325
-0.249714 -0.162095 0.920000 12673916
-0.251071 -0.157690 0.925000 12471156
-0.251614 -0.152734 0.927000 11997004
-0.252971 -0.148232 0.932000 15380156
-0.253786 -0.143367 0.935000 11759288
-0.254329 -0.138319 0.937000 9971321
-0.255686 -0.133674 0.942000 10289493
-0.256500 -0.128700 0.945000 3279662
-0.236642 -0.229952 0.878000 2890012
-0.238259 -0.226472 0.884000 2298654
-0.238259 -0.221421 0.884000 10952211
-0.239607 -0.217593 0.889000 12274537
-0.239607 -0.212513 0.889000 11620731
-0.240954 -0.208600 0.894000 11750516
-0.241493 -0.203947 0.896000 11816033
-0.242032 -0.199270 0.898000 11881576
-0.242841 -0.194788 0.901000 12078967
-0.243380 -0.190060 0.903000 12341877
-0.243919 -0.185310 0.905000 12340597
-0.244728 -0.180735 0.908000 12604542
-0.246075 -0.176513 0.913000 12539501
-0.247153 -0.172047 0.917000 12134750
-0.247153 -0.166807 0.917000 12675455
-0.247962 -0.162095 0.920000 12871563
-0.249310 -0.157690 0.925000 12608648
-0.249849 -0.152734 0.927000 12730473
-0.252005 -0.148710 0.935000 15592933
-0.252005 -0.143367 0.935000 14207742
-0.252544 -0.138319 0.937000 13013968
-0.253891 -0.133674 0.942000 12011658
-0.254700 -0.128700 0.945000 3933238
-0.236575 -0.226472 0.884000 2365471
-0.236575 -0.221421 0.884000 10818329
-0.237378 -0.217104 0.887000 10748225
-0.237913 -0.212513 0.889000 11817568
-0.239251 -0.208600 0.894000 11881591
-0.239787 -0.203947 0.896000 11881580
-0.240322 -0.199270 0.898000 11947101
-0.241125 -0.194788 0.901000 11947890
-0.242195 -0.190481 0.905000 12210292
-0.242195 -0.185310 0.905000 12078706
-0.242998 -0.180735 0.908000 12341112
-0.244871 -0.176900 0.915000 12206700
-0.245407 -0.172047 0.917000 12205928
-0.246210 -0.167352 0.920000 12672382
-0.246745 -0.162448 0.922000 13133457
-0.248083 -0.158031 0.927000 12738438
-0.248886 -0.153229 0.930000 13510755
-0.250224 -0.148710 0.935000 15722478
-0.250759 -0.143673 0.937000 16711166
-0.250759 -0.138319 0.937000 16044775
-0.252900 -0.134100 0.945000 13748676
-0.234891 -0.226472 0.884000 2495520
-0.235689 -0.222172 0.887000 10100768
-0.236220 -0.217593 0.889000 10748185
-0.236751 -0.212991 0.891000 11753286
-0.238080 -0.209067 0.896000 11882105
-0.238611 -0.204402 0.898000 11751543
-0.238611 -0.199270 0.898000 11681618
-0.239940 -0.195220 0.903000 11947118
-0.241269 -0.191112 0.908000 12079219
-0.241269 -0.185924 0.908000 12013166
-0.241800 -0.181133 0.910000 12144497
-0.243129 -0.176900 0.915000 11874923
-0.243660 -0.172047 0.917000 12210289
-0.244457 -0.167352 0.920000 12604541
-0.245786 -0.162976 0.925000 12936342
-0.246317 -0.158031 0.927000 12670596
-0.247114 -0.153229 0.930000 13524572
-0.248443 -0.148710 0.935000 15652599
-0.248974 -0.143673 0.937000 16449022
-0.249771 -0.138762 0.940000 14871038
-0.251100 -0.134100 0.945000 14801662
-0.233208 -0.221421 0.884000 9311256
-0.233999 -0.217104 0.887000 10748440
-0.235054 -0.212991 0.891000 11619156
-0.236373 -0.209067 0.896000 11881588
-0.236373 -0.203947 0.896000 11619181
-0.236901 -0.199270 0.898000 11414621
-0.238220 -0.195220 0.903000 11881835
-0.238748 -0.190481 0.905000 12014200
-0.239539 -0.185924 0.908000 11947115
-0.240858 -0.181730 0.913000 12013422
-0.241386 -0.176900 0.915000 11548265
-0.241913 -0.172047 0.917000 12211312
-0.242705 -0.167352 0.920000 12472955
-0.244024 -0.162976 0.925000 12804235
-0.244551 -0.158031 0.927000 12605559
-0.245870 -0.153558 0.932000 13585534
-0.246662 -0.148710 0.935000 15526648
-0.247190 -0.143673 0.937000 16186878
-0.247981 -0.138762 0.940000 13614046
-0.249300 -0.134100 0.945000 15902701
-0.231524 -0.221421 0.884000 6161425
-0.232833 -0.217593 0.889000 11015958
-0.234143 -0.213709 0.894000 11620195
-0.234667 -0.209067 0.896000 11751023
-0.235190 -0.204402 0.898000 11487076
-0.235976 -0.199936 0.901000 11551591
-0.236500 -0.195220 0.903000 11881577
-0.238333 -0.191533 0.910000 12013180
-0.238333 -0.186333 0.910000 11881576
-0.239119 -0.181730 0.913000 11881323
-0.239643 -0.176900 0.915000 11743848
-0.239643 -0.171671 0.915000 12079214
-0.240952 -0.167352 0.920000 12406905
-0.242262 -0.162976 0.925000 12606847
-0.242786 -0.158031 0.927000 12409962
-0.243571 -0.153229 0.930000 13860512
-0.244095 -0.148232 0.932000 15788282
-0.244881 -0.143367 0.935000 15397374
-0.245405 -0.138319 0.937000 12424126
-0.247500 -0.134100 0.945000 14201307
-0.231140 -0.217593 0.889000 11278360
-0.232440 -0.213709 0.894000 11621223
-0.233480 -0.209533 0.898000 11685495
-0.234260 -0.205085 0.901000 11351389
-0.234780 -0.200380 0.903000 11686005
-0.235300 -0.195652 0.905000 11882349
-0.236600 -0.191533 0.910000 12013173
-0.236600 -0.186333 0.910000 11816042
-0.237380 -0.181730 0.913000 11815014
-0.238420 -0.177287 0.917000 11877992
-0.239200 -0.172610 0.920000 12013166
-0.239720 -0.167716 0.922000 12341878
-0.240500 -0.162976 0.925000 12476030
-0.241020 -0.158031 0.927000 12202852
-0.242320 -0.153558 0.932000 14205118
-0.243100 -0.148710 0.935000 15985399
-0.243100 -0.143367 0.935000 14548222
-0.244400 -0.138762 0.940000 11177412
-0.245700 -0.134100 0.945000 12495587
-0.229447 -0.217593 0.889000 9181722
-0.231253 -0.214187 0.896000 11818604
-0.231770 -0.209533 0.898000 11686526
-0.233060 -0.205540 0.903000 11411286
-0.233576 -0.200824 0.905000 11752066
-0.234867 -0.196733 0.910000 11883121
-0.235641 -0.192165 0.913000 11816558
-0.235641 -0.186948 0.913000 11881579
-0.236157 -0.182129 0.915000 11615840
-0.237448 -0.177867 0.920000 11882600
-0.237964 -0.172985 0.922000 11816301
-0.238738 -0.168262 0.925000 12210547
-0.238738 -0.162976 0.925000 12210044
-0.239254 -0.158031 0.927000 11480926
-0.240545 -0.153558 0.932000 14662364
-0.241319 -0.148710 0.935000 16314613
-0.241319 -0.143367 0.935000 14212093
-0.243126 -0.139057 0.942000 11771339
-0.244674 -0.134526 0.948000 12957931
-0.230828 -0.215382 0.901000 12010826
-0.231340 -0.210700 0.903000 11687288
-0.231852 -0.205995 0.905000 11418720
-0.231852 -0.200824 0.905000 11818102
-0.233133 -0.196733 0.910000 11817837
-0.233902 -0.192165 0.913000 11684971
-0.234414 -0.187357 0.915000 11881328
-0.234414 -0.182129 0.915000 11355234
-0.235695 -0.177867 0.920000 11880811
-0.236208 -0.172985 0.922000 11621225
-0.237489 -0.168626 0.927000 12078190
-0.237489 -0.163329 0.927000 12009830
-0.238257 -0.158543 0.930000 10755173
-0.238770 -0.153558 0.932000 15137773
-0.239538 -0.148710 0.935000 16641782
-0.240050 -0.143673 0.937000 13812722
-0.241331 -0.139057 0.942000 12295875
-0.242869 -0.134526 0.948000 13424617
-0.229620 -0.215860 0.903000 10495272
-0.229620 -0.210700 0.903000 11553905
-0.230129 -0.205995 0.905000 11356778
-0.231400 -0.201933 0.910000 11353193
-0.232163 -0.197382 0.913000 11621736
-0.232671 -0.192586 0.915000 11549543
-0.232671 -0.187357 0.915000 12013428
-0.233180 -0.182527 0.917000 11550052
