# .PCD v.7 - Point Cloud Data file format
VERSION .7
FIELDS x y z rgb
SIZE 4 4 4 4
TYPE F F F I
COUNT 1 1 1 1
WIDTH 1295
HEIGHT 1
POINTS 1295
DATA ascii
-0.231787 -0.081844 0.656000 5642245
-0.232493 -0.078333 0.658000 6559015
-0.232493 -0.074573 0.658000 7283996
-0.232493 -0.070813 0.658000 7346967
-0.232493 -0.067053 0.658000 7086618
-0.231433 -0.063005 0.655000 7549499
-0.232140 -0.059443 0.657000 6498864
-0.234260 -0.056197 0.663000 6234398
-0.234260 -0.052409 0.663000 5910561
-0.234967 -0.048767 0.665000 5776410
-0.235673 -0.045102 0.667000 5515555
-0.236380 -0.041414 0.669000 4856874
-0.236380 -0.037591 0.669000 4329250
-0.235673 -0.033668 0.667000 3281173
-0.237087 -0.030035 0.671000 2233123
-0.237087 -0.026201 0.671000 1644077
-0.237087 -0.022367 0.671000 2430755
-0.237440 -0.018560 0.672000 1840410
-0.238853 -0.014808 0.676000 1838614
-0.239913 -0.010993 0.679000 1445907
-0.240267 -0.007124 0.680000 1379597
-0.241327 -0.003252 0.683000 1576201
-0.242740 0.000654 0.687000 1576461
-0.243800 0.004600 0.690000 1707274
-0.245213 0.008592 0.694000 1708813
-0.246627 0.012630 0.698000 1709071
-0.225266 -0.101950 0.641000 3485766
-0.228780 -0.099820 0.651000 2823738
-0.228429 -0.095952 0.650000 2759723
-0.227726 -0.091954 0.648000 4786479
-0.230186 -0.085462 0.655000 9127255
-0.230889 -0.081969 0.657000 8658498
-0.231240 -0.078333 0.658000 9046311
-0.231943 -0.074800 0.660000 9311519
-0.231240 -0.070813 0.658000 9245476
-0.231240 -0.067053 0.658000 8924963
-0.230186 -0.063005 0.655000 10913593
-0.232997 -0.059986 0.663000 9514809
-0.233700 -0.056367 0.665000 9577252
-0.233700 -0.052567 0.665000 9511464
-0.233700 -0.048767 0.665000 9512478
-0.235106 -0.045237 0.669000 9252648
-0.235106 -0.041414 0.669000 8265526
-0.235457 -0.037648 0.670000 6821924
-0.235809 -0.033870 0.671000 4326436
-0.236160 -0.030080 0.672000 1971499
-0.235809 -0.026201 0.671000 1313820
-0.235809 -0.022367 0.671000 2757653
-0.236160 -0.018560 0.672000 2235173
-0.237566 -0.014808 0.676000 1971741
-0.238971 -0.011010 0.680000 1643031
-0.238971 -0.007124 0.680000 1380370
-0.241080 -0.003267 0.686000 1641741
-0.242486 0.000657 0.690000 1379853
-0.242837 0.004607 0.691000 1838603
-0.243891 0.008592 0.694000 1643277
-0.245297 0.012630 0.698000 1708815
-0.224045 -0.101950 0.641000 6704488
-0.227540 -0.099820 0.651000 5518157
-0.227190 -0.095952 0.650000 5979190
-0.229987 -0.085853 0.658000 10580396
-0.230686 -0.082343 0.660000 9982846
-0.231035 -0.078690 0.661000 9576999
-0.231035 -0.074913 0.661000 9176865
-0.231035 -0.071136 0.661000 9571377
-0.231385 -0.067461 0.662000 10570284
-0.231734 -0.063774 0.663000 11640631
-0.232433 -0.060167 0.665000 9315905
-0.232783 -0.056451 0.666000 9377321
-0.232783 -0.052646 0.666000 9377072
-0.233132 -0.048913 0.667000 9378850
-0.234181 -0.045305 0.670000 9252653
-0.233831 -0.041414 0.669000 9057858
-0.234530 -0.037704 0.671000 8337959
-0.235579 -0.034021 0.674000 7287091
-0.235929 -0.030214 0.675000 5716276
-0.234880 -0.026240 0.672000 4202250
-0.234880 -0.022400 0.672000 1442822
-0.234880 -0.018560 0.672000 1512495
-0.236977 -0.014851 0.678000 2234917
-0.237676 -0.011010 0.680000 1971739
-0.238375 -0.007145 0.682000 1708311
-0.240123 -0.003271 0.687000 1642256
-0.241171 0.000657 0.690000 1379598
-0.241521 0.004607 0.691000 1773324
-0.242570 0.008592 0.694000 1643278
-0.243968 0.012630 0.698000 1709070
-0.226300 -0.099820 0.651000 8149876
-0.225952 -0.095952 0.650000 9195101
-0.230124 -0.086375 0.662000 12027822
-0.229776 -0.082468 0.661000 11305885
-0.229776 -0.078690 0.661000 10117206
-0.230124 -0.075027 0.662000 9048376
-0.230471 -0.071351 0.663000 9900088
-0.231167 -0.067767 0.665000 12156980
-0.231167 -0.063967 0.665000 12359197
-0.231514 -0.060257 0.666000 9054000
-0.231862 -0.056536 0.667000 9178916
-0.231514 -0.052646 0.666000 9179693
-0.232557 -0.049060 0.669000 9180708
-0.232905 -0.045305 0.670000 9250094
-0.232905 -0.041476 0.670000 9845564
-0.233600 -0.037760 0.672000 9842987
-0.234990 -0.034122 0.676000 10303793
-0.236033 -0.030393 0.679000 9454122
-0.233600 -0.026240 0.672000 7162913
-0.233600 -0.022400 0.672000 141109
-0.235686 -0.014851 0.678000 2496539
-0.236381 -0.011010 0.680000 2300450
-0.237076 -0.007145 0.682000 1971484
-0.239510 -0.003281 0.689000 1642516
-0.239857 0.000657 0.690000 1379856
-0.240205 0.004607 0.691000 1642511
-0.241248 0.008592 0.694000 1643023
-0.242638 0.012630 0.698000 1708818
-0.228863 -0.086375 0.662000 12096944
-0.228863 -0.082592 0.662000 11114684
-0.228863 -0.078810 0.662000 10253444
-0.229209 -0.075140 0.663000 8718928
-0.229900 -0.071567 0.665000 10044734
-0.230246 -0.067869 0.666000 12356413
-0.230246 -0.064063 0.666000 10770178
-0.230591 -0.060348 0.667000 8913950
-0.230591 -0.056536 0.667000 9048094
-0.230591 -0.052725 0.667000 9179434
-0.231283 -0.049060 0.669000 9180453
-0.231974 -0.045372 0.671000 9049646
-0.231974 -0.041538 0.671000 9445174
-0.232320 -0.037760 0.672000 9774126
-0.234740 -0.034273 0.679000 10305070
-0.235086 -0.030438 0.680000 10310176
-0.236469 -0.026709 0.684000 10122295
-0.232320 -0.022400 0.672000 6783077
-0.235086 -0.011010 0.680000 2169897
-0.236469 -0.007166 0.684000 2300449
-0.238543 -0.003286 0.690000 1840151
-0.238889 0.000658 0.691000 1510931
-0.238889 0.004607 0.691000 1577234
-0.240271 0.008605 0.695000 1642769
-0.241309 0.012630 0.698000 1905173
-0.227946 -0.086506 0.663000 12228520
-0.227602 -0.082592 0.662000 10845859
-0.227946 -0.078929 0.663000 10449270
-0.230352 -0.075933 0.670000 8396882
-0.229321 -0.071782 0.667000 10114629
-0.229321 -0.067970 0.667000 12551487
-0.229321 -0.064159 0.667000 9119019
-0.230009 -0.060529 0.669000 8792610
-0.230009 -0.056706 0.669000 8982821
-0.229321 -0.052725 0.667000 9114409
-0.230352 -0.049133 0.670000 9246749
-0.231040 -0.045440 0.672000 8786210
-0.230696 -0.041538 0.671000 8981032
-0.234478 -0.038322 0.682000 9641507
-0.234478 -0.034425 0.682000 10369063
-0.234478 -0.030528 0.682000 11166763
-0.235166 -0.026709 0.684000 13012041
-0.236197 -0.022900 0.687000 13410132
-0.233790 -0.011010 0.680000 2038297
-0.235166 -0.007166 0.684000 2563112
-0.237572 -0.003290 0.691000 2103068
-0.237572 0.000658 0.691000 1642775
-0.238260 0.004620 0.693000 1446163
-0.239635 0.008630 0.697000 1642768
-0.239979 0.012630 0.698000 2166803
-0.226683 -0.086506 0.663000 11700640
-0.228050 -0.083216 0.667000 10578315
-0.229076 -0.079762 0.670000 10107239
-0.229418 -0.076047 0.671000 9978709
-0.229418 -0.072212 0.671000 10709836
-0.229418 -0.068378 0.671000 11432514
-0.228734 -0.064351 0.669000 10442068
-0.229076 -0.060619 0.670000 10583078
-0.229418 -0.056875 0.671000 8916780
-0.229418 -0.053041 0.671000 9178921
-0.230444 -0.049427 0.674000 9309972
-0.231128 -0.045710 0.676000 9637398
-0.233179 -0.042219 0.682000 9908505
-0.233863 -0.038434 0.684000 9901847
-0.233521 -0.034475 0.683000 10302240
-0.233521 -0.030572 0.683000 11038519
-0.234547 -0.026787 0.686000 12881754
-0.234889 -0.022900 0.687000 13149764
-0.232495 -0.011010 0.680000 1641481
-0.234889 -0.007197 0.687000 2694704
-0.236256 -0.003290 0.691000 2235169
-0.236940 0.000660 0.693000 1840155
-0.236940 0.004620 0.693000 1642771
-0.237624 0.008605 0.695000 1642768
-0.228140 -0.083715 0.671000 10249605
-0.228140 -0.079881 0.671000 9771873
-0.228480 -0.076160 0.672000 11565658
-0.229160 -0.072535 0.674000 11304526
-0.228480 -0.068480 0.672000 10250812
-0.228480 -0.064640 0.672000 11831107
-0.228140 -0.060710 0.671000 12284969
-0.228140 -0.056875 0.671000 8850720
-0.229500 -0.053357 0.675000 9179945
-0.229500 -0.049500 0.675000 9375781
-0.231200 -0.045981 0.680000 10441033
-0.232560 -0.042343 0.684000 10773836
-0.233240 -0.038547 0.686000 10113085
-0.232220 -0.034475 0.683000 10235956
-0.233240 -0.030707 0.686000 10903357
-0.233580 -0.026826 0.687000 12683852
-0.233580 -0.022900 0.687000 12820289
-0.234940 -0.019085 0.691000 13938255
-0.234940 -0.015136 0.691000 10915951
-0.234940 -0.011188 0.691000 1245499
-0.234260 -0.007218 0.689000 2757928
-0.234940 -0.003290 0.691000 2432551
-0.235620 0.000660 0.693000 2038046
-0.235620 0.004620 0.693000 1839639
-0.237320 0.008642 0.698000 1577492
-0.226862 -0.083715 0.671000 11104384
-0.227876 -0.080238 0.674000 10907482
-0.227876 -0.076387 0.674000 11508064
-0.228214 -0.072643 0.675000 11104592
-0.228214 -0.068786 0.675000 11236150
-0.227200 -0.064640 0.672000 11831858
-0.226862 -0.060710 0.671000 10645036
-0.228552 -0.057299 0.676000 8852244
-0.229567 -0.053673 0.679000 9049898
-0.229567 -0.049793 0.679000 10770486
-0.230919 -0.046184 0.683000 11840123
-0.232271 -0.042529 0.687000 11700607
-0.232271 -0.038603 0.687000 11178084
-0.231933 -0.034627 0.686000 10770759
-0.231933 -0.030707 0.686000 10046531
-0.232271 -0.026826 0.687000 10969917
-0.233286 -0.023000 0.690000 12950079
-0.234300 -0.019140 0.693000 13740110
-0.234300 -0.015180 0.693000 12565616
-0.233624 -0.011188 0.691000 6250348
-0.233624 -0.007239 0.691000 1445152
-0.233624 -0.003290 0.691000 2564652
-0.234300 0.000660 0.693000 2301217
-0.234638 0.004627 0.694000 1971738
-0.235990 0.008642 0.698000 1708311
-0.226929 -0.080357 0.675000 12097908
-0.226592 -0.076387 0.674000 11436647
-0.226929 -0.072643 0.675000 10972240
-0.226929 -0.068786 0.675000 12221243
-0.228273 -0.065313 0.679000 11829810
-0.229282 -0.061705 0.682000 8993075
-0.229282 -0.057808 0.682000 8856864
-0.229618 -0.053990 0.683000 8924198
-0.229618 -0.050087 0.683000 12155458
-0.229954 -0.046251 0.684000 13208407
-0.231635 -0.042652 0.689000 12616274
-0.231635 -0.038715 0.689000 12216914
-0.230963 -0.034677 0.687000 11303245
-0.231635 -0.030841 0.689000 9130557
-0.231635 -0.026904 0.689000 9257776
-0.232980 -0.023100 0.693000 13071654
-0.233316 -0.019168 0.694000 13477983
-0.232980 -0.015180 0.693000 14138738
-0.233316 -0.011236 0.694000 11318651
-0.232308 -0.007239 0.691000 76595
-0.232308 -0.003290 0.691000 2762035
-0.232980 0.000660 0.693000 2563877
-0.233316 0.004627 0.694000 2169375
-0.235333 0.008667 0.700000 1839896
-0.225643 -0.080357 0.675000 11900557
-0.225309 -0.076387 0.674000 11631726
-0.225977 -0.072750 0.676000 11371344
-0.226646 -0.069091 0.678000 11897152
-0.227983 -0.065602 0.682000 10372402
-0.228317 -0.061795 0.683000 9175867
-0.228317 -0.057892 0.683000 8664107
-0.229320 -0.054227 0.686000 8932898
-0.229654 -0.050380 0.687000 10839886
-0.230657 -0.046657 0.690000 11166258
-0.230657 -0.042714 0.690000 10899492
-0.230657 -0.038771 0.690000 10955328
-0.230323 -0.034778 0.689000 10254675
-0.230657 -0.030886 0.690000 9067576
-0.231660 -0.027060 0.693000 9252386
-0.232329 -0.023167 0.695000 11357710
-0.232329 -0.019195 0.695000 13148015
-0.231994 -0.015202 0.694000 14204533
-0.232329 -0.011252 0.695000 13091722
-0.230991 -0.007239 0.691000 5264198
-0.230991 -0.003290 0.691000 2037817
-0.231660 0.000660 0.693000 2629418
-0.231994 0.004627 0.694000 2366500
-0.235003 0.008704 0.703000 2037273
-0.224357 -0.076500 0.675000 11833474
-0.224690 -0.072750 0.676000 11770226
-0.226019 -0.069295 0.680000 11500128
-0.226684 -0.065602 0.682000 8924217
-0.227349 -0.061886 0.684000 9311024
-0.228346 -0.058231 0.687000 8468276
-0.228346 -0.054306 0.687000 8936494
-0.229343 -0.050600 0.690000 9526340
-0.230340 -0.046860 0.693000 9119271
-0.229675 -0.042776 0.691000 9248304
-0.229675 -0.038828 0.691000 9716808
-0.229675 -0.034879 0.691000 9142639
-0.230340 -0.031020 0.693000 8999208
-0.230672 -0.027099 0.694000 9312843
-0.231005 -0.023167 0.695000 9582387
-0.231670 -0.019250 0.697000 12815436
-0.230672 -0.015202 0.694000 14266738
-0.231670 -0.011285 0.697000 14796699
-0.232667 -0.007333 0.700000 10392186
-0.230340 -0.003300 0.693000 1313053
-0.233996 0.008716 0.704000 2234910
-0.223071 -0.076500 0.675000 11901333
-0.223402 -0.072750 0.676000 11835795
-0.224724 -0.069295 0.680000 11500161
-0.225385 -0.065602 0.682000 9585471
-0.226707 -0.062067 0.686000 9314341
-0.227037 -0.058231 0.687000 8925244
-0.227698 -0.054464 0.689000 8938043
-0.228359 -0.050673 0.691000 8347449
-0.229350 -0.046928 0.694000 9176859
-0.229020 -0.042900 0.693000 8984124
-0.229020 -0.038940 0.693000 9205328
-0.228359 -0.034879 0.691000 8879498
-0.229681 -0.031110 0.695000 9643801
-0.230342 -0.027216 0.697000 11297140
-0.230342 -0.023233 0.697000 10176857
-0.230342 -0.019250 0.697000 11292713
-0.229681 -0.015224 0.695000 12751727
-0.230672 -0.011301 0.698000 14203307
-0.232325 -0.007365 0.703000 12636847
-0.232986 -0.003357 0.705000 3090689
-0.232986 0.008729 0.705000 2432291
-0.223429 -0.069295 0.680000 11505034
-0.224086 -0.065602 0.682000 10315880
-0.225400 -0.062067 0.686000 9256786
-0.226386 -0.058401 0.689000 9317192
-0.226714 -0.054543 0.690000 8864816
-0.227700 -0.050820 0.693000 7238728
-0.228357 -0.046995 0.695000 9253423
-0.228029 -0.042962 0.694000 8792391
-0.227700 -0.038940 0.693000 8681292
-0.229014 -0.035182 0.697000 8553564
-0.229014 -0.031199 0.697000 10303278
-0.229343 -0.027255 0.698000 13281428
-0.229343 -0.023267 0.698000 10710634
-0.229343 -0.019278 0.698000 9774647
-0.229343 -0.015290 0.698000 11228744
-0.230329 -0.011350 0.701000 13675168
-0.231314 -0.007375 0.704000 14861714
-0.231314 -0.003352 0.704000 4798787
-0.231643 0.004700 0.705000 2891561
-0.224093 -0.062067 0.686000 10382720
-0.226380 -0.058740 0.693000 9847379
-0.225727 -0.054622 0.691000 8593702
-0.226707 -0.050893 0.694000 6906710
-0.227033 -0.046995 0.695000 7624771
-0.227687 -0.043148 0.697000 7292241
-0.227033 -0.039052 0.695000 7239496
-0.228667 -0.035333 0.700000 8470061
-0.228667 -0.031333 0.700000 10571843
-0.228993 -0.027372 0.701000 13678004
-0.228993 -0.023367 0.701000 10977916
-0.228667 -0.019333 0.700000 10108485
-0.228667 -0.015333 0.700000 10694945
-0.229647 -0.011382 0.703000 13277076
-0.229973 -0.007375 0.704000 14532725
-0.230300 -0.003357 0.705000 6186628
-0.230300 0.004700 0.705000 2957356
-0.225060 -0.058740 0.693000 10318966
-0.224410 -0.054622 0.691000 8345943
-0.225385 -0.050893 0.694000 6577236
-0.226359 -0.047130 0.697000 5922884
-0.226684 -0.043210 0.698000 5725000
-0.227333 -0.039333 0.700000 5729098
-0.228308 -0.035485 0.703000 8326183
-0.227658 -0.031378 0.701000 10768964
-0.228308 -0.027450 0.703000 14137773
-0.228632 -0.023467 0.704000 11167317
-0.228308 -0.019416 0.703000 10373174
-0.228308 -0.015399 0.703000 10174261
-0.228632 -0.011398 0.704000 12879455
-0.228957 -0.007386 0.705000 14203236
-0.229931 -0.003371 0.708000 7641207
-0.228957 0.004700 0.705000 3088172
-0.223094 -0.054622 0.691000 10128521
-0.224386 -0.050967 0.695000 7892561
-0.225354 -0.047198 0.698000 5528132
-0.226000 -0.043333 0.700000 4935743
-0.226969 -0.039502 0.703000 5133901
-0.226969 -0.035485 0.703000 8459552
-0.227291 -0.031512 0.704000 10835268
-0.227614 -0.027529 0.705000 13150117
-0.228260 -0.023567 0.707000 10177071
-0.227614 -0.019471 0.705000 10239014
-0.227614 -0.015443 0.705000 10236489
-0.228260 -0.011447 0.707000 11887657
-0.228583 -0.007417 0.708000 14136148
-0.228583 -0.003371 0.708000 9479017
-0.223062 -0.050967 0.695000 9209720
-0.224988 -0.047401 0.701000 5071978
-0.225630 -0.043519 0.703000 4143956
-0.225950 -0.039558 0.704000 4542538
-0.225950 -0.035535 0.704000 8591923
-0.225950 -0.031512 0.704000 10830647
-0.226913 -0.027607 0.707000 12161139
-0.226913 -0.023567 0.707000 9185318
-0.226913 -0.019527 0.707000 10107438
-0.227234 -0.015509 0.708000 10302273
-0.227876 -0.011495 0.710000 10831666
-0.227876 -0.007438 0.710000 13999669
-0.228197 -0.003386 0.711000 11320694
-0.223652 -0.047401 0.701000 8619920
-0.224290 -0.043519 0.703000 7167848
-0.224929 -0.039614 0.705000 6642247
-0.224929 -0.035586 0.705000 8341573
-0.224929 -0.031557 0.705000 10034473
-0.225886 -0.027646 0.708000 10501184
-0.225886 -0.023600 0.708000 9375005
-0.225886 -0.019554 0.708000 9841205
-0.227481 -0.015618 0.713000 10171705
-0.226524 -0.011495 0.710000 10439227
-0.226843 -0.007449 0.711000 11501590
-0.227800 -0.003400 0.714000 10987394
-0.226524 0.004733 0.710000 3088172
-0.224537 -0.039783 0.708000 8746862
-0.224220 -0.035687 0.707000 8091996
-0.224537 -0.031691 0.708000 9197643
-0.225171 -0.027724 0.710000 8925008
-0.225171 -0.023667 0.710000 9513012
-0.226440 -0.019720 0.714000 9579056
-0.227074 -0.015684 0.716000 9974577
-0.226440 -0.011560 0.714000 10043949
-0.226440 -0.007480 0.714000 8927771
-0.228026 -0.003424 0.719000 10594642
-0.225171 0.004733 0.710000 3088428
-0.223189 -0.039783 0.708000 10326164
-0.224134 -0.035889 0.711000 9797747
-0.223819 -0.031781 0.710000 9532780
-0.228863 -0.028349 0.726000 9001568
-0.223819 -0.023667 0.710000 9263436
-0.226656 -0.019858 0.719000 9121066
-0.226656 -0.015750 0.719000 9579050
-0.226971 -0.011657 0.720000 9905695
-0.226656 -0.007532 0.719000 9240864
-0.226656 -0.003424 0.719000 8680226
-0.222780 -0.035889 0.711000 11505538
-0.222467 -0.031781 0.710000 9860986
-0.225287 -0.028075 0.719000 9136750
-0.224660 -0.019803 0.717000 8599101
-0.225287 -0.015750 0.719000 9118520
-0.225600 -0.011657 0.720000 9772854
-0.225287 -0.007532 0.719000 9520436
-0.225287 -0.003424 0.719000 6841618
-0.223917 -0.028075 0.719000 10384763
-0.224229 -0.024000 0.720000 9913944
-0.224229 -0.019886 0.720000 9917263
-0.224229 -0.015771 0.720000 9975367
-0.224851 -0.011690 0.722000 10110029
-0.224851 -0.007564 0.722000 10051657
-0.222548 -0.028075 0.719000 11700360
-0.222857 -0.024000 0.720000 10908536
-0.223476 -0.019941 0.722000 11236207
-0.223476 -0.015815 0.722000 10841690
-0.224405 -0.011738 0.725000 10448216
-0.223786 -0.007574 0.723000 10507839
-0.221178 -0.028075 0.719000 11768468
-0.222101 -0.019941 0.722000 11503759
-0.223024 -0.015881 0.725000 11111534
-0.223331 -0.011754 0.726000 9468258
-0.221643 -0.015881 0.725000 11308672
-0.221949 -0.011754 0.726000 8485230
-0.220262 -0.015881 0.725000 11507602
-0.220566 -0.011754 0.726000 9862521
-0.219183 -0.011754 0.726000 11245191
-0.278114 -0.132857 0.620000 8658979
-0.277827 -0.136840 0.622000 9380414
-0.276040 -0.132429 0.618000 7932968
-0.275593 -0.128689 0.617000 7019055
-0.275308 -0.136180 0.619000 9579591
-0.274418 -0.132214 0.617000 8261933
-0.273973 -0.128480 0.616000 7078169
-0.276786 -0.141071 0.625000 9578561
-0.274129 -0.136180 0.619000 9709889
-0.273243 -0.132214 0.617000 8589355
-0.272357 -0.128271 0.615000 7143961
-0.271914 -0.124554 0.614000 6226188
-0.275595 -0.141071 0.625000 9578045
-0.273390 -0.136400 0.620000 9710140
-0.272068 -0.132214 0.617000 8787753
-0.270745 -0.128063 0.614000 7209753
-0.270304 -0.124351 0.613000 6489110
-0.271186 -0.121243 0.615000 6881538
-0.274405 -0.141071 0.625000 9577785
-0.272210 -0.136400 0.620000 9709113
-0.270892 -0.132214 0.617000 8986669
-0.269136 -0.127854 0.613000 7210009
-0.268697 -0.124149 0.612000 6752021
-0.270014 -0.121243 0.615000 5637128
-0.271331 -0.118303 0.618000 5177618
-0.273651 -0.141297 0.626000 9511989
-0.271903 -0.136840 0.622000 9708343
-0.270154 -0.132429 0.618000 9118256
-0.267531 -0.127646 0.612000 7078938
-0.267531 -0.124149 0.612000 6751763
-0.268406 -0.121046 0.614000 5965583
-0.269717 -0.118111 0.617000 5571869
-0.273330 -0.145337 0.628000 9640253
-0.272459 -0.141297 0.626000 9446458
-0.270718 -0.136840 0.622000 9643833
-0.269412 -0.132643 0.619000 9250868
-0.266366 -0.127646 0.612000 6947611
-0.266366 -0.124149 0.612000 6751506
-0.267236 -0.121046 0.614000 6227725
-0.268107 -0.117920 0.616000 5966101
-0.268107 -0.114400 0.616000 5637642
-0.272133 -0.145337 0.628000 9576518
-0.270833 -0.141071 0.625000 9381438
-0.268667 -0.136400 0.620000 9644603
-0.266500 -0.131786 0.615000 9315639
-0.264767 -0.127437 0.611000 7012892
-0.264767 -0.123946 0.611000 6751249
-0.265200 -0.120651 0.612000 6293003
-0.266067 -0.117537 0.614000 5966092
-0.266500 -0.114214 0.615000 5703443
-0.270833 -0.108929 0.625000 7012611
-0.273957 -0.150586 0.635000 9830740
-0.270937 -0.145337 0.628000 9511747
-0.269643 -0.141071 0.625000 9316163
-0.267486 -0.136400 0.620000 9578809
-0.265329 -0.131786 0.615000 9447747
-0.262740 -0.127020 0.609000 7078430
-0.262309 -0.123337 0.608000 6750735
-0.264034 -0.120651 0.612000 6292747
-0.264897 -0.117537 0.614000 5900043
-0.266623 -0.114771 0.618000 5704207
-0.269211 -0.112320 0.624000 5966099
-0.269643 -0.108929 0.625000 5506572
-0.272748 -0.150586 0.635000 9769793
-0.271459 -0.146263 0.632000 9512513
-0.268882 -0.141297 0.626000 9447495
-0.266305 -0.136400 0.620000 9578296
-0.263728 -0.131571 0.614000 9380430
-0.261580 -0.127020 0.609000 7209760
-0.261150 -0.123337 0.608000 6685197
-0.262439 -0.120454 0.611000 6292235
-0.263728 -0.117537 0.614000 5899786
-0.265446 -0.114771 0.618000 5769739
-0.268023 -0.112320 0.624000 5966091
-0.268023 -0.108754 0.624000 5638677
-0.268452 -0.105357 0.625000 5310730
-0.271538 -0.150586 0.635000 9702969
-0.270255 -0.146263 0.632000 9512253
-0.268117 -0.141523 0.627000 9512770
-0.265124 -0.136400 0.620000 9512504
-0.262558 -0.131571 0.614000 9379653
-0.260420 -0.127020 0.609000 7275039
-0.259992 -0.123337 0.608000 6619402
-0.261275 -0.120454 0.611000 6292235
-0.262558 -0.117537 0.614000 5899275
-0.262558 -0.114029 0.614000 5834506
-0.266407 -0.112140 0.623000 5966090
-0.266834 -0.108754 0.624000 5769745
-0.267262 -0.105357 0.625000 5771017
-0.269903 -0.150349 0.634000 9638704
-0.269051 -0.146263 0.632000 9512505
-0.266923 -0.141523 0.627000 9643580
-0.263091 -0.135960 0.618000 9445943
-0.260963 -0.131357 0.613000 9510204
-0.258834 -0.126811 0.608000 7274782
-0.258409 -0.123134 0.607000 6750471
-0.260111 -0.120454 0.611000 6292234
-0.261389 -0.117537 0.614000 5899276
-0.260963 -0.113843 0.613000 5833992
-0.265220 -0.112140 0.623000 5900041
-0.265646 -0.108754 0.624000 5834253
-0.266071 -0.105357 0.625000 5705480
-0.266071 -0.101786 0.625000 2100242
-0.269119 -0.150586 0.635000 9639740
-0.266576 -0.145569 0.629000 9446199
-0.265305 -0.141297 0.626000 9774137
-0.261914 -0.135960 0.618000 9380150
-0.260219 -0.131571 0.614000 9641019
-0.258100 -0.127020 0.609000 7209243
-0.257252 -0.123134 0.607000 6881542
-0.258100 -0.120060 0.609000 6291978
-0.259371 -0.117154 0.612000 5899020
-0.260219 -0.114029 0.614000 5768200
-0.264033 -0.112140 0.623000 5833992
-0.264033 -0.108580 0.623000 5899788
-0.264457 -0.105189 0.624000 5573641
-0.264881 -0.101786 0.625000 3542287
-0.267488 -0.150349 0.634000 9574728
-0.265378 -0.145569 0.629000 9510966
-0.264112 -0.141297 0.626000 9643318
-0.261159 -0.136180 0.619000 9445940
-0.259050 -0.131571 0.614000 9575225
-0.256940 -0.127020 0.609000 7209241
-0.255674 -0.122931 0.606000 6881541
-0.257784 -0.120454 0.611000 6291978
-0.258628 -0.117346 0.613000 5767948
-0.259471 -0.114214 0.615000 5768201
-0.262425 -0.111960 0.622000 5768199
-0.262847 -0.108580 0.623000 5768202
-0.263269 -0.105189 0.624000 5573130
-0.264112 -0.101949 0.626000 4197901
-0.267120 -0.150823 0.636000 9510213
-0.265440 -0.146263 0.632000 9511223
-0.262920 -0.141297 0.626000 9512248
-0.259980 -0.136180 0.619000 9511478
-0.257880 -0.131571 0.614000 9509429
-0.255780 -0.127020 0.609000 7143706
-0.254520 -0.122931 0.606000 6881540
-0.256620 -0.120454 0.611000 6226697
-0.257880 -0.117537 0.614000 5702410
-0.258720 -0.114400 0.616000 5702409
-0.260400 -0.111600 0.620000 5702412
-0.261240 -0.108406 0.622000 5637130
-0.262080 -0.105189 0.624000 5572362
-0.262920 -0.101949 0.626000 4852491
-0.265860 -0.092237 0.633000 1378834
-0.265490 -0.150586 0.635000 9510465
-0.265072 -0.146726 0.634000 9445945
-0.261310 -0.141071 0.625000 9512250
-0.258801 -0.136180 0.619000 9577017
-0.256710 -0.131571 0.614000 9641776
-0.254620 -0.127020 0.609000 7209242
-0.253366 -0.122931 0.606000 7012610
-0.255456 -0.120454 0.611000 6292232
-0.256292 -0.117346 0.613000 5833736
-0.257129 -0.114214 0.615000 5702409
-0.258801 -0.111420 0.619000 5637136
-0.260055 -0.108406 0.622000 5571594
-0.260891 -0.105189 0.624000 5506570
-0.261310 -0.101786 0.625000 5049098
-0.262146 -0.098529 0.627000 919825
-0.264236 -0.095703 0.632000 1182984
-0.264654 -0.092237 0.633000 1182215
-0.264654 -0.088620 0.633000 788743
-0.263449 -0.150111 0.633000 9511745
-0.263449 -0.146494 0.633000 9380409
-0.260951 -0.141523 0.627000 9513018
-0.257622 -0.136180 0.619000 9577019
-0.255541 -0.131571 0.614000 9776189
-0.253460 -0.127020 0.609000 7274777
-0.252628 -0.123134 0.607000 7078149
-0.254292 -0.120454 0.611000 6292234
-0.255125 -0.117346 0.613000 5964809
-0.256790 -0.114586 0.617000 5702409
-0.257622 -0.111420 0.619000 5637387
-0.258038 -0.108057 0.620000 5506056
-0.259287 -0.105020 0.623000 5506058
-0.260119 -0.101786 0.625000 5179401
-0.261368 -0.098686 0.628000 854032
-0.263032 -0.095703 0.632000 1182473
-0.263449 -0.092237 0.633000 1051657
-0.263449 -0.088620 0.633000 1116681
-0.262243 -0.150111 0.633000 9577025
-0.261829 -0.146263 0.632000 9380152
-0.259757 -0.141523 0.627000 9447226
-0.256443 -0.136180 0.619000 9576766
-0.254786 -0.131786 0.615000 9707593
-0.252300 -0.127020 0.609000 7471385
-0.251471 -0.123134 0.607000 7143688
-0.253129 -0.120454 0.611000 6423052
-0.253957 -0.117346 0.613000 6030089
-0.255614 -0.114586 0.617000 5833226
-0.256443 -0.111420 0.619000 5637125
-0.256443 -0.107883 0.619000 5637125
-0.257686 -0.104851 0.622000 5506314
-0.259343 -0.101949 0.626000 5245705
-0.260171 -0.098686 0.628000 788239
-0.261829 -0.095703 0.632000 1050891
-0.262243 -0.092237 0.633000 985611
-0.263486 -0.089040 0.636000 1051147
-0.263486 -0.085406 0.636000 1247499
-0.261037 -0.150111 0.633000 9578311
-0.260625 -0.146263 0.632000 9379641
-0.258150 -0.141297 0.626000 9447227
-0.255264 -0.136180 0.619000 9512253
-0.253614 -0.131786 0.615000 9706049
-0.251965 -0.127437 0.611000 7669012
-0.251140 -0.123540 0.609000 7209224
-0.251965 -0.120454 0.611000 6554123
-0.253202 -0.117537 0.614000 6160906
-0.254439 -0.114586 0.617000 5899017
-0.255264 -0.111420 0.619000 5702403
-0.255264 -0.107883 0.619000 5702661
-0.256501 -0.104851 0.622000 5506058
-0.258150 -0.101949 0.626000 5244681
-0.258975 -0.098686 0.628000 787981
-0.260625 -0.095703 0.632000 854026
-0.261037 -0.092237 0.633000 985099
-0.262274 -0.089040 0.636000 985355
-0.261862 -0.085271 0.635000 1050891
-0.260242 -0.150349 0.634000 9577805
-0.259421 -0.146263 0.632000 9444667
-0.257369 -0.141523 0.627000 9512508
-0.254085 -0.136180 0.619000 9577021
-0.252443 -0.131786 0.615000 9641017
-0.250801 -0.127437 0.611000 7667984
-0.249980 -0.123540 0.609000 7340295
-0.250801 -0.120454 0.611000 6750986
-0.252032 -0.117537 0.614000 6291978
-0.253264 -0.114586 0.617000 6030088
-0.254085 -0.111420 0.619000 5833473
-0.254495 -0.108057 0.620000 5702661
-0.255727 -0.105020 0.623000 5440778
-0.256958 -0.101949 0.626000 5244681
-0.257779 -0.098686 0.628000 722442
-0.259010 -0.095551 0.631000 853770
-0.259831 -0.092237 0.633000 919562
-0.260652 -0.088900 0.635000 919562
-0.261063 -0.085406 0.636000 919819
-0.259034 -0.150349 0.634000 9643334
-0.258217 -0.146263 0.632000 9510968
-0.256174 -0.141523 0.627000 9577786
-0.252906 -0.136180 0.619000 9643328
-0.251271 -0.131786 0.615000 9575988
-0.249637 -0.127437 0.611000 7668244
-0.248820 -0.123540 0.609000 7536904
-0.250046 -0.120651 0.612000 6881803
-0.250863 -0.117537 0.614000 6423049
-0.252089 -0.114586 0.617000 6161161
-0.252906 -0.111420 0.619000 5964293
-0.254131 -0.108406 0.622000 5702663
-0.254540 -0.105020 0.623000 5440521
-0.255766 -0.101949 0.626000 5244425
-0.256583 -0.098686 0.628000 722954
-0.257809 -0.095551 0.631000 854026
-0.258626 -0.092237 0.633000 919562
-0.259034 -0.088760 0.634000 853771
-0.259443 -0.085271 0.635000 854283
-0.259443 -0.081643 0.635000 985352
-0.258233 -0.150586 0.635000 9643839
-0.257420 -0.146494 0.633000 9577013
-0.255387 -0.141749 0.628000 9578040
-0.251727 -0.136180 0.619000 9709380
-0.250100 -0.131786 0.615000 9575471
-0.247660 -0.127020 0.609000 7864601
-0.247660 -0.123540 0.609000 7602441
-0.248880 -0.120651 0.612000 6947341
-0.249693 -0.117537 0.614000 6554376
-0.250913 -0.114586 0.617000 6292490
-0.251727 -0.111420 0.619000 6161161
-0.252947 -0.108406 0.622000 5833736
-0.253353 -0.105020 0.623000 5637127
-0.254980 -0.102111 0.627000 5376009
-0.255387 -0.098686 0.628000 657162
-0.255387 -0.095097 0.628000 854026
-0.257013 -0.092091 0.632000 853769
-0.258233 -0.088900 0.635000 853516
-0.258640 -0.085406 0.636000 854026
-0.258640 -0.081771 0.636000 919815
-0.259453 -0.078383 0.638000 985354
-0.261080 -0.071537 0.642000 919568
-0.257429 -0.150823 0.636000 9710143
-0.255810 -0.146263 0.632000 9577015
-0.254190 -0.141749 0.628000 9643833
-0.250548 -0.136180 0.619000 9709120
-0.248929 -0.131786 0.615000 9577774
-0.246500 -0.127020 0.609000 7995670
-0.247310 -0.123946 0.611000 7667978
-0.247714 -0.120651 0.612000 6947340
-0.248524 -0.117537 0.614000 6685449
-0.249333 -0.114400 0.616000 6358025
-0.250143 -0.111240 0.618000 6292234
-0.251762 -0.108406 0.622000 5964808
-0.252167 -0.105020 0.623000 5768200
-0.253786 -0.102111 0.627000 5441033
-0.254190 -0.098686 0.628000 657418
-0.254595 -0.095249 0.629000 853769
-0.256214 -0.092237 0.633000 853769
-0.257024 -0.088900 0.635000 853769
-0.257429 -0.085406 0.636000 853770
-0.257429 -0.081771 0.636000 853768
-0.258643 -0.078506 0.639000 854023
-0.259452 -0.075089 0.641000 1116425
-0.259857 -0.071537 0.642000 1116684
-0.256217 -0.150823 0.636000 9643838
-0.254606 -0.146263 0.632000 9576760
-0.252591 -0.141523 0.627000 9643834
-0.249369 -0.136180 0.619000 9709629
-0.247354 -0.131571 0.614000 9377836
-0.245340 -0.127020 0.609000 7995667
-0.246146 -0.123946 0.611000 7733514
-0.246549 -0.120651 0.612000 6947083
-0.247354 -0.117537 0.614000 6685449
-0.248160 -0.114400 0.616000 6489095
-0.248966 -0.111240 0.618000 6357770
-0.250577 -0.108406 0.622000 6161160
-0.250980 -0.105020 0.623000 5964809
-0.252591 -0.102111 0.627000 5506826
-0.252994 -0.098686 0.628000 591625
-0.252994 -0.095097 0.628000 853769
-0.254606 -0.092091 0.632000 854025
-0.255814 -0.088900 0.635000 853767
-0.255814 -0.085271 0.635000 853769
-0.255814 -0.081643 0.635000 853769
-0.257426 -0.078506 0.639000 854020
-0.258231 -0.075089 0.641000 985096
-0.258634 -0.071537 0.642000 1050887
-0.259440 -0.068080 0.644000 1378572
-0.255006 -0.150823 0.636000 9643839
-0.253402 -0.146263 0.632000 9577785
-0.251397 -0.141523 0.627000 9644092
-0.248590 -0.136400 0.620000 9643070
-0.245383 -0.131143 0.612000 9181738
-0.244180 -0.127020 0.609000 7995666
-0.244982 -0.123946 0.611000 7799050
-0.245784 -0.120849 0.613000 6881802
-0.246586 -0.117729 0.615000 6750985
-0.247789 -0.114771 0.618000 6554631
-0.249392 -0.111960 0.622000 6488587
-0.249392 -0.108406 0.622000 6292233
-0.250194 -0.105189 0.624000 6095626
-0.251397 -0.102111 0.627000 5506569
-0.251798 -0.098686 0.628000 591878
-0.251798 -0.095097 0.628000 853769
-0.253402 -0.092091 0.632000 919561
-0.254605 -0.088900 0.635000 853768
-0.254605 -0.085271 0.635000 853769
-0.254605 -0.081643 0.635000 788233
-0.256209 -0.078506 0.639000 854023
-0.257010 -0.075089 0.641000 853768
-0.257411 -0.071537 0.642000 984840
-0.258614 -0.068186 0.645000 985355
-0.254991 -0.155186 0.639000 9243735
-0.253794 -0.150823 0.636000 9709375
-0.252198 -0.146263 0.632000 9643322
-0.249804 -0.141297 0.626000 9709886
-0.247410 -0.136400 0.620000 9774399
-0.244217 -0.131143 0.612000 9245223
-0.243020 -0.127020 0.609000 8061201
-0.243818 -0.123946 0.611000 7799049
-0.244616 -0.120849 0.613000 6947338
-0.245414 -0.117729 0.615000 6816265
-0.247010 -0.114957 0.619000 6619912
-0.248208 -0.111960 0.622000 6488843
-0.248607 -0.108580 0.623000 6423307
-0.249006 -0.105189 0.624000 6161418
-0.250203 -0.102111 0.627000 5376264
-0.250602 -0.098686 0.628000 657155
-0.250203 -0.094946 0.627000 853513
-0.252597 -0.092237 0.633000 853769
-0.253395 -0.088900 0.635000 853769
-0.253395 -0.085271 0.635000 788233
-0.253794 -0.081771 0.636000 787721
-0.254991 -0.078506 0.639000 853769
-0.255790 -0.075089 0.641000 853513
-0.256189 -0.071537 0.642000 853768
-0.257386 -0.068186 0.645000 985099
-0.257785 -0.064600 0.646000 1378567
-0.253377 -0.154943 0.638000 9444183
-0.252583 -0.150823 0.636000 9840454
-0.251391 -0.146494 0.633000 9709113
-0.249406 -0.141749 0.628000 9775679
-0.245831 -0.136180 0.619000 9904956
-0.243051 -0.131143 0.612000 9244969
-0.241860 -0.127020 0.609000 8126738
-0.243051 -0.124149 0.612000 7864589
-0.243846 -0.121046 0.614000 7012874
-0.244243 -0.117729 0.615000 6816266
-0.245831 -0.114957 0.619000 6619915
-0.247023 -0.111960 0.622000 6488844
-0.247817 -0.108754 0.624000 6488844
-0.248214 -0.105357 0.625000 6161161
-0.249406 -0.102274 0.628000 5179403
-0.249803 -0.098843 0.629000 722695
-0.249406 -0.095097 0.628000 788234
-0.251391 -0.092237 0.633000 788234
-0.252186 -0.088900 0.635000 788233
-0.252186 -0.085271 0.635000 788233
-0.252583 -0.081771 0.636000 787979
-0.253774 -0.078506 0.639000 788233
-0.254569 -0.075089 0.641000 788233
-0.254966 -0.071537 0.642000 787976
-0.255760 -0.068080 0.644000 919561
-0.256554 -0.064600 0.646000 1116677
-0.252162 -0.154943 0.638000 9243222
-0.251371 -0.150823 0.636000 9774924
-0.249790 -0.146263 0.632000 9709367
-0.248210 -0.141749 0.628000 9775679
-0.244652 -0.136180 0.619000 10101306
-0.241886 -0.131143 0.612000 9440043
-0.241490 -0.127437 0.611000 8388883
-0.242676 -0.124554 0.614000 7995665
-0.243071 -0.121243 0.615000 7209483
-0.243467 -0.117920 0.616000 6947595
-0.245048 -0.115143 0.620000 6685454
-0.246233 -0.112140 0.623000 6554381
-0.246629 -0.108754 0.624000 6489101
-0.247419 -0.105526 0.626000 6292743
-0.248210 -0.102274 0.628000 4196879
-0.248210 -0.098686 0.628000 919306
-0.248605 -0.095249 0.629000 919562
-0.250186 -0.092237 0.633000 854026
-0.250976 -0.088900 0.635000 722698
-0.250976 -0.085271 0.635000 788233
-0.251371 -0.081771 0.636000 853774
-0.252557 -0.078506 0.639000 788233
-0.253348 -0.075089 0.641000 853769
-0.253743 -0.071537 0.642000 919304
-0.254929 -0.068186 0.645000 919559
-0.255324 -0.064600 0.646000 985346
-0.250947 -0.154943 0.638000 9051480
-0.250160 -0.150823 0.636000 9709891
-0.248587 -0.146263 0.632000 9709625
-0.247013 -0.141749 0.628000 9775682
-0.243080 -0.135960 0.618000 10231869
-0.241900 -0.131786 0.615000 9634862
-0.241113 -0.127854 0.613000 8585493
-0.241900 -0.124757 0.615000 8126736
-0.241900 -0.121243 0.615000 7406093
-0.242687 -0.118111 0.617000 7078667
-0.243867 -0.115143 0.620000 6750990
-0.245047 -0.112140 0.623000 6619662
-0.245440 -0.108754 0.624000 6423564
-0.246620 -0.105694 0.627000 6423559
-0.247407 -0.102437 0.629000 3148048
-0.248193 -0.099157 0.631000 1180941
-0.248193 -0.095551 0.631000 985100
-0.248980 -0.092237 0.633000 854026
-0.249373 -0.088760 0.634000 657674
-0.249767 -0.085271 0.635000 853769
-0.250947 -0.082029 0.638000 853771
-0.251340 -0.078506 0.639000 853769
-0.251733 -0.074971 0.640000 853769
-0.252520 -0.071537 0.642000 1050377
-0.253700 -0.068186 0.645000 919814
-0.254093 -0.064600 0.646000 919558
-0.254093 -0.060909 0.646000 919560
-0.248949 -0.150823 0.636000 9774906
-0.246991 -0.146031 0.631000 9905978
-0.244643 -0.141071 0.625000 9840709
-0.242294 -0.136180 0.619000 10296896
-0.240729 -0.131786 0.615000 9635632
-0.240337 -0.128063 0.614000 8847640
-0.240729 -0.124757 0.615000 8258062
-0.241120 -0.121440 0.616000 7734031
-0.241903 -0.118303 0.618000 7406347
-0.242686 -0.115143 0.620000 7013133
-0.243860 -0.112140 0.623000 6750734
-0.244251 -0.108754 0.624000 6489100
-0.245426 -0.105694 0.627000 6423815
-0.246209 -0.102437 0.629000 2558993
-0.246991 -0.099157 0.631000 985103
-0.246991 -0.095551 0.631000 985358
-0.247774 -0.092237 0.633000 854026
-0.248166 -0.088760 0.634000 789002
-0.248557 -0.085271 0.635000 853769
-0.249731 -0.082029 0.638000 853769
-0.249731 -0.078383 0.638000 788232
-0.250514 -0.074971 0.640000 853769
-0.251297 -0.071537 0.642000 919305
-0.252080 -0.068080 0.644000 919813
-0.252471 -0.064500 0.645000 919561
-0.252863 -0.060909 0.646000 919303
-0.253254 -0.057306 0.647000 1050890
-0.254820 -0.053940 0.651000 1443851
-0.247348 -0.150586 0.635000 9774648
-0.246179 -0.146263 0.632000 10036281
-0.243063 -0.140846 0.624000 9971262
-0.240726 -0.135960 0.618000 10295868
-0.239557 -0.131786 0.615000 9569069
-0.239168 -0.128063 0.614000 9044502
-0.239947 -0.124960 0.616000 8454929
-0.240336 -0.121637 0.617000 7996688
-0.240726 -0.118303 0.618000 7734031
-0.242284 -0.115514 0.622000 7209742
-0.243063 -0.112320 0.624000 6947344
-0.243452 -0.108929 0.625000 6554636
-0.243842 -0.105526 0.626000 6488838
-0.244621 -0.102274 0.628000 1902608
-0.245790 -0.099157 0.631000 788751
-0.246179 -0.095703 0.632000 919820
-0.246569 -0.092237 0.633000 919818
-0.246958 -0.088760 0.634000 919816
-0.247348 -0.085271 0.635000 853770
-0.248516 -0.082029 0.638000 853769
-0.248906 -0.078506 0.639000 787977
-0.249685 -0.075089 0.641000 788233
-0.249685 -0.071426 0.641000 853257
-0.250853 -0.068080 0.644000 919814
-0.251632 -0.064600 0.646000 919305
-0.251632 -0.060909 0.646000 919815
-0.253190 -0.057571 0.650000 919561
-0.253970 -0.054023 0.652000 1116426
-0.246138 -0.150586 0.635000 9708342
-0.244975 -0.146263 0.632000 9904439
-0.243425 -0.141749 0.628000 10035766
-0.239161 -0.135740 0.617000 10559031
-0.238386 -0.131786 0.615000 9569578
-0.238386 -0.128271 0.615000 9175573
-0.239161 -0.125163 0.617000 8586004
-0.239549 -0.121834 0.618000 8193553
-0.239936 -0.118494 0.619000 7931154
-0.241487 -0.115700 0.623000 7602959
-0.241874 -0.112320 0.624000 7209745
-0.242262 -0.108929 0.625000 6882060
-0.243037 -0.105694 0.627000 6489604
-0.244588 -0.102763 0.631000 1509648
-0.244975 -0.099314 0.632000 854031
-0.244975 -0.095703 0.632000 919818
-0.245363 -0.092237 0.633000 919562
-0.245750 -0.088760 0.634000 919559
-0.246526 -0.085406 0.636000 853770
-0.247301 -0.082029 0.638000 853769
-0.247689 -0.078506 0.639000 788233
-0.248076 -0.074971 0.640000 853769
-0.248851 -0.071537 0.642000 853769
-0.249627 -0.068080 0.644000 919816
-0.250402 -0.064600 0.646000 919561
-0.250402 -0.060909 0.646000 789000
-0.251952 -0.057571 0.650000 985096
-0.252728 -0.054023 0.652000 1050890
-0.253890 -0.050529 0.655000 1181706
-0.253890 -0.046786 0.655000 1378571
-0.244929 -0.150586 0.635000 9707830
-0.243771 -0.146263 0.632000 9772855
-0.242614 -0.141974 0.629000 10166835
-0.237600 -0.135520 0.616000 10819893
-0.237214 -0.131786 0.615000 9568802
-0.237600 -0.128480 0.616000 9241366
-0.237986 -0.125163 0.617000 8717079
-0.238757 -0.122031 0.619000 8324370
-0.238757 -0.118494 0.619000 8193301
-0.240300 -0.115700 0.623000 7930897
-0.240686 -0.112320 0.624000 7472145
-0.241071 -0.108929 0.625000 7209740
-0.241843 -0.105694 0.627000 6489867
-0.243386 -0.102763 0.631000 1116432
-0.243771 -0.099314 0.632000 853775
-0.244157 -0.095854 0.633000 919820
-0.244157 -0.092237 0.633000 919562
-0.244929 -0.088900 0.635000 919561
-0.245314 -0.085406 0.636000 788490
-0.246086 -0.082029 0.638000 853771
-0.246086 -0.078383 0.638000 853769
-0.247243 -0.075089 0.641000 853768
-0.247629 -0.071537 0.642000 853769
-0.248400 -0.068080 0.644000 919819
-0.249171 -0.064600 0.646000 919305
-0.249557 -0.061003 0.647000 657673
-0.250714 -0.057571 0.650000 984584
-0.251486 -0.054023 0.652000 919816
-0.252643 -0.050529 0.655000 919815
-0.253029 -0.046857 0.656000 1116425
-0.252643 -0.043043 0.655000 1641497
-0.243719 -0.150586 0.635000 9575734
-0.242568 -0.146263 0.632000 9837366
-0.241416 -0.141974 0.629000 10230319
-0.236427 -0.135520 0.616000 10492722
-0.236043 -0.131786 0.615000 9568793
-0.236427 -0.128480 0.616000 9306904
-0.237194 -0.125366 0.618000 8717082
-0.237962 -0.122229 0.620000 8389651
-0.237962 -0.118686 0.620000 8324376
-0.239881 -0.116071 0.625000 8127763
-0.240265 -0.112680 0.626000 7800081
-0.240265 -0.109103 0.626000 7537677
-0.241032 -0.105863 0.628000 6555665
-0.241416 -0.102437 0.629000 919825
-0.242568 -0.099314 0.632000 919823
-0.242951 -0.095854 0.633000 853773
-0.242951 -0.092237 0.633000 854026
-0.243719 -0.088900 0.635000 919562
-0.244103 -0.085406 0.636000 854282
-0.244870 -0.082029 0.638000 722444
-0.244870 -0.078383 0.638000 853769
-0.246022 -0.075089 0.641000 853767
-0.246406 -0.071537 0.642000 984841
-0.247173 -0.068080 0.644000 919566
-0.247941 -0.064600 0.646000 919561
-0.248325 -0.061003 0.647000 657930
-0.249476 -0.057571 0.650000 919048
-0.249860 -0.053940 0.651000 919559
-0.251395 -0.050529 0.655000 985348
-0.251779 -0.046857 0.656000 1050631
-0.251779 -0.043109 0.656000 1313291
-0.242510 -0.150586 0.635000 9509437
-0.241364 -0.146263 0.632000 9837364
-0.236399 -0.139717 0.619000 10360116
-0.235253 -0.135520 0.616000 10163002
-0.234871 -0.131786 0.615000 9568797
-0.235253 -0.128480 0.616000 9307162
-0.236017 -0.125366 0.618000 8717081
-0.237545 -0.122623 0.622000 8389655
-0.237927 -0.119260 0.623000 8389911
-0.239072 -0.116257 0.626000 8259091
-0.239454 -0.112860 0.627000 8062738
-0.239836 -0.109451 0.628000 7866127
-0.239836 -0.105863 0.628000 6555403
-0.240982 -0.102763 0.631000 657942
-0.241364 -0.099314 0.632000 985873
-0.241746 -0.095854 0.633000 789264
-0.241746 -0.092237 0.633000 853774
-0.242891 -0.089040 0.636000 919819
-0.243655 -0.085674 0.638000 919821
-0.243655 -0.082029 0.638000 591883
-0.244037 -0.078506 0.639000 853769
-0.244801 -0.075089 0.641000 788490
-0.245183 -0.071537 0.642000 1050121
-0.245947 -0.068080 0.644000 919564
-0.246710 -0.064600 0.646000 919305
-0.247092 -0.061003 0.647000 657419
-0.248238 -0.057571 0.650000 788233
-0.248620 -0.053940 0.651000 854023
-0.250148 -0.050529 0.655000 1116420
-0.250530 -0.046857 0.656000 919814
-0.250530 -0.043109 0.656000 1050891
-0.241300 -0.150586 0.635000 9770307
-0.239780 -0.146031 0.631000 10099249
-0.235220 -0.139717 0.619000 10558008
-0.234460 -0.135740 0.617000 10161986
-0.233700 -0.131786 0.615000 9699872
-0.234840 -0.128897 0.618000 9307164
-0.235220 -0.125569 0.619000 8782615
-0.236360 -0.122623 0.622000 8520732
-0.237120 -0.119451 0.624000 8455445
-0.237880 -0.116257 0.626000 8325139
-0.238640 -0.113040 0.628000 8194067
-0.238640 -0.109451 0.628000 7997970
-0.239780 -0.106369 0.631000 6099204
-0.240540 -0.103089 0.633000 1247771
-0.240540 -0.099471 0.633000 1116947
-0.240540 -0.095854 0.633000 855315
-0.240920 -0.092383 0.634000 854289
-0.241680 -0.089040 0.636000 1050891
-0.242440 -0.085674 0.638000 919824
-0.242440 -0.082029 0.638000 788490
-0.242820 -0.078506 0.639000 919561
-0.243960 -0.075206 0.642000 854029
-0.243960 -0.071537 0.642000 984585
-0.244720 -0.068080 0.644000 919562
-0.245480 -0.064600 0.646000 788489
-0.245860 -0.061003 0.647000 722444
-0.247000 -0.057571 0.650000 788233
-0.247760 -0.054023 0.652000 853767
-0.248900 -0.050529 0.655000 985092
-0.249280 -0.046857 0.656000 919814
-0.249280 -0.043109 0.656000 985355
-0.249660 -0.039420 0.657000 1312010
-0.239712 -0.150349 0.634000 10096699
-0.238956 -0.146263 0.632000 10295347
-0.234419 -0.139943 0.620000 10754615
-0.233285 -0.135740 0.617000 10161206
-0.232529 -0.131786 0.615000 9765413
-0.233663 -0.128897 0.618000 9241626
-0.234419 -0.125771 0.620000 8848156
-0.235931 -0.123017 0.624000 8586782
-0.236310 -0.119643 0.625000 8520986
-0.237066 -0.116443 0.627000 8325141
-0.237444 -0.113040 0.628000 8259863
-0.237822 -0.109626 0.629000 8128786
-0.238956 -0.106537 0.632000 5708805
-0.239334 -0.103089 0.633000 1772828
-0.239334 -0.099471 0.633000 1313815
-0.239334 -0.095854 0.633000 920852
-0.240090 -0.092529 0.635000 920339
-0.241225 -0.089320 0.638000 1116685
-0.241225 -0.085674 0.638000 984849
-0.241225 -0.082029 0.638000 919564
-0.241981 -0.078629 0.640000 919562
-0.242737 -0.075206 0.642000 919564
-0.243493 -0.071760 0.644000 918794
-0.243871 -0.068186 0.645000 919561
-0.244250 -0.064600 0.646000 591367
-0.244628 -0.061003 0.647000 788233
-0.246140 -0.057660 0.651000 853769
-0.246518 -0.054023 0.652000 854023
-0.247652 -0.050529 0.655000 919557
-0.248030 -0.046857 0.656000 919816
-0.248030 -0.043109 0.656000 985355
-0.248409 -0.039420 0.657000 919561
-0.238505 -0.150349 0.634000 10297651
-0.237376 -0.146031 0.631000 10623030
-0.232486 -0.139491 0.618000 10622261
-0.231733 -0.135520 0.616000 10095659
-0.231733 -0.132000 0.616000 9765674
-0.232486 -0.128897 0.618000 9307416
-0.233238 -0.125771 0.620000 8979488
-0.234743 -0.123017 0.624000 8718112
-0.235495 -0.119834 0.626000 8587038
-0.235871 -0.116443 0.627000 8390935
-0.236248 -0.113040 0.628000 8324890
-0.236624 -0.109626 0.629000 8063506
-0.237376 -0.106369 0.631000 5246725
-0.237752 -0.102926 0.632000 1773342
-0.238129 -0.099471 0.633000 1314074
-0.238129 -0.095854 0.633000 1182997
-0.238881 -0.092529 0.635000 985876
-0.240010 -0.089320 0.638000 1182736
-0.240386 -0.085809 0.639000 985617
-0.240386 -0.082157 0.639000 919822
-0.241138 -0.078751 0.641000 985355
-0.241514 -0.075206 0.642000 919306
-0.242267 -0.071760 0.644000 919306
-0.242643 -0.068186 0.645000 919559
-0.243019 -0.064600 0.646000 722692
-0.243771 -0.061097 0.648000 853767
-0.244900 -0.057660 0.651000 853769
-0.245276 -0.054023 0.652000 919816
-0.246405 -0.050529 0.655000 919813
-0.247157 -0.046929 0.657000 919562
-0.247157 -0.043174 0.657000 919818
-0.247533 -0.039480 0.658000 985096
-0.249038 -0.032154 0.662000 1837581
-0.236174 -0.146031 0.631000 10885187
-0.234303 -0.141297 0.626000 10490158
-0.230934 -0.135740 0.617000 10030127
-0.230934 -0.132214 0.617000 9830956
-0.232057 -0.129314 0.620000 9307158
-0.232806 -0.126177 0.622000 9110809
-0.234303 -0.123411 0.626000 8783902
-0.234677 -0.120026 0.627000 8653083
-0.234677 -0.116443 0.627000 8455704
-0.235426 -0.113220 0.629000 8390169
-0.235426 -0.109626 0.629000 7998735
-0.236174 -0.106369 0.631000 4785425
-0.236549 -0.102926 0.632000 1707808
-0.236923 -0.099471 0.633000 1379610
-0.237297 -0.096006 0.634000 1379860
-0.237671 -0.092529 0.635000 1116949
-0.238046 -0.089040 0.636000 1182736
-0.238794 -0.085674 0.638000 986131
-0.238794 -0.082029 0.638000 919823
-0.239543 -0.078629 0.640000 985356
-0.239917 -0.075089 0.641000 919820
-0.240291 -0.071537 0.642000 919309
-0.241414 -0.068186 0.645000 919561
-0.241789 -0.064600 0.646000 788487
-0.242163 -0.061003 0.647000 919815
-0.243286 -0.057571 0.650000 919306
-0.243660 -0.053940 0.651000 919561
-0.244034 -0.050297 0.652000 919816
-0.245531 -0.046857 0.656000 919562
-0.245531 -0.043109 0.656000 919562
-0.246280 -0.039480 0.658000 985353
-0.247029 -0.035829 0.660000 985354
-0.247777 -0.032154 0.662000 1378827
-0.248151 -0.028414 0.663000 1706256
-0.261251 -0.009971 0.698000 7025450
-0.261251 -0.005983 0.698000 7357235
-0.234228 -0.145569 0.629000 10755408
-0.233110 -0.141297 0.626000 10424871
-0.230131 -0.135960 0.618000 10095411
-0.230504 -0.132643 0.619000 9831981
-0.231993 -0.129940 0.623000 9372436
-0.231993 -0.126380 0.623000 9242898
-0.233110 -0.123411 0.626000 8980764
-0.233483 -0.120026 0.627000 8784408
-0.233855 -0.116629 0.628000 8651800
-0.234972 -0.113580 0.631000 8456215
-0.234972 -0.109974 0.631000 8130573
-0.235345 -0.106537 0.632000 3607325
-0.236834 -0.103577 0.636000 1773602
-0.236462 -0.099786 0.635000 1380122
-0.236462 -0.096157 0.635000 1445394
-0.236834 -0.092674 0.636000 1051925
-0.236834 -0.089040 0.636000 1051665
-0.237579 -0.085674 0.638000 986388
-0.237951 -0.082157 0.639000 1050897
-0.238696 -0.078751 0.641000 1051149
-0.238696 -0.075089 0.641000 919822
-0.239813 -0.071760 0.644000 919568
-0.240186 -0.068186 0.645000 985354
-0.240558 -0.064600 0.646000 919818
-0.240930 -0.061003 0.647000 919816
-0.242048 -0.057571 0.650000 919562
-0.242792 -0.054023 0.652000 919562
-0.243165 -0.050374 0.653000 919818
-0.244282 -0.046857 0.656000 919306
-0.244654 -0.043174 0.657000 919818
-0.245027 -0.039480 0.658000 985355
-0.246144 -0.035883 0.661000 985354
-0.246516 -0.032154 0.662000 1181961
-0.247633 -0.028500 0.665000 1444108
-0.259922 -0.009971 0.698000 4923176
-0.259922 -0.005983 0.698000 5581612
-0.232289 -0.145106 0.627000 10639723
-0.231918 -0.141297 0.626000 10426965
-0.228954 -0.135960 0.618000 10162739
-0.231548 -0.133929 0.625000 9831978
-0.230807 -0.129940 0.623000 9438487
-0.231548 -0.126786 0.625000 9440290
-0.232289 -0.123609 0.627000 9112355
-0.232659 -0.120217 0.628000 8981020
-0.233030 -0.116814 0.629000 8848922
-0.233770 -0.113580 0.631000 8522007
-0.234511 -0.110323 0.633000 8195600
-0.234882 -0.106874 0.634000 2427939
-0.235623 -0.103577 0.636000 1774372
-0.235623 -0.099943 0.636000 1380378
-0.236364 -0.096611 0.638000 1510933
-0.236364 -0.092966 0.638000 986646
-0.236364 -0.089320 0.638000 920595
-0.236364 -0.085674 0.638000 1051925
-0.237105 -0.082286 0.640000 1182481
