# .PCD v.7 - Point Cloud Data file format
VERSION .7
FIELDS x y z rgb
SIZE 4 4 4 4
TYPE F F F I
COUNT 1 1 1 1
WIDTH 1287
HEIGHT 1
POINTS 1287
DATA ascii
-0.266280 -0.135240 0.882000 12173944
-0.267790 -0.130938 0.887000 279884
-0.268997 -0.126437 0.891000 1049614
-0.270507 -0.122027 0.896000 1774359
-0.243600 -0.268347 0.812000 9507380
-0.242400 -0.262408 0.808000 9506607
-0.240600 -0.255876 0.802000 9639467
-0.239400 -0.250040 0.798000 9835309
-0.236400 -0.242404 0.788000 10488357
-0.236400 -0.237901 0.788000 9241109
-0.237300 -0.234287 0.791000 8651278
-0.237900 -0.230348 0.793000 8323852
-0.239100 -0.226955 0.797000 8127244
-0.240000 -0.223238 0.800000 7996173
-0.242400 -0.220853 0.808000 8127757
-0.242400 -0.216236 0.808000 2950937
-0.243600 -0.212667 0.812000 985361
-0.244200 -0.208539 0.814000 1116685
-0.244500 -0.204138 0.815000 1182480
-0.246300 -0.200950 0.821000 1248277
-0.246900 -0.196736 0.823000 1575953
-0.248100 -0.192967 0.827000 1837343
-0.249300 -0.189151 0.831000 4916257
-0.249900 -0.184847 0.833000 6755866
-0.251100 -0.180951 0.837000 8651028
-0.252900 -0.177431 0.843000 10249582
-0.254400 -0.173638 0.848000 8585781
-0.255600 -0.169589 0.852000 8784934
-0.256800 -0.165493 0.856000 8916502
-0.258000 -0.161352 0.860000 8983586
-0.259500 -0.157348 0.865000 9181737
-0.260700 -0.153110 0.869000 10503203
-0.261900 -0.148826 0.873000 11765789
-0.262500 -0.144167 0.875000 12355405
-0.264000 -0.139962 0.880000 13214295
-0.265200 -0.135547 0.884000 12828016
-0.266700 -0.131233 0.889000 6984564
-0.267300 -0.126437 0.891000 1838081
-0.268800 -0.122027 0.896000 1774876
-0.241457 -0.267686 0.810000 9507374
-0.240861 -0.262408 0.808000 9571373
-0.239072 -0.255876 0.802000 9704750
-0.237582 -0.249727 0.797000 9900589
-0.235793 -0.243327 0.791000 10553898
-0.234899 -0.237901 0.788000 9437464
-0.235197 -0.233694 0.789000 8716562
-0.236390 -0.230348 0.793000 8389133
-0.237582 -0.226955 0.797000 8193038
-0.238476 -0.223238 0.800000 8126990
-0.240265 -0.220307 0.806000 8193294
-0.240861 -0.216236 0.808000 3081498
-0.242053 -0.212667 0.812000 985620
-0.242650 -0.208539 0.814000 1313808
-0.244140 -0.205140 0.819000 1379858
-0.244736 -0.200950 0.821000 1445654
-0.245332 -0.196736 0.823000 1772824
-0.246525 -0.192967 0.827000 1770263
-0.247717 -0.189151 0.831000 8457505
-0.248910 -0.185290 0.835000 8919586
-0.250102 -0.181384 0.839000 8330786
-0.251294 -0.177431 0.843000 11774286
-0.252785 -0.173638 0.848000 8391986
-0.253977 -0.169589 0.852000 8784934
-0.255170 -0.165493 0.856000 8784923
-0.256958 -0.161728 0.862000 8981793
-0.257852 -0.157348 0.865000 9247264
-0.259045 -0.153110 0.869000 9908005
-0.260237 -0.148826 0.873000 10837286
-0.260833 -0.144167 0.875000 12088871
-0.262324 -0.139962 0.880000 13083225
-0.263516 -0.135547 0.884000 13546105
-0.264410 -0.130938 0.887000 13676434
-0.265603 -0.126437 0.891000 2691647
-0.267093 -0.122027 0.896000 1707542
-0.240507 -0.268347 0.812000 9572904
-0.239322 -0.262408 0.808000 9637162
-0.237545 -0.255876 0.802000 9835825
-0.236064 -0.249727 0.797000 9900332
-0.234287 -0.243327 0.791000 10751534
-0.233398 -0.237901 0.788000 9503258
-0.234287 -0.234287 0.791000 8847638
-0.234879 -0.230348 0.793000 8520462
-0.236064 -0.226955 0.797000 8324368
-0.236952 -0.223238 0.800000 8323854
-0.238730 -0.220307 0.806000 8324880
-0.239322 -0.216236 0.808000 3344155
-0.241099 -0.213190 0.814000 1247768
-0.241395 -0.208795 0.815000 1445394
-0.242580 -0.205140 0.819000 1577237
-0.241988 -0.199970 0.817000 1642774
-0.243765 -0.196736 0.823000 1445407
-0.245542 -0.193433 0.829000 4459534
-0.246727 -0.189607 0.833000 8589088
-0.247319 -0.185290 0.835000 8917802
-0.248504 -0.181384 0.839000 8724015
-0.249689 -0.177431 0.843000 11570477
-0.251170 -0.173638 0.848000 8454446
-0.252354 -0.169589 0.852000 8784677
-0.254131 -0.165880 0.858000 8784417
-0.255316 -0.161728 0.862000 8980768
-0.256797 -0.157711 0.867000 9312791
-0.257982 -0.153462 0.871000 9910566
-0.258574 -0.148826 0.873000 10239535
-0.259167 -0.144167 0.875000 10835713
-0.261240 -0.140280 0.882000 12690523
-0.261240 -0.135240 0.882000 13348225
-0.263313 -0.131233 0.889000 13420719
-0.263906 -0.126437 0.891000 6251132
-0.267460 -0.122980 0.903000 1116175
-0.238371 -0.267686 0.810000 9637665
-0.237783 -0.262408 0.808000 9702696
-0.236606 -0.256514 0.804000 9966121
-0.234546 -0.249727 0.797000 9965354
-0.232780 -0.243327 0.791000 10947883
-0.232191 -0.238203 0.789000 9503002
-0.232191 -0.233694 0.789000 8913179
-0.233369 -0.230348 0.793000 8651795
-0.234546 -0.226955 0.797000 8455443
-0.235429 -0.223238 0.800000 8454927
-0.237194 -0.220307 0.806000 8455955
-0.238371 -0.216771 0.810000 3605790
-0.239549 -0.213190 0.814000 1510936
-0.239843 -0.208795 0.815000 1642772
-0.241020 -0.205140 0.819000 1708314
-0.240431 -0.199970 0.817000 1905691
-0.242786 -0.197214 0.825000 1116446
-0.243963 -0.193433 0.829000 7212323
-0.245140 -0.189607 0.833000 8720160
-0.245729 -0.185290 0.835000 8852262
-0.246906 -0.181384 0.839000 9058603
-0.248083 -0.177431 0.843000 11376697
-0.249554 -0.173638 0.848000 8457266
-0.250731 -0.169589 0.852000 8849960
-0.252497 -0.165880 0.858000 8718884
-0.254557 -0.162290 0.865000 8979729
-0.255146 -0.157711 0.867000 9319481
-0.256323 -0.153462 0.871000 9847354
-0.256911 -0.148826 0.873000 9586999
-0.258383 -0.144661 0.878000 9576983
-0.259560 -0.140280 0.882000 12217912
-0.260149 -0.135547 0.884000 13150043
-0.262209 -0.131529 0.891000 13087134
-0.263091 -0.126863 0.894000 9808510
-0.264269 -0.122299 0.898000 526631
-0.236829 -0.267686 0.810000 9637403
-0.236829 -0.263057 0.810000 9702949
-0.235074 -0.256514 0.804000 9900577
-0.233028 -0.249727 0.797000 10030375
-0.231273 -0.243327 0.791000 10621735
-0.230689 -0.238203 0.789000 9568794
-0.231273 -0.234287 0.791000 9371936
-0.232443 -0.230929 0.795000 8782871
-0.233028 -0.226955 0.797000 8586517
-0.234490 -0.223796 0.802000 8520719
-0.235659 -0.220307 0.806000 8588055
-0.236244 -0.216236 0.808000 3606817
-0.237998 -0.213190 0.814000 1642776
-0.238290 -0.208795 0.815000 1839638
-0.238290 -0.204138 0.815000 1773855
-0.240630 -0.201439 0.823000 1905696
-0.241214 -0.197214 0.825000 2884637
-0.242969 -0.193900 0.831000 8526904
-0.243553 -0.189607 0.833000 8520991
-0.244723 -0.185734 0.837000 8784418
-0.245308 -0.181384 0.839000 9655079
-0.246477 -0.177431 0.843000 11243077
-0.247939 -0.173638 0.848000 8388919
-0.249693 -0.169987 0.854000 8718634
-0.250863 -0.165880 0.858000 8849959
-0.252910 -0.162290 0.865000 9577217
-0.253494 -0.157711 0.867000 10512476
-0.254664 -0.153462 0.871000 10642509
-0.255833 -0.149167 0.875000 7949887
-0.257295 -0.144990 0.880000 9314093
-0.257880 -0.140280 0.882000 10822422
-0.259342 -0.136007 0.887000 11427125
-0.260511 -0.131529 0.891000 13148557
-0.261389 -0.126863 0.894000 11579263
-0.262558 -0.122299 0.898000 329024
-0.235286 -0.267686 0.810000 9637408
-0.235286 -0.263057 0.810000 9703720
-0.234124 -0.257152 0.806000 9769509
-0.231800 -0.250040 0.798000 10094881
-0.230348 -0.243942 0.793000 10292012
-0.229186 -0.238203 0.789000 9568793
-0.229186 -0.233694 0.789000 9765402
-0.230929 -0.230929 0.795000 8913941
-0.231510 -0.226955 0.797000 8652309
-0.232962 -0.223796 0.802000 8652050
-0.234705 -0.220853 0.808000 8653079
-0.235286 -0.216771 0.810000 3606561
-0.235867 -0.212667 0.812000 1708316
-0.236738 -0.208795 0.815000 2036507
-0.237319 -0.204639 0.817000 1840159
-0.239643 -0.201929 0.825000 1971487
-0.239643 -0.197214 0.825000 4656942
-0.241386 -0.193900 0.831000 9853547
-0.241967 -0.189607 0.833000 8328542
-0.243710 -0.186178 0.839000 8719443
-0.244290 -0.181816 0.841000 10240802
-0.245452 -0.177852 0.845000 11179569
-0.246905 -0.174048 0.850000 8260905
-0.248067 -0.169987 0.854000 8652321
-0.249229 -0.165880 0.858000 8915485
-0.251262 -0.162290 0.865000 10240048
-0.251843 -0.157711 0.867000 11632488
-0.253005 -0.153462 0.871000 11500115
-0.254167 -0.149167 0.875000 6248519
-0.255619 -0.144990 0.880000 9118247
-0.256200 -0.140280 0.882000 9383729
-0.258233 -0.136313 0.889000 9634087
-0.258814 -0.131529 0.891000 13207905
-0.259686 -0.126863 0.894000 13350255
-0.260848 -0.122299 0.898000 82505
-0.233743 -0.267686 0.810000 9573157
-0.233743 -0.263057 0.810000 9703722
-0.232011 -0.256514 0.804000 9769257
-0.230280 -0.250040 0.798000 10094874
-0.228837 -0.243942 0.793000 10226481
-0.227683 -0.238203 0.789000 9568792
-0.228260 -0.234287 0.791000 9503252
-0.229991 -0.231510 0.797000 8913938
-0.230280 -0.227240 0.798000 8652053
-0.231434 -0.223796 0.802000 8717589
-0.233166 -0.220853 0.808000 8720151
-0.233743 -0.216771 0.810000 3541537
-0.234897 -0.213190 0.814000 1774112
-0.235763 -0.209308 0.817000 1971232
-0.235763 -0.204639 0.817000 1905952
-0.238071 -0.201929 0.825000 1904670
-0.238649 -0.197692 0.827000 6822464
-0.240380 -0.194367 0.833000 10776990
-0.240957 -0.190062 0.835000 10237084
-0.242111 -0.186178 0.839000 9519492
-0.242689 -0.181816 0.841000 10104094
-0.243843 -0.177852 0.845000 10843421
-0.245286 -0.174048 0.850000 10170907
-0.246440 -0.169987 0.854000 9116696
-0.247594 -0.165880 0.858000 8848660
-0.249614 -0.162290 0.865000 11037278
-0.250769 -0.158075 0.869000 11502964
-0.251923 -0.153814 0.873000 10905432
-0.252500 -0.149167 0.875000 7038544
-0.253943 -0.144990 0.880000 10171168
-0.255097 -0.140598 0.884000 9719884
-0.256540 -0.136313 0.889000 9969945
-0.257117 -0.131529 0.891000 11824949
-0.258560 -0.127147 0.896000 13480031
-0.259137 -0.122299 0.898000 4879699
-0.232200 -0.267686 0.810000 9506344
-0.231627 -0.262408 0.808000 9769777
-0.229333 -0.255238 0.800000 9769003
-0.228473 -0.249727 0.797000 10094115
-0.226753 -0.243327 0.791000 10159914
-0.225893 -0.237901 0.788000 9568792
-0.226180 -0.233694 0.789000 9241108
-0.227900 -0.230929 0.795000 8913938
-0.228760 -0.227240 0.798000 8586520
-0.229907 -0.223796 0.802000 8783127
-0.231053 -0.220307 0.806000 8784921
-0.232200 -0.216771 0.810000 3409956
-0.233347 -0.213190 0.814000 1839647
-0.233633 -0.208795 0.815000 1905952
-0.234207 -0.204639 0.817000 1971231
-0.236500 -0.201929 0.825000 1903140
-0.238220 -0.198649 0.831000 8983612
-0.238793 -0.194367 0.833000 11699878
-0.239367 -0.190062 0.835000 12160177
-0.240513 -0.186178 0.839000 10315651
-0.241660 -0.182249 0.843000 9910304
-0.243093 -0.178484 0.848000 10512693
-0.244240 -0.174457 0.852000 12022329
-0.245387 -0.170385 0.856000 9585966
-0.245960 -0.165880 0.858000 8718626
-0.248540 -0.162666 0.867000 11899236
-0.249687 -0.158439 0.871000 11300700
-0.250260 -0.153814 0.873000 10311734
-0.250833 -0.149167 0.875000 7759698
-0.252840 -0.145320 0.882000 11216444
-0.253413 -0.140598 0.884000 10057583
-0.254847 -0.136313 0.889000 10236711
-0.255420 -0.131529 0.891000 10441779
-0.256853 -0.127147 0.896000 13608020
-0.258287 -0.122708 0.901000 9668704
-0.258860 -0.117820 0.903000 1248027
-0.230657 -0.267686 0.810000 9638188
-0.230088 -0.262408 0.808000 9770039
-0.227810 -0.255238 0.800000 9769006
-0.226955 -0.249727 0.797000 10291499
-0.225247 -0.243327 0.791000 10093859
-0.224677 -0.238203 0.789000 9568792
-0.225247 -0.234287 0.791000 9110291
-0.226386 -0.230929 0.795000 8848402
-0.227810 -0.227810 0.800000 8717340
-0.228949 -0.224354 0.804000 8717592
-0.229518 -0.220307 0.806000 8785436
-0.230657 -0.216771 0.810000 3083046
-0.231796 -0.213190 0.814000 1839903
-0.232081 -0.208795 0.815000 1905952
-0.232650 -0.204639 0.817000 1905183
-0.234929 -0.201929 0.825000 2952490
-0.236068 -0.198170 0.829000 9306425
-0.236637 -0.193900 0.831000 11372205
-0.237207 -0.189607 0.833000 11643079
-0.238915 -0.186178 0.839000 10178689
-0.240054 -0.182249 0.843000 10436897
-0.240624 -0.177852 0.845000 10838605
-0.242617 -0.174457 0.852000 11707224
-0.243756 -0.170385 0.856000 9385284
-0.244326 -0.165880 0.858000 8784945
-0.246889 -0.162666 0.867000 11502697
-0.248028 -0.158439 0.871000 10114117
-0.248597 -0.153814 0.873000 9713683
-0.250021 -0.149678 0.878000 8156757
-0.251160 -0.145320 0.882000 11559511
-0.251730 -0.140598 0.884000 11179154
-0.253153 -0.136313 0.889000 9912117
-0.253723 -0.131529 0.891000 9908017
-0.255716 -0.127430 0.898000 12485961
-0.256570 -0.122708 0.901000 11451501
-0.257140 -0.117820 0.903000 1247500
-0.229680 -0.268347 0.812000 9702448
-0.228549 -0.262408 0.808000 9770802
-0.226286 -0.255238 0.800000 9703725
-0.225720 -0.250040 0.798000 10553382
-0.223740 -0.243327 0.791000 10028314
-0.223174 -0.238203 0.789000 9568537
-0.223740 -0.234287 0.791000 8979229
-0.225437 -0.231510 0.797000 8782867
-0.226851 -0.228379 0.802000 8848404
-0.227417 -0.224354 0.804000 8717588
-0.227983 -0.220307 0.806000 8785428
-0.229114 -0.216771 0.810000 2755110
-0.230246 -0.213190 0.814000 1839646
-0.231094 -0.209308 0.817000 1971493
-0.231094 -0.204639 0.817000 1774109
-0.234489 -0.202908 0.829000 4064300
-0.235054 -0.198649 0.831000 9578816
-0.235620 -0.194367 0.833000 11106222
-0.235620 -0.189607 0.833000 11042490
-0.237317 -0.186178 0.839000 9983356
-0.238449 -0.182249 0.843000 10957851
-0.239863 -0.178484 0.848000 11245358
-0.240994 -0.174457 0.852000 11371600
-0.242126 -0.170385 0.856000 9175359
-0.243257 -0.166267 0.860000 8856114
-0.245237 -0.162666 0.867000 11175511
-0.245803 -0.158075 0.869000 8858938
-0.246934 -0.153814 0.873000 9180954
-0.247500 -0.149167 0.875000 8547403
-0.248914 -0.144990 0.880000 11894599
-0.249480 -0.140280 0.882000 12293007
-0.250894 -0.136007 0.887000 9585464
-0.252026 -0.131529 0.891000 9318201
-0.253440 -0.127147 0.896000 11430465
-0.254854 -0.122708 0.901000 13140569
-0.254854 -0.117559 0.901000 1312789
-0.227571 -0.267686 0.810000 9700404
-0.226448 -0.261758 0.806000 9770541
-0.224762 -0.255238 0.800000 9834540
-0.224762 -0.250667 0.800000 10357024
-0.222795 -0.243942 0.793000 9896465
-0.222233 -0.238807 0.791000 9700378
-0.222795 -0.234879 0.793000 8979239
-0.224200 -0.231800 0.798000 8782612
-0.225324 -0.228379 0.802000 8782604
-0.225886 -0.224354 0.804000 8652047
-0.226448 -0.220307 0.806000 8720396
-0.228133 -0.217307 0.812000 2361894
-0.228976 -0.213452 0.815000 1970974
-0.230100 -0.209820 0.819000 1840169
-0.230100 -0.205140 0.819000 1969948
-0.232910 -0.202908 0.829000 4394030
-0.233471 -0.198649 0.831000 9908552
-0.234033 -0.194367 0.833000 11701934
-0.234595 -0.190062 0.835000 11700653
-0.236281 -0.186622 0.841000 9913206
-0.237405 -0.182681 0.845000 11075860
-0.238810 -0.178905 0.850000 11104014
-0.239933 -0.174867 0.854000 11637065
-0.240495 -0.170385 0.856000 9117242
-0.242181 -0.166653 0.862000 8139827
-0.243586 -0.162666 0.867000 9782085
-0.244148 -0.158075 0.869000 8852784
-0.245271 -0.153814 0.873000 8794145
-0.246676 -0.149678 0.878000 8020801
-0.247238 -0.144990 0.880000 11492919
-0.247800 -0.140280 0.882000 12561292
-0.249205 -0.136007 0.887000 9580346
-0.250329 -0.131529 0.891000 9713216
-0.251733 -0.127147 0.896000 10374457
-0.253138 -0.122708 0.901000 11298886
-0.225470 -0.267025 0.808000 9637182
-0.224912 -0.261758 0.806000 9770285
-0.224354 -0.256514 0.804000 9900329
-0.223238 -0.250667 0.800000 10160412
-0.221285 -0.243942 0.793000 9765396
-0.221285 -0.239410 0.793000 9830937
-0.221843 -0.235471 0.795000 8979225
-0.223238 -0.232381 0.800000 8717074
-0.223796 -0.228379 0.802000 8651791
-0.224912 -0.224912 0.806000 8651791
-0.224912 -0.220307 0.806000 8654858
-0.227145 -0.217842 0.814000 1968672
-0.228540 -0.214500 0.819000 2035994
-0.229098 -0.210332 0.821000 1774370
-0.229098 -0.205641 0.821000 2101019
-0.231330 -0.202908 0.829000 4784942
-0.231889 -0.198649 0.831000 10175054
-0.231889 -0.193900 0.831000 12359078
-0.233563 -0.190517 0.837000 12353953
-0.235237 -0.187066 0.843000 9915758
-0.235795 -0.182681 0.845000 11163705
-0.237749 -0.179326 0.852000 11024696
-0.238865 -0.175276 0.856000 11831360
-0.239423 -0.170783 0.858000 9044270
-0.240539 -0.166653 0.862000 7359036
-0.241934 -0.162666 0.867000 8339285
-0.243050 -0.158439 0.871000 8786220
-0.243609 -0.153814 0.873000 8462887
-0.245004 -0.149678 0.878000 7494461
-0.245562 -0.144990 0.880000 11089701
-0.246120 -0.140280 0.882000 12754058
-0.248073 -0.136313 0.889000 9641777
-0.248631 -0.131529 0.891000 10040892
-0.250027 -0.127147 0.896000 9322560
-0.251422 -0.122708 0.901000 9393740
-0.252538 -0.118081 0.905000 2622504
-0.223931 -0.267025 0.808000 9503305
-0.222823 -0.261109 0.804000 9704236
-0.222823 -0.256514 0.804000 10031141
-0.221160 -0.250040 0.798000 10225688
-0.219774 -0.243942 0.793000 9765142
-0.219774 -0.239410 0.793000 9568792
-0.221160 -0.236360 0.798000 8913676
-0.221714 -0.232381 0.800000 8782607
-0.222823 -0.228949 0.804000 8586258
-0.223377 -0.224912 0.806000 8717838
-0.223931 -0.220853 0.808000 7475464
-0.225594 -0.217842 0.814000 1706777
-0.226980 -0.214500 0.819000 1904919
-0.227534 -0.210332 0.821000 1773339
-0.227534 -0.205641 0.821000 1641498
-0.229751 -0.202908 0.829000 5965869
-0.230306 -0.198649 0.831000 10181460
-0.231414 -0.194833 0.835000 11962526
-0.231969 -0.190517 0.837000 12021397
-0.233631 -0.187066 0.843000 9847653
-0.235017 -0.183330 0.848000 11310175
-0.236126 -0.179326 0.852000 11098721
-0.237234 -0.175276 0.856000 11689272
-0.238343 -0.171181 0.860000 9049122
-0.238897 -0.166653 0.862000 8280645
-0.240283 -0.162666 0.867000 8480612
-0.241391 -0.158439 0.871000 8655655
-0.241946 -0.153814 0.873000 7813932
-0.243331 -0.149678 0.878000 6836026
-0.244440 -0.145320 0.882000 10893586
-0.244994 -0.140598 0.884000 12691848
-0.246380 -0.136313 0.889000 9509416
-0.247766 -0.131971 0.894000 9907256
-0.248874 -0.127430 0.898000 9514311
-0.249706 -0.122708 0.901000 9858131
-0.250260 -0.117820 0.903000 3415346
-0.221842 -0.261758 0.806000 9572639
-0.221291 -0.256514 0.804000 10161698
-0.220190 -0.250667 0.800000 10290972
-0.218264 -0.243942 0.793000 9765661
-0.219365 -0.240618 0.797000 9372189
-0.220190 -0.236952 0.800000 8782867
-0.220741 -0.232962 0.802000 8782611
-0.221291 -0.228949 0.804000 8520980
-0.221842 -0.224912 0.806000 8782867
-0.222392 -0.220853 0.808000 6228749
-0.224319 -0.218110 0.815000 1510938
-0.225420 -0.214500 0.819000 1708053
-0.226521 -0.210845 0.823000 1772570
-0.226521 -0.206142 0.823000 1116443
-0.229273 -0.203887 0.833000 7212825
-0.230374 -0.200083 0.837000 10109527
-0.230374 -0.195300 0.837000 11570824
-0.230925 -0.190972 0.839000 11630752
-0.232576 -0.187510 0.845000 9842227
-0.233402 -0.183330 0.848000 11371077
-0.234503 -0.179326 0.852000 11160888
-0.235604 -0.175276 0.856000 11501898
-0.236705 -0.171181 0.860000 9045282
-0.237255 -0.166653 0.862000 9126719
-0.238631 -0.162666 0.867000 8617810
-0.239732 -0.158439 0.871000 8470586
-0.240833 -0.154167 0.875000 7159364
-0.242210 -0.150019 0.880000 6115134
-0.242760 -0.145320 0.882000 10758423
-0.244136 -0.141075 0.887000 12615522
-0.244687 -0.136313 0.889000 9309490
-0.246613 -0.132267 0.896000 9708086
-0.247164 -0.127430 0.898000 9708096
-0.247990 -0.122708 0.901000 10313297
-0.249090 -0.118081 0.905000 4194617
-0.220307 -0.261758 0.806000 9702161
-0.219760 -0.256514 0.804000 10226206
-0.218667 -0.250667 0.800000 10159903
-0.217300 -0.244557 0.795000 9765923
-0.217847 -0.240618 0.797000 9307938
-0.219213 -0.237545 0.802000 8782874
-0.219760 -0.233543 0.804000 8848151
-0.220307 -0.229518 0.806000 8651798
-0.220853 -0.225470 0.808000 8718360
-0.221947 -0.221947 0.812000 3867410
-0.222767 -0.218110 0.815000 1576986
-0.223860 -0.214500 0.819000 1642514
-0.224953 -0.210845 0.823000 1772569
-0.224953 -0.206142 0.823000 1050139
-0.228233 -0.204376 0.835000 7538949
-0.228780 -0.200083 0.837000 10244955
-0.229327 -0.195767 0.839000 11366001
-0.229873 -0.191428 0.841000 11501994
-0.230967 -0.187510 0.845000 10037505
-0.231787 -0.183330 0.848000 11836716
-0.232880 -0.179326 0.852000 11031055
-0.234520 -0.175686 0.858000 11374428
-0.235067 -0.171181 0.860000 9047842
-0.235613 -0.166653 0.862000 9318457
-0.236980 -0.162666 0.867000 8611136
-0.238620 -0.158803 0.873000 7170637
-0.239167 -0.154167 0.875000 6247259
-0.240533 -0.150019 0.880000 5851715
-0.241080 -0.145320 0.882000 10234907
-0.242447 -0.141075 0.887000 11102012
-0.243540 -0.136620 0.891000 9310267
-0.245453 -0.132562 0.898000 9640244
-0.245453 -0.127430 0.898000 9643320
-0.246820 -0.122980 0.903000 10247760
-0.218771 -0.261758 0.806000 9897792
-0.218229 -0.256514 0.804000 10225959
-0.217143 -0.250667 0.800000 9963294
-0.215786 -0.244557 0.795000 9766683
-0.216600 -0.240920 0.798000 9243421
-0.218229 -0.238137 0.804000 8717588
-0.218771 -0.234124 0.806000 8848162
-0.218771 -0.229518 0.806000 8717852
-0.220400 -0.226587 0.812000 8587545
-0.220943 -0.222493 0.814000 1444626
-0.221757 -0.218645 0.817000 1708312
-0.222843 -0.215024 0.821000 1511444
-0.223929 -0.211357 0.825000 1772567
-0.225014 -0.207645 0.829000 919322
-0.226643 -0.204376 0.835000 7932689
-0.227729 -0.200561 0.839000 10314356
-0.228271 -0.196233 0.841000 11177860
-0.228814 -0.191883 0.843000 11367067
-0.230171 -0.188175 0.848000 10289441
-0.230714 -0.183762 0.850000 12232995
-0.231800 -0.179747 0.854000 10901543
-0.232886 -0.175686 0.858000 11168604
-0.233429 -0.171181 0.860000 9114923
-0.234786 -0.167233 0.865000 9447731
-0.235871 -0.163041 0.869000 8668480
-0.236957 -0.158803 0.873000 5862486
-0.237500 -0.154167 0.875000 5399638
-0.239400 -0.150360 0.882000 5592133
-0.239943 -0.145650 0.884000 9771032
-0.241300 -0.141393 0.889000 9517616
-0.242657 -0.137080 0.894000 9311803
-0.243743 -0.132562 0.898000 9511998
-0.244557 -0.127856 0.901000 9578810
-0.245100 -0.122980 0.903000 10115403
-0.217236 -0.257152 0.806000 10357807
-0.214271 -0.244557 0.795000 9438483
-0.216697 -0.242731 0.804000 8914968
-0.217236 -0.238730 0.806000 8585998
-0.217236 -0.234124 0.806000 8717100
-0.218314 -0.230657 0.810000 8653090
-0.219392 -0.227145 0.814000 7802138
-0.219392 -0.222493 0.814000 1705233
-0.221279 -0.219715 0.821000 1905685
-0.221818 -0.215548 0.823000 1642774
-0.222357 -0.211357 0.825000 1839381
-0.223974 -0.208146 0.831000 1049882
-0.225052 -0.204376 0.835000 8396316
-0.226130 -0.200561 0.839000 11104652
-0.226670 -0.196233 0.841000 11372950
-0.227748 -0.192338 0.845000 10315659
-0.228556 -0.188175 0.848000 10239809
-0.229634 -0.184194 0.852000 11577627
-0.230173 -0.179747 0.854000 11031871
-0.231251 -0.175686 0.858000 10715996
-0.232330 -0.171579 0.862000 9114675
-0.233138 -0.167233 0.865000 9645102
-0.234216 -0.163041 0.869000 8924736
-0.235294 -0.158803 0.873000 5798494
-0.235833 -0.154167 0.875000 5139536
-0.237720 -0.150360 0.882000 5198920
-0.238259 -0.145650 0.884000 8920597
-0.240146 -0.141711 0.891000 9573923
-0.240954 -0.137080 0.894000 9120058
-0.242032 -0.132562 0.898000 8663625
-0.242841 -0.127856 0.901000 9447483
-0.243919 -0.123252 0.905000 11101766
-0.215166 -0.242731 0.804000 8587847
-0.215701 -0.238730 0.806000 8459571
-0.215701 -0.234124 0.806000 8585776
-0.216771 -0.230657 0.810000 8522527
-0.218110 -0.227424 0.815000 7016742
-0.218110 -0.222767 0.815000 1969179
-0.219715 -0.219715 0.821000 2102552
-0.220786 -0.216071 0.825000 1774103
-0.221321 -0.211870 0.827000 1905430
-0.222927 -0.208647 0.833000 1115924
-0.223997 -0.204866 0.837000 8784427
-0.225068 -0.201039 0.841000 11826563
-0.225603 -0.196700 0.843000 11501217
-0.226138 -0.192338 0.845000 9261679
-0.227476 -0.188619 0.850000 10246946
-0.228011 -0.184194 0.852000 10900500
-0.229082 -0.180168 0.856000 11178065
-0.230152 -0.176095 0.860000 10240835
-0.230688 -0.171579 0.862000 9180465
-0.232026 -0.167620 0.867000 9840424
-0.233096 -0.163416 0.871000 9247036
-0.233631 -0.158803 0.873000 5663828
-0.234167 -0.154167 0.875000 4942927
-0.236040 -0.150360 0.882000 4804936
-0.237378 -0.146144 0.887000 8140069
-0.238449 -0.141711 0.891000 9592407
-0.239787 -0.137387 0.896000 9003375
-0.240322 -0.132562 0.898000 7816779
-0.241125 -0.127856 0.901000 9314349
-0.242195 -0.123252 0.905000 12022344
-0.214166 -0.238730 0.806000 9586777
-0.214697 -0.234705 0.808000 9252147
-0.215229 -0.230657 0.810000 7670045
-0.216557 -0.227424 0.815000 5247026
-0.216557 -0.222767 0.815000 2495013
-0.218151 -0.219715 0.821000 2298906
-0.219214 -0.216071 0.825000 2035737
-0.220277 -0.212382 0.829000 1905687
-0.221871 -0.209148 0.835000 1180687
-0.222403 -0.204866 0.837000 9187898
-0.223466 -0.201039 0.841000 11172986
-0.224529 -0.197167 0.845000 11041708
-0.225326 -0.193021 0.848000 9125715
-0.225857 -0.188619 0.850000 10775043
-0.226920 -0.184627 0.854000 9699598
-0.227983 -0.180589 0.858000 11437922
-0.228514 -0.176095 0.860000 9572138
-0.229046 -0.171579 0.862000 9047343
-0.230906 -0.168007 0.869000 9577763
-0.231437 -0.163416 0.871000 8597048
-0.232500 -0.159167 0.875000 5600331
-0.233297 -0.154695 0.878000 4217165
-0.234891 -0.150701 0.884000 4278600
-0.236220 -0.146473 0.889000 7367220
-0.237549 -0.142189 0.894000 10203532
-0.238080 -0.137387 0.896000 8811940
-0.239409 -0.133005 0.901000 8736077
-0.239940 -0.128140 0.903000 9511710
-0.240471 -0.123252 0.905000 12426058
-0.213158 -0.234705 0.808000 9991523
-0.212630 -0.229518 0.806000 6829137
-0.215005 -0.227424 0.815000 3476522
-0.215005 -0.222767 0.815000 2953248
-0.217115 -0.220250 0.823000 2495777
-0.218698 -0.217119 0.829000 2298651
-0.219226 -0.212894 0.831000 1971993
-0.220281 -0.209148 0.835000 1247255
-0.220809 -0.204866 0.837000 9587489
-0.221864 -0.201039 0.841000 10448477
-0.222919 -0.197167 0.845000 10577542
-0.223710 -0.193021 0.848000 8923475
-0.224766 -0.189063 0.852000 11374098
-0.225293 -0.184627 0.854000 8540432
-0.226349 -0.180589 0.858000 11696971
-0.227404 -0.176505 0.862000 8922404
-0.228195 -0.172176 0.865000 8848665
-0.229778 -0.168393 0.871000 9246747
-0.230306 -0.163791 0.873000 7942724
-0.230833 -0.159167 0.875000 5532234
-0.232152 -0.155048 0.880000 3558706
-0.233999 -0.151212 0.887000 3688517
-0.234527 -0.146473 0.889000 6583616
-0.235846 -0.142189 0.894000 10782819
-0.236901 -0.137693 0.898000 8607327
-0.237692 -0.133005 0.901000 9648433
-0.238220 -0.128140 0.903000 9711674
-0.239539 -0.123661 0.908000 12817222
-0.215548 -0.220250 0.823000 2298664
-0.217119 -0.217119 0.829000 2495774
-0.218690 -0.213919 0.835000 2234139
-0.219214 -0.209649 0.837000 1508640
-0.219738 -0.205355 0.839000 8464391
-0.220262 -0.201039 0.841000 9593920
-0.222095 -0.197867 0.848000 9917279
-0.223143 -0.193931 0.852000 8716628
-0.223667 -0.189507 0.854000 11306272
-0.224190 -0.185059 0.856000 9062675
-0.225762 -0.181430 0.862000 11369267
-0.225762 -0.176505 0.862000 9699614
-0.227071 -0.172574 0.867000 9381890
-0.228643 -0.168780 0.873000 8981780
-0.228643 -0.163791 0.873000 7815504
-0.229952 -0.159712 0.878000 5068873
-0.231000 -0.155400 0.882000 3424022
-0.232833 -0.151553 0.889000 5000515
-0.233357 -0.146803 0.891000 7298891
-0.234143 -0.142189 0.894000 9986874
-0.235190 -0.137693 0.898000 8725274
-0.236500 -0.133300 0.903000 9579030
-0.237810 -0.128850 0.908000 10513494
-0.238333 -0.123933 0.910000 12431682
-0.215540 -0.217119 0.829000 2692885
-0.216060 -0.212894 0.831000 2430753
-0.217620 -0.209649 0.837000 1772832
-0.218140 -0.205355 0.839000 7408658
-0.219180 -0.201517 0.843000 8657699
-0.220480 -0.197867 0.848000 9195066
-0.221520 -0.193931 0.852000 8467524
-0.222040 -0.189507 0.854000 11242536
-0.223080 -0.185491 0.858000 9594392
-0.224120 -0.181430 0.862000 11117871
-0.225420 -0.177529 0.867000 10509628
-0.225940 -0.172972 0.869000 9917250
-0.226980 -0.168780 0.873000 8718388
-0.227500 -0.164167 0.875000 7752797
-0.228280 -0.159712 0.878000 4612678
-0.229320 -0.155400 0.882000 3355938
-0.231660 -0.151894 0.891000 6303788
-0.231660 -0.146803 0.891000 8079696
-0.232960 -0.142507 0.896000 9121849
-0.233480 -0.137693 0.898000 8916761
-0.234780 -0.133300 0.903000 9514266
-0.236600 -0.129133 0.910000 11312457
-0.236600 -0.123933 0.910000 12027195
-0.213961 -0.217119 0.829000 1905165
-0.214477 -0.212894 0.831000 2430759
-0.216026 -0.209649 0.837000 2363424
-0.216542 -0.205355 0.839000 6097948
-0.218090 -0.201995 0.845000 8652039
-0.219381 -0.198333 0.850000 8852757
-0.220413 -0.194387 0.854000 10179379
-0.220930 -0.189950 0.856000 11108655
-0.221962 -0.185924 0.860000 10780701
-0.223252 -0.182062 0.865000 11631147
-0.223769 -0.177529 0.867000 12110170
-0.224801 -0.173370 0.871000 11046274
-0.225317 -0.168780 0.873000 8520788
-0.225833 -0.164167 0.875000 7629161
-0.227124 -0.160076 0.880000 5135172
-0.228930 -0.156281 0.887000 4475438
-0.229963 -0.151894 0.891000 7538709
-0.230737 -0.147297 0.894000 9589589
-0.231253 -0.142507 0.896000 9243961
-0.231770 -0.137693 0.898000 9046551
-0.233576 -0.133595 0.905000 9709855
-0.234867 -0.129133 0.910000 11308092
-0.234867 -0.123933 0.910000 9208884
-0.212894 -0.212894 0.831000 2365214
-0.214431 -0.209649 0.837000 2889248
-0.214944 -0.205355 0.839000 4721695
-0.216481 -0.201995 0.845000 8590865
-0.218274 -0.198800 0.852000 8520984
-0.219811 -0.195297 0.858000 11889705
-0.220324 -0.190838 0.860000 10986017
-0.220836 -0.186356 0.862000 11946255
-0.221605 -0.182062 0.865000 12087379
-0.222117 -0.177529 0.867000 13615168
-0.223654 -0.173769 0.873000 12163158
-0.224167 -0.169167 0.875000 8274516
-0.224935 -0.164730 0.878000 7501402
-0.225960 -0.160440 0.882000 5591862
-0.227753 -0.156633 0.889000 5526586
-0.228266 -0.151894 0.891000 8794675
-0.229034 -0.147297 0.894000 11110271
-0.230059 -0.142825 0.898000 9378619
-0.230828 -0.138153 0.901000 9178397
-0.232621 -0.134038 0.908000 9842991
-0.233133 -0.129133 0.910000 11294516
-0.212837 -0.209649 0.837000 2364961
-0.216651 -0.198800 0.852000 9316635
-0.218686 -0.195752 0.860000 11901984
-0.218686 -0.190838 0.860000 9586962
-0.219957 -0.187005 0.865000 11075842
-0.220466 -0.182483 0.867000 11633530
-0.221483 -0.178348 0.871000 12694054
-0.221991 -0.173769 0.873000 10320169
-0.223263 -0.169747 0.878000 8349013
-0.223771 -0.165105 0.880000 8007755
-0.224789 -0.160804 0.884000 7100200
-0.226060 -0.156633 0.889000 7423302
-0.227331 -0.152406 0.894000 10779217
-0.227840 -0.147627 0.896000 11637673
-0.228349 -0.142825 0.898000 9440573
-0.229111 -0.138153 0.901000 9440546
-0.230891 -0.134038 0.908000 10107199
-0.231400 -0.129133 0.910000 11035692
-0.216038 -0.199733 0.856000 10103068
-0.217552 -0.196208 0.862000 11827473
-0.217552 -0.191282 0.862000 8192267
-0.218310 -0.187005 0.865000 10242100
-0.219824 -0.183325 0.871000 11175517
-0.220833 -0.179167 0.875000 11697966
-0.221590 -0.174764 0.878000 8543536
-0.222095 -0.170133 0.880000 8406074
-0.222600 -0.165480 0.882000 8585530
-0.223862 -0.161350 0.887000 8542791
-0.224871 -0.156986 0.891000 9256780
-0.225629 -0.152406 0.894000 12685943
-0.226638 -0.147956 0.898000 12164220
-0.227395 -0.143302 0.901000 9507884
-0.228405 -0.138767 0.905000 9704749
-0.229667 -0.134333 0.910000 10377773
-0.229667 -0.129133 0.910000 10782012
-0.214408 -0.199733 0.856000 7085596
-0.216662 -0.196890 0.865000 10249730
-0.215910 -0.191282 0.862000 9583619
-0.217163 -0.187437 0.867000 10781031
-0.218666 -0.183746 0.873000 11371584
-0.219167 -0.179167 0.875000 9989429
-0.220419 -0.175162 0.880000 8270902
-0.222172 -0.171487 0.887000 8590112
-0.222172 -0.166418 0.887000 9185064
-0.222673 -0.161713 0.889000 8809062
-0.223174 -0.156986 0.891000 10381905
-0.224427 -0.152747 0.896000 12164508
-0.224928 -0.147956 0.898000 10505038
-0.226180 -0.143620 0.903000 9446427
-0.226681 -0.138767 0.905000 9711159
-0.228685 -0.134776 0.913000 10385179
-0.228685 -0.129559 0.913000 8287308
-0.212777 -0.199733 0.856000 4133651
-0.214269 -0.196208 0.862000 8659472
-0.215014 -0.191948 0.865000 10973764
-0.216506 -0.188302 0.871000 11307871
-0.217500 -0.184167 0.875000 11571265
-0.218743 -0.180190 0.880000 8275256
-0.219240 -0.175560 0.882000 8067884
-0.220980 -0.171873 0.889000 8787995
-0.220980 -0.166793 0.889000 9778217
-0.221477 -0.162077 0.891000 9070425
-0.222223 -0.157514 0.894000 11429704
-0.223217 -0.153088 0.898000 11625047
-0.223963 -0.148450 0.901000 8847656
-0.224957 -0.143938 0.905000 9379866
-0.226200 -0.139533 0.910000 9712439
-0.227443 -0.135071 0.915000 10384678
-0.227443 -0.129843 0.915000 5794343
-0.212627 -0.196208 0.862000 4850463
-0.213367 -0.191948 0.865000 9926788
-0.215340 -0.188734 0.873000 11568983
-0.216573 -0.184798 0.878000 10646594
-0.217067 -0.180190 0.880000 8655162
-0.218053 -0.175958 0.884000 9056290
-0.219287 -0.171873 0.889000 9051670
-0.221013 -0.168107 0.896000 9123625
-0.221013 -0.162987 0.896000 8674637
-0.221013 -0.157867 0.896000 9381950
-0.222247 -0.153599 0.901000 9961746
-0.222247 -0.148450 0.901000 9047809
-0.223973 -0.144415 0.908000 9379610
-0.225207 -0.139993 0.913000 10312759
-0.225700 -0.135071 0.915000 10714161
-0.225700 -0.129843 0.915000 3879425
-0.210985 -0.196208 0.862000 1050416
-0.211719 -0.191948 0.865000 8939587
-0.213677 -0.188734 0.873000 11826236
-0.214901 -0.184798 0.878000 9787959
-0.215880 -0.180600 0.882000 9057087
-0.217104 -0.176555 0.887000 10108728
-0.218083 -0.172260 0.891000 9261359
-0.219796 -0.168482 0.898000 8528443
-0.219796 -0.163350 0.898000 8210501
-0.220530 -0.158748 0.901000 7276065
-0.221510 -0.154281 0.905000 8340016
-0.221510 -0.149110 0.905000 9254726
-0.222733 -0.144733 0.910000 9391420
-0.223468 -0.139993 0.913000 10844739
-0.224447 -0.135367 0.917000 10972722
-0.223957 -0.129843 0.915000 2031879
-0.212014 -0.188734 0.873000 6429985
-0.214686 -0.186061 0.884000 7218731
-0.214686 -0.181010 0.884000 8866884
-0.215900 -0.176953 0.889000 11106638
-0.216386 -0.172260 0.891000 11248200
-0.218086 -0.168482 0.898000 9917261
-0.218814 -0.163896 0.901000 9058876
-0.219786 -0.159452 0.905000 8858628
-0.220514 -0.154792 0.908000 11121741
-0.220514 -0.149604 0.908000 11310987
-0.221000 -0.144733 0.910000 10848351
-0.221729 -0.139993 0.913000 10190414
-0.222700 -0.135367 0.917000 5718323
-0.222700 -0.130127 0.917000 2559244
-0.213002 -0.186061 0.884000 4723249
-0.213002 -0.181010 0.884000 8597803
-0.214207 -0.176953 0.889000 12095030
-0.214689 -0.172260 0.891000 13144910
-0.216375 -0.168482 0.898000 11305054
-0.216375 -0.163350 0.898000 9855062
-0.218785 -0.159981 0.908000 10378297
-0.218785 -0.154792 0.908000 13872203
-0.218785 -0.149604 0.908000 13414519
-0.219267 -0.144733 0.910000 12288565
-0.220471 -0.140300 0.915000 9531689
-0.220953 -0.135367 0.917000 400937
-0.211318 -0.186061 0.884000 5711414
-0.211318 -0.181010 0.884000 5308689
-0.212513 -0.176953 0.889000 6634014
-0.212991 -0.172260 0.891000 9007443
-0.215382 -0.169045 0.901000 9534063
-0.215860 -0.164260 0.903000 9607023
-0.218250 -0.160862 0.913000 9861485
-0.217533 -0.155133 0.910000 10985033
-0.218250 -0.150428 0.913000 10385251
-0.218250 -0.145210 0.913000 7562251
-0.219207 -0.140607 0.917000 5382916
-0.219207 -0.135367 0.917000 2166047
-0.209634 -0.181010 0.884000 2044236
-0.210820 -0.176953 0.889000 1120835
-0.211294 -0.172260 0.891000 4858953
-0.213666 -0.169045 0.901000 7690305
-0.214140 -0.164260 0.903000 9262137
-0.216511 -0.160862 0.913000 9327672
-0.215800 -0.155133 0.910000 8075045
-0.215800 -0.149933 0.910000 7345970
-0.216986 -0.145529 0.915000 2828302
-0.217460 -0.140607 0.917000 1248526
-0.217460 -0.135367 0.917000 3937305
-0.209127 -0.176953 0.889000 5657959
-0.209597 -0.172260 0.891000 6620223
-0.211950 -0.169045 0.901000 6630674
-0.209597 -0.162077 0.891000 5636355
-0.214772 -0.160862 0.913000 5118978
-0.214067 -0.155133 0.910000 4260097
-0.214067 -0.149933 0.910000 4197889
-0.215243 -0.145529 0.915000 2952209
-0.215713 -0.140607 0.917000 2037016
-0.215713 -0.135367 0.917000 4002835
-0.207900 -0.162077 0.891000 1981256
-0.212333 -0.155133 0.910000 403259
-0.212333 -0.149933 0.910000 1121845
-0.262913 -0.250860 0.791000 10906961
-0.262913 -0.246340 0.791000 11369305
-0.262068 -0.251494 0.793000 9577502
-0.261407 -0.246340 0.791000 9588782
-0.261407 -0.241820 0.791000 9919829
-0.262857 -0.258286 0.800000 8914749
-0.260557 -0.251494 0.793000 8323619
-0.259900 -0.246340 0.791000 7804197
-0.260557 -0.242431 0.793000 8064557
-0.261333 -0.258286 0.800000 9307441
-0.259047 -0.251494 0.793000 8915495
-0.258393 -0.246340 0.791000 8192797
-0.258393 -0.241820 0.791000 7800068
-0.259700 -0.238500 0.795000 7996674
-0.260353 -0.234546 0.797000 8664071
-0.274727 -0.185020 0.841000 4587777
-0.260459 -0.263514 0.802000 9634077
-0.259810 -0.258286 0.800000 9702704
-0.256887 -0.250860 0.791000 9506352
-0.255912 -0.245406 0.788000 8520733
-0.256887 -0.241820 0.791000 7603209
-0.258186 -0.238500 0.795000 6555146
-0.259160 -0.234840 0.798000 6292240
-0.269228 -0.201329 0.829000 591117
-0.270527 -0.197540 0.833000 723216
-0.271176 -0.193243 0.835000 787982
-0.272475 -0.189374 0.839000 525328
-0.273125 -0.185020 0.841000 525837
-0.273774 -0.171009 0.843000 525329
-0.277996 -0.168754 0.856000 264469
-0.279945 -0.160086 0.862000 792089
-0.258931 -0.263514 0.802000 9570341
-0.258286 -0.258286 0.800000 9637679
-0.256671 -0.252129 0.795000 9703480
-0.254411 -0.245406 0.788000 8782878
-0.254734 -0.241209 0.789000 7799822
-0.256026 -0.237900 0.793000 6948369
-0.257640 -0.234840 0.798000 6621209
-0.258286 -0.230857 0.800000 6750467
-0.258931 -0.226851 0.802000 7147521
-0.267003 -0.205569 0.827000 985114
-0.267649 -0.201329 0.829000 1116696
-0.268294 -0.197066 0.831000 1248287
-0.268940 -0.192780 0.833000 1248539
-0.269586 -0.188471 0.835000 1116702
-0.271523 -0.185020 0.841000 1117722
-0.275074 -0.172834 0.852000 1313566
-0.276366 -0.168754 0.856000 987173
-0.277011 -0.164246 0.858000 1116676
-0.278303 -0.160086 0.862000 1507842
-0.279271 -0.155700 0.865000 2884354
-0.279917 -0.151106 0.867000 3735809
-0.281209 -0.146826 0.871000 4461569
-0.281854 -0.142174 0.873000 5644804
-0.257404 -0.263514 0.802000 9570862
-0.256762 -0.258286 0.800000 9572142
-0.255157 -0.252129 0.795000 9965616
-0.252910 -0.245406 0.788000 8980253
-0.253231 -0.241209 0.789000 7995916
-0.254515 -0.237900 0.793000 7341326
-0.255799 -0.234546 0.797000 6948625
-0.256762 -0.230857 0.800000 6882825
-0.257404 -0.226851 0.802000 6620426
-0.263502 -0.213460 0.821000 2034183
-0.264786 -0.209786 0.825000 1640720
-0.265428 -0.205569 0.827000 1508626
-0.266070 -0.201329 0.829000 1574930
-0.266711 -0.197066 0.831000 1837590
-0.267353 -0.192780 0.833000 1706774
-0.267353 -0.188020 0.833000 1640729
-0.268637 -0.184140 0.837000 1707028
-0.269921 -0.180214 0.841000 1772559
-0.269921 -0.175409 0.841000 1772821
-0.270563 -0.171009 0.843000 2100759
-0.274093 -0.168360 0.854000 1707034
-0.275377 -0.164246 0.858000 2035723
-0.276661 -0.160086 0.862000 2230792
-0.277624 -0.155700 0.865000 1837323
-0.278266 -0.151106 0.867000 919306
-0.279550 -0.146826 0.871000 918798
-0.280191 -0.142174 0.873000 658963
-0.255876 -0.263514 0.802000 9571126
-0.255238 -0.258286 0.800000 9571886
-0.254281 -0.252763 0.797000 9835048
-0.252367 -0.246340 0.791000 9243421
-0.251410 -0.240903 0.788000 8192522
-0.253005 -0.237900 0.793000 7602955
-0.253643 -0.233957 0.795000 7079177
-0.255238 -0.230857 0.800000 6752016
-0.255876 -0.226851 0.802000 6751762
-0.257152 -0.223377 0.806000 6491148
-0.260662 -0.221757 0.817000 2361873
-0.261938 -0.213460 0.821000 1509386
-0.263214 -0.209786 0.825000 1377799
-0.263852 -0.205569 0.827000 1246474
-0.263852 -0.200843 0.827000 1247245
-0.265129 -0.197066 0.831000 1444108
-0.265767 -0.192780 0.833000 1509649
-0.265767 -0.188020 0.833000 1378835
-0.267043 -0.184140 0.837000 1509902
-0.267043 -0.179357 0.837000 1575689
-0.268319 -0.175409 0.841000 1575695
-0.269595 -0.171414 0.845000 1903632
-0.272467 -0.168360 0.854000 1772048
-0.273743 -0.164246 0.858000 1707537
-0.274381 -0.159714 0.860000 1903631
-0.275976 -0.155700 0.865000 1772564
-0.276614 -0.151106 0.867000 1248787
-0.277252 -0.146489 0.869000 1444634
-0.277890 -0.141849 0.871000 1445409
-0.278529 -0.137186 0.873000 2622981
-0.281400 -0.133560 0.882000 4588548
-0.254349 -0.263514 0.802000 9637932
-0.253714 -0.258286 0.800000 9572141
-0.252763 -0.252763 0.797000 9703715
-0.250226 -0.245717 0.789000 9440547
-0.249909 -0.240903 0.788000 8454672
-0.250860 -0.237300 0.791000 7864843
-0.251494 -0.233369 0.793000 7209990
-0.253080 -0.230280 0.798000 6620431
-0.254349 -0.226851 0.802000 6816527
-0.255617 -0.223377 0.806000 6686986
-0.256886 -0.219857 0.810000 2295568
-0.258471 -0.216557 0.815000 1116174
-0.259740 -0.212940 0.819000 984074
-0.260374 -0.208769 0.821000 1115912
-0.261643 -0.205071 0.825000 984327
-0.262277 -0.200843 0.827000 919820
-0.263546 -0.197066 0.831000 1051145
-0.263546 -0.192317 0.831000 1247758
-0.264180 -0.188020 0.833000 1117200
-0.264180 -0.183260 0.833000 1247757
-0.265449 -0.179357 0.837000 1444876
-0.266717 -0.175409 0.841000 1313808
-0.266717 -0.170603 0.841000 1706768
-0.269571 -0.167571 0.850000 1772050
-0.271474 -0.163863 0.856000 1380369
-0.273377 -0.160086 0.862000 1576722
-0.273377 -0.155160 0.862000 1772823
-0.274963 -0.151106 0.867000 1510935
-0.275597 -0.146489 0.869000 1969427
-0.276231 -0.141849 0.871000 2232346
-0.277500 -0.137500 0.875000 2035213
-0.281306 -0.134317 0.887000 1772815
-0.282574 -0.129831 0.891000 2626848
-0.252821 -0.263514 0.802000 9637666
-0.252190 -0.258286 0.800000 9572395
-0.251245 -0.252763 0.797000 9638430
-0.248723 -0.245717 0.789000 9834537
-0.248408 -0.240903 0.788000 8716821
-0.248723 -0.236700 0.789000 8126987
-0.249984 -0.233369 0.793000 7406339
-0.251560 -0.230280 0.798000 7013389
-0.252190 -0.226286 0.800000 7078924
-0.253451 -0.222823 0.804000 6753033
-0.254712 -0.219314 0.808000 2951183
-0.255973 -0.215760 0.812000 984844
-0.257550 -0.212420 0.817000 919049
-0.258180 -0.208260 0.819000 1050377
-0.259441 -0.204574 0.823000 919300
-0.260071 -0.200357 0.825000 919819
-0.261332 -0.196591 0.829000 1051141
-0.261332 -0.191854 0.829000 1182475
-0.261963 -0.187569 0.831000 1116941
-0.262593 -0.183260 0.833000 1444364
-0.263854 -0.179357 0.837000 1444878
-0.265115 -0.175409 0.841000 1509905
-0.265746 -0.171009 0.843000 1772304
-0.267952 -0.167571 0.850000 2033940
-0.270474 -0.164246 0.858000 1314065
-0.271105 -0.159714 0.860000 1380118
-0.271735 -0.155160 0.862000 1379098
-0.273311 -0.151106 0.867000 1118235
-0.274572 -0.146826 0.871000 1773323
-0.274572 -0.141849 0.871000 1970450
-0.275833 -0.137500 0.875000 1969940
-0.278670 -0.133863 0.884000 1970203
-0.280877 -0.129831 0.891000 2756910
-0.280877 -0.124740 0.891000 5709587
-0.251293 -0.263514 0.802000 9638182
-0.250667 -0.258286 0.800000 9507117
-0.249727 -0.252763 0.797000 9638436
-0.247220 -0.245717 0.789000 10162215
-0.246907 -0.240903 0.788000 8978965
-0.247220 -0.236700 0.789000 8323593
-0.247847 -0.232780 0.791000 7668230
-0.249727 -0.229991 0.797000 7406606
-0.250667 -0.226286 0.800000 7275530
-0.251920 -0.222823 0.804000 6817803
-0.253173 -0.219314 0.808000 3606283
-0.253800 -0.215229 0.810000 788238
-0.255993 -0.212420 0.817000 788231
-0.255993 -0.207751 0.817000 919562
-0.257873 -0.204574 0.823000 919559
-0.258500 -0.200357 0.825000 919819
-0.259127 -0.196117 0.827000 1051145
-0.259753 -0.191854 0.829000 1116683
-0.260380 -0.187569 0.831000 1051146
-0.261007 -0.183260 0.833000 1640972
-0.262260 -0.179357 0.837000 1510415
-0.262887 -0.174991 0.839000 1707283
-0.264140 -0.171009 0.843000 1903125
-0.266333 -0.167571 0.850000 2230555
-0.266960 -0.163097 0.852000 1247516
-0.268840 -0.159343 0.858000 1116959
-0.269467 -0.154800 0.860000 983827
-0.271033 -0.150757 0.865000 657423
-0.272287 -0.146489 0.869000 1510662
-0.272913 -0.141849 0.871000 1642250
-0.274167 -0.137500 0.875000 1970960
-0.276987 -0.133863 0.884000 2167064
-0.279180 -0.129831 0.891000 2888476
-0.279180 -0.124740 0.891000 3283482
-0.250389 -0.264171 0.804000 9638698
-0.249766 -0.258931 0.802000 9638446
-0.248209 -0.252763 0.797000 9639210
-0.245717 -0.245717 0.789000 9965861
-0.244783 -0.240291 0.786000 9176084
-0.245717 -0.236700 0.789000 8520200
-0.245717 -0.232191 0.789000 7864841
-0.248209 -0.229991 0.797000 7668751
-0.249143 -0.226286 0.800000 7472391
-0.250389 -0.222823 0.804000 7145230
-0.251634 -0.219314 0.808000 4197127
-0.251634 -0.214697 0.808000 853519
-0.253503 -0.211640 0.814000 854020
-0.253814 -0.207243 0.815000 919562
-0.255683 -0.204077 0.821000 919561
-0.256929 -0.200357 0.825000 919307
-0.256929 -0.195643 0.825000 1051148
-0.258174 -0.191854 0.829000 1116428
-0.258797 -0.187569 0.831000 1116935
-0.260043 -0.183700 0.835000 1706508
-0.260666 -0.179357 0.837000 1772559
-0.261289 -0.174991 0.839000 1509909
-0.261911 -0.170603 0.841000 1574937
-0.264091 -0.167177 0.848000 2688801
-0.265337 -0.163097 0.852000 3474983
-0.266583 -0.158971 0.856000 3868712
-0.267829 -0.154800 0.860000 4000780
-0.270009 -0.151106 0.867000 3539460
-0.271254 -0.146826 0.871000 2033409
-0.271254 -0.141849 0.871000 918530
-0.274057 -0.138286 0.880000 1248011
-0.275303 -0.133863 0.884000 1905174
-0.276860 -0.129540 0.889000 2232330
-0.277483 -0.124740 0.891000 3018017
-0.277483 -0.119649 0.891000 5187611
-0.249476 -0.264829 0.806000 9704745
-0.248238 -0.258931 0.802000 9704494
-0.246690 -0.252763 0.797000 9639469
-0.245452 -0.246963 0.793000 9769253
-0.243905 -0.240903 0.788000 9372439
-0.243905 -0.236400 0.788000 8716810
-0.244214 -0.232191 0.789000 8126984
-0.246690 -0.229991 0.797000 7930892
-0.247619 -0.226286 0.800000 7734280
-0.248238 -0.222269 0.802000 7472396
-0.250095 -0.219314 0.808000 4788237
-0.250714 -0.215229 0.810000 919059
-0.251952 -0.211640 0.814000 920071
-0.252262 -0.207243 0.815000 919310
-0.252881 -0.203083 0.817000 854281
-0.254738 -0.199871 0.823000 919560
-0.255357 -0.195643 0.825000 1050893
-0.256595 -0.191854 0.829000 1116685
-0.257214 -0.187569 0.831000 1248267
-0.257833 -0.183260 0.833000 1706766
-0.259071 -0.179357 0.837000 2034714
-0.259690 -0.174991 0.839000 1312538
-0.260929 -0.171009 0.843000 1245970
-0.262476 -0.167177 0.848000 3083798
-0.264952 -0.163863 0.856000 5767962
-0.265571 -0.159343 0.858000 6557724
-0.266810 -0.155160 0.862000 6952221
-0.268357 -0.151106 0.867000 6435101
-0.270214 -0.147163 0.873000 2493224
-0.270214 -0.142174 0.873000 138543
-0.272381 -0.138286 0.880000 524551
-0.273619 -0.133863 0.884000 1641998
-0.275167 -0.129540 0.889000 1577232
-0.275786 -0.124740 0.891000 2690843
-0.275786 -0.119649 0.891000 3347744
-0.249171 -0.266143 0.810000 9638951
-0.247326 -0.259577 0.804000 9376558
-0.245480 -0.253080 0.798000 9639727
-0.243327 -0.246340 0.791000 9835046
-0.241789 -0.240291 0.786000 9438490
-0.242404 -0.236400 0.788000 8847629
-0.243327 -0.232780 0.791000 8258055
-0.244557 -0.229414 0.795000 8061706
-0.245480 -0.225720 0.798000 7799561
-0.247326 -0.222823 0.804000 7668747
-0.248556 -0.219314 0.808000 5573907
-0.249171 -0.215229 0.810000 722199
-0.250402 -0.211640 0.814000 919562
-0.250710 -0.207243 0.815000 919315
-0.251325 -0.203083 0.817000 854025
-0.253170 -0.199871 0.823000 919814
-0.253786 -0.195643 0.825000 1051149
-0.255016 -0.191854 0.829000 1182735
-0.255631 -0.187569 0.831000 1575694
-0.256247 -0.183260 0.833000 1444625
-0.258092 -0.179786 0.839000 2033188
-0.258092 -0.174991 0.839000 3933472
-0.259323 -0.171009 0.843000 4788491
-0.261476 -0.167571 0.850000 6237451
-0.262707 -0.163480 0.854000 7741964
-0.263937 -0.159343 0.858000 8072977
-0.265168 -0.155160 0.862000 8269870
-0.266706 -0.151106 0.867000 8739383
-0.267936 -0.146826 0.871000 7958350
-0.269167 -0.142500 0.875000 6122589
-0.270705 -0.138286 0.880000 3220482
-0.271935 -0.133863 0.884000 852742
-0.272858 -0.129249 0.887000 1380629
-0.274089 -0.124740 0.891000 2232084
-0.274089 -0.119649 0.891000 3084836
-0.247629 -0.266143 0.810000 9573162
-0.246406 -0.260223 0.806000 9048876
-0.243960 -0.253080 0.798000 9639214
-0.241820 -0.246340 0.791000 9835049
-0.240903 -0.240903 0.788000 9503516
-0.240903 -0.236400 0.788000 8913166
-0.241820 -0.232780 0.791000 8389127
-0.243043 -0.229414 0.795000 8126986
-0.243960 -0.225720 0.798000 7930377
-0.245183 -0.222269 0.802000 7865355
-0.246406 -0.218771 0.806000 6359057
-0.247629 -0.215229 0.810000 460308
-0.248851 -0.211640 0.814000 919307
-0.249157 -0.207243 0.815000 919311
-0.249769 -0.203083 0.817000 854279
-0.250991 -0.199386 0.821000 920073
-0.251603 -0.195169 0.823000 1051406
-0.253437 -0.191854 0.829000 1248529
-0.254049 -0.187569 0.831000 1968662
-0.255271 -0.183700 0.835000 1116185
-0.256494 -0.179786 0.839000 2097433
-0.257106 -0.175409 0.841000 6555159
-0.258329 -0.171414 0.845000 8328723
-0.260469 -0.167966 0.852000 9314065
-0.261691 -0.163863 0.856000 9709846
-0.262303 -0.159343 0.858000 9579550
-0.263526 -0.155160 0.862000 9515566
-0.265666 -0.151454 0.869000 10968873
-0.266889 -0.147163 0.873000 13344830
