# .PCD v.7 - Point Cloud Data file format
VERSION .7
FIELDS x y z rgb
SIZE 4 4 4 4
TYPE F F F I
COUNT 1 1 1 1
WIDTH 1283
HEIGHT 1
POINTS 1283
DATA ascii
-0.300176 -0.206824 0.845000 10486816
-0.299466 -0.201517 0.843000 10683426
-0.301952 -0.198333 0.850000 10225434
-0.303373 -0.194387 0.854000 10227742
-0.303373 -0.189507 0.854000 4262440
-0.304794 -0.185491 0.858000 1840162
-0.304794 -0.180589 0.858000 1576214
-0.304084 -0.175276 0.856000 1379860
-0.305505 -0.171181 0.860000 1248528
-0.307991 -0.167620 0.867000 6030604
-0.308702 -0.163041 0.869000 10358120
-0.309412 -0.158439 0.871000 12418941
-0.310123 -0.153814 0.873000 11436938
-0.310123 -0.148826 0.873000 7995722
-0.310123 -0.143837 0.873000 11182878
-0.312610 -0.139962 0.880000 7874080
-0.314030 -0.135547 0.884000 10711347
-0.315096 -0.130938 0.887000 7340599
-0.316517 -0.126437 0.891000 8129045
-0.316517 -0.121346 0.891000 7935254
-0.317583 -0.116646 0.894000 6629390
-0.319004 -0.112036 0.898000 4738344
-0.320780 -0.107500 0.903000 4083491
-0.321490 -0.102567 0.905000 6955030
-0.322556 -0.097718 0.908000 8132108
-0.323267 -0.092733 0.910000 8134427
-0.324332 -0.087822 0.913000 7800323
-0.325043 -0.082786 0.915000 7867159
-0.301040 -0.228011 0.852000 11609927
-0.297860 -0.220786 0.843000 11338798
-0.297153 -0.215456 0.841000 11077160
-0.298567 -0.211652 0.845000 10683427
-0.299627 -0.207558 0.848000 10421269
-0.298567 -0.201995 0.845000 10552098
-0.301040 -0.198800 0.852000 10355992
-0.302453 -0.194842 0.856000 10294562
-0.301747 -0.189507 0.854000 4198958
-0.303160 -0.185491 0.858000 2037031
-0.302453 -0.180168 0.856000 1577237
-0.303160 -0.175686 0.858000 1510680
-0.303867 -0.171181 0.860000 1444625
-0.306340 -0.167620 0.867000 3145996
-0.307047 -0.163041 0.869000 10432889
-0.307753 -0.158439 0.871000 11483983
-0.308460 -0.153814 0.873000 10778241
-0.308460 -0.148826 0.873000 8323405
-0.309167 -0.144167 0.875000 11302671
-0.310933 -0.139962 0.880000 8061736
-0.311640 -0.135240 0.882000 11237219
-0.313407 -0.130938 0.887000 7799098
-0.314113 -0.126153 0.889000 8325662
-0.314820 -0.121346 0.891000 8196367
-0.315880 -0.116646 0.894000 7019527
-0.318353 -0.112410 0.901000 4346407
-0.319060 -0.107500 0.903000 3754016
-0.319767 -0.102567 0.905000 4924950
-0.320827 -0.097718 0.908000 7670550
-0.321533 -0.092733 0.910000 7865103
-0.322593 -0.087822 0.913000 7799811
-0.323300 -0.082786 0.915000 7604001
-0.299417 -0.228011 0.852000 11543106
-0.296957 -0.221310 0.845000 11404848
-0.296254 -0.215969 0.843000 11077419
-0.298011 -0.212404 0.848000 10617894
-0.298011 -0.207558 0.848000 10355738
-0.298011 -0.202712 0.848000 10421538
-0.300120 -0.199267 0.854000 10421270
-0.300120 -0.194387 0.854000 10293535
-0.300823 -0.189950 0.856000 4200242
-0.301526 -0.185491 0.858000 2235187
-0.301526 -0.180589 0.858000 1643034
-0.301526 -0.175686 0.858000 1576728
-0.302229 -0.171181 0.860000 1642001
-0.304689 -0.167620 0.867000 263182
-0.305391 -0.163041 0.869000 10554175
-0.306094 -0.158439 0.871000 10507342
-0.306797 -0.153814 0.873000 10177654
-0.307500 -0.149167 0.875000 8651854
-0.308554 -0.144661 0.878000 11440923
-0.309960 -0.140280 0.882000 8203064
-0.310663 -0.135547 0.884000 11762006
-0.311717 -0.130938 0.887000 8197162
-0.312420 -0.126153 0.889000 8587795
-0.313123 -0.121346 0.891000 8392978
-0.314177 -0.116646 0.894000 7475482
-0.315583 -0.112036 0.898000 3886634
-0.317340 -0.107500 0.903000 3491108
-0.318043 -0.102567 0.905000 2894871
-0.319097 -0.097718 0.908000 7212566
-0.319800 -0.092733 0.910000 7610658
-0.320854 -0.087822 0.913000 7801120
-0.321557 -0.082786 0.915000 7280157
-0.296396 -0.222095 0.848000 11339827
-0.295348 -0.216481 0.845000 11012142
-0.296396 -0.212404 0.848000 10683689
-0.297095 -0.208048 0.850000 10421790
-0.297794 -0.203669 0.852000 10421794
-0.299192 -0.199733 0.856000 10355987
-0.299192 -0.194842 0.856000 10226973
-0.299192 -0.189950 0.856000 3809334
-0.299891 -0.185491 0.858000 2564671
-0.299891 -0.180589 0.858000 1905439
-0.300590 -0.176095 0.860000 1642775
-0.301290 -0.171579 0.862000 1641745
-0.303037 -0.167620 0.867000 590352
-0.303736 -0.163041 0.869000 9307908
-0.304435 -0.158439 0.871000 9857870
-0.305833 -0.154167 0.875000 10047339
-0.306882 -0.149678 0.878000 8716623
-0.306882 -0.144661 0.878000 11437350
-0.308280 -0.140280 0.882000 8258121
-0.308979 -0.135547 0.884000 11434568
-0.310028 -0.130938 0.887000 8061209
-0.310727 -0.126153 0.889000 8587784
-0.311426 -0.121346 0.891000 8589332
-0.312474 -0.116646 0.894000 7482156
-0.313872 -0.112036 0.898000 4346413
-0.315620 -0.107500 0.903000 3226920
-0.316319 -0.102567 0.905000 3025944
-0.317368 -0.097718 0.908000 6045974
-0.318067 -0.092733 0.910000 7956788
-0.319115 -0.087822 0.913000 7625532
-0.319814 -0.082786 0.915000 6696217
-0.295476 -0.222619 0.850000 11207739
-0.293738 -0.216481 0.845000 10946856
-0.295476 -0.212905 0.850000 10749733
-0.296171 -0.208537 0.852000 10553642
-0.296867 -0.204147 0.854000 10422311
-0.297562 -0.199733 0.856000 10224664
-0.298257 -0.195297 0.858000 10095136
-0.298257 -0.190394 0.858000 3483701
-0.298257 -0.185491 0.858000 2893114
-0.298257 -0.180589 0.858000 2102567
-0.298952 -0.176095 0.860000 1642780
-0.300690 -0.172176 0.865000 1641750
-0.301386 -0.167620 0.867000 919060
-0.302081 -0.163041 0.869000 8064518
-0.303471 -0.158803 0.873000 9182258
-0.304167 -0.154167 0.875000 9923139
-0.305210 -0.149678 0.878000 8788525
-0.305905 -0.144990 0.880000 11502639
-0.307295 -0.140598 0.884000 8330564
-0.307295 -0.135547 0.884000 11171133
-0.307295 -0.130495 0.884000 7933478
-0.309033 -0.126153 0.889000 8654111
-0.309729 -0.121346 0.891000 8719122
-0.311467 -0.116907 0.896000 7482936
-0.313205 -0.112410 0.901000 4741435
-0.313900 -0.107500 0.903000 2897198
-0.314595 -0.102567 0.905000 3092516
-0.316333 -0.097933 0.910000 4872741
-0.316333 -0.092733 0.910000 8221231
-0.318071 -0.088014 0.915000 7371058
-0.318071 -0.082786 0.915000 6042655
-0.293857 -0.222619 0.850000 11272516
-0.291437 -0.215969 0.843000 10749985
-0.292129 -0.211652 0.845000 10552354
-0.293857 -0.208048 0.850000 10422326
-0.294549 -0.203669 0.852000 10488620
-0.295931 -0.199733 0.856000 10291485
-0.295931 -0.194842 0.856000 8654372
-0.297314 -0.190838 0.860000 3155252
-0.296623 -0.185491 0.858000 2959158
-0.296623 -0.180589 0.858000 2365742
-0.296623 -0.175686 0.858000 1904929
-0.298006 -0.171579 0.862000 1707802
-0.299734 -0.167620 0.867000 1509143
-0.299734 -0.162666 0.867000 6490119
-0.301117 -0.158439 0.871000 9175318
-0.301809 -0.153814 0.873000 9509914
-0.303537 -0.149678 0.878000 8651019
-0.303537 -0.144661 0.878000 12029752
-0.304229 -0.139962 0.880000 9504575
-0.305611 -0.135547 0.884000 11237170
-0.306649 -0.130938 0.887000 9830706
-0.306649 -0.125870 0.887000 9718070
-0.308031 -0.121346 0.891000 8717584
-0.309760 -0.116907 0.896000 7744579
-0.311489 -0.112410 0.901000 4807753
-0.312180 -0.107500 0.903000 3356467
-0.312871 -0.102567 0.905000 3355185
-0.314600 -0.097933 0.910000 5396275
-0.314600 -0.092733 0.910000 7892779
-0.315637 -0.087822 0.913000 7489576
-0.317020 -0.082967 0.917000 7217190
-0.289831 -0.215969 0.843000 10491231
-0.289831 -0.211151 0.843000 10296149
-0.292238 -0.208048 0.850000 10356532
-0.293613 -0.204147 0.854000 10488610
-0.294301 -0.199733 0.856000 10423321
-0.294989 -0.195297 0.858000 7146538
-0.295676 -0.190838 0.860000 2827316
-0.294989 -0.185491 0.858000 3023411
-0.294989 -0.180589 0.858000 2628914
-0.295676 -0.176095 0.860000 2102563
-0.296364 -0.171579 0.862000 1774106
-0.298083 -0.167620 0.867000 2034968
-0.298083 -0.162666 0.867000 4916241
-0.298770 -0.158075 0.869000 9111826
-0.300146 -0.153814 0.873000 9109787
-0.300833 -0.149167 0.875000 8528142
-0.301865 -0.144661 0.878000 12560699
-0.303240 -0.140280 0.882000 10706991
-0.303240 -0.135240 0.882000 11307810
-0.303928 -0.130495 0.884000 11756109
-0.304959 -0.125870 0.887000 10783578
-0.306334 -0.121346 0.891000 8655392
-0.307366 -0.116646 0.894000 8065355
-0.308053 -0.111787 0.896000 4876101
-0.309772 -0.107262 0.901000 3815484
-0.310460 -0.102340 0.903000 3550763
-0.312179 -0.097718 0.908000 5851421
-0.312179 -0.092530 0.908000 7556139
-0.313898 -0.087822 0.913000 7611434
-0.315273 -0.082967 0.917000 8394013
-0.288226 -0.211151 0.843000 11099016
-0.291303 -0.208537 0.852000 10625586
-0.291303 -0.203669 0.852000 10289433
-0.293354 -0.200200 0.858000 10096148
-0.292670 -0.194842 0.856000 4850479
-0.294038 -0.190838 0.860000 2892083
-0.294038 -0.185924 0.860000 2957617
-0.294038 -0.181010 0.860000 2694966
-0.294038 -0.176095 0.860000 2234148
-0.294038 -0.171181 0.860000 1905946
-0.296431 -0.167620 0.867000 2166809
-0.296431 -0.162666 0.867000 3671835
-0.297799 -0.158439 0.871000 9506319
-0.299167 -0.154167 0.875000 9241372
-0.300192 -0.149678 0.878000 10096401
-0.300192 -0.144661 0.878000 12162366
-0.301560 -0.140280 0.882000 10978846
-0.302244 -0.135547 0.884000 11431186
-0.302244 -0.130495 0.884000 13157992
-0.303270 -0.125870 0.887000 12364158
-0.304637 -0.121346 0.891000 9388337
-0.305663 -0.116646 0.894000 8342610
-0.306347 -0.111787 0.896000 5469505
-0.308056 -0.107262 0.901000 4344644
-0.308740 -0.102340 0.903000 5776934
-0.310450 -0.097718 0.908000 7413510
-0.310450 -0.092530 0.908000 8463148
-0.312159 -0.087822 0.913000 8132139
-0.313527 -0.082967 0.917000 8652820
-0.289680 -0.208537 0.852000 10909303
-0.291040 -0.204625 0.856000 10037849
-0.291720 -0.200200 0.858000 9833036
-0.290360 -0.194387 0.854000 2559017
-0.293080 -0.191282 0.862000 3022647
-0.293080 -0.186356 0.862000 2891312
-0.293080 -0.181430 0.862000 2825776
-0.293080 -0.176505 0.862000 2365989
-0.294100 -0.172176 0.865000 2103071
-0.296140 -0.168393 0.871000 2233370
-0.294780 -0.162666 0.867000 2428441
-0.296820 -0.158803 0.873000 9898516
-0.297500 -0.154167 0.875000 9438743
-0.297500 -0.149167 0.875000 11680783
-0.299200 -0.144990 0.880000 11699537
-0.299880 -0.140280 0.882000 11159069
-0.300560 -0.135547 0.884000 11628810
-0.301580 -0.130938 0.887000 14529625
-0.302260 -0.126153 0.889000 13873476
-0.302940 -0.121346 0.891000 10048060
-0.303960 -0.116646 0.894000 8556109
-0.304640 -0.111787 0.896000 5987641
-0.306340 -0.107262 0.901000 4872494
-0.307700 -0.102567 0.905000 8005150
-0.308720 -0.097718 0.908000 9045780
-0.308720 -0.092530 0.908000 9383989
-0.310420 -0.087822 0.913000 8653864
-0.311780 -0.082967 0.917000 8849177
-0.289410 -0.204625 0.856000 11105178
-0.290762 -0.200667 0.860000 9913988
-0.288733 -0.194387 0.854000 2099748
-0.292452 -0.191948 0.865000 2759995
-0.292452 -0.187005 0.865000 2825263
-0.292452 -0.182062 0.865000 2562857
-0.292452 -0.177119 0.865000 2366503
-0.293129 -0.172574 0.867000 2234403
-0.294481 -0.168393 0.871000 2233627
-0.293805 -0.163041 0.869000 2559767
-0.295157 -0.158803 0.873000 6160665
-0.295833 -0.154167 0.875000 9702417
-0.295833 -0.149167 0.875000 11817741
-0.297524 -0.144990 0.880000 11696227
-0.298200 -0.140280 0.882000 10223901
-0.298876 -0.135547 0.884000 11954689
-0.300567 -0.131233 0.889000 13273417
-0.300567 -0.126153 0.889000 13146633
-0.301243 -0.121346 0.891000 9194824
-0.302257 -0.116646 0.894000 8552007
-0.302933 -0.111787 0.896000 7482674
-0.304624 -0.107262 0.901000 5856279
-0.305976 -0.102567 0.905000 8395798
-0.307667 -0.097933 0.910000 10370337
-0.306990 -0.092530 0.908000 10111549
-0.308681 -0.087822 0.913000 8849956
-0.310033 -0.082967 0.917000 8979230
-0.289124 -0.200667 0.860000 10062755
-0.287107 -0.194387 0.854000 1651292
-0.290805 -0.191948 0.865000 2561586
-0.291477 -0.187437 0.867000 2695215
-0.291477 -0.182483 0.867000 2299689
-0.291477 -0.177529 0.867000 2365984
-0.292150 -0.172972 0.869000 2300453
-0.292822 -0.168393 0.871000 2168606
-0.292822 -0.163416 0.871000 2692125
-0.293494 -0.158803 0.873000 2426906
-0.294167 -0.154167 0.875000 9966873
-0.295175 -0.149678 0.878000 11954473
-0.297192 -0.145650 0.884000 11765097
-0.296520 -0.140280 0.882000 9242139
-0.298201 -0.136007 0.887000 12353851
-0.298873 -0.131233 0.889000 12030528
-0.298873 -0.126153 0.889000 12483116
-0.299546 -0.121346 0.891000 8284224
-0.300554 -0.116646 0.894000 8612156
-0.301899 -0.112036 0.898000 8983085
-0.302908 -0.107262 0.901000 6839869
-0.305261 -0.102907 0.908000 8789032
-0.305933 -0.097933 0.910000 11695195
-0.305261 -0.092530 0.908000 10843753
-0.306942 -0.087822 0.913000 9046045
-0.308287 -0.082967 0.917000 9111072
-0.289157 -0.191948 0.865000 3351848
-0.289826 -0.187437 0.867000 2499632
-0.289826 -0.182483 0.867000 2562345
-0.290494 -0.177938 0.869000 2037274
-0.291163 -0.173370 0.871000 2300710
-0.291831 -0.168780 0.873000 2299937
-0.291831 -0.163791 0.873000 2561827
-0.291831 -0.158803 0.873000 2755612
-0.292500 -0.154167 0.875000 7407649
-0.294171 -0.150019 0.880000 12295238
-0.294840 -0.145320 0.882000 11699823
-0.294840 -0.140280 0.882000 9503769
-0.296511 -0.136007 0.887000 12484725
-0.297180 -0.131233 0.889000 12416567
-0.297849 -0.126437 0.891000 12023375
-0.297849 -0.121346 0.891000 7760440
-0.299520 -0.116907 0.896000 9056305
-0.300189 -0.112036 0.898000 9439529
-0.301191 -0.107262 0.901000 7892834
-0.302529 -0.102567 0.905000 9830714
-0.304200 -0.097933 0.910000 12554132
-0.304200 -0.092733 0.910000 11380117
-0.305203 -0.087822 0.913000 9178901
-0.306540 -0.082967 0.917000 9373987
-0.288174 -0.187437 0.867000 2236990
-0.288174 -0.182483 0.867000 2825003
-0.288839 -0.177938 0.869000 1710374
-0.289504 -0.173370 0.871000 2366245
-0.290833 -0.169167 0.875000 2365731
-0.290833 -0.164167 0.875000 2365986
-0.290169 -0.158803 0.873000 3085089
-0.292495 -0.155048 0.880000 4916246
-0.292495 -0.150019 0.880000 12540207
-0.293825 -0.145650 0.884000 11639869
-0.293825 -0.140598 0.884000 9707810
-0.294822 -0.136007 0.887000 12630668
-0.296151 -0.131529 0.891000 12815925
-0.296151 -0.126437 0.891000 11556189
-0.296151 -0.121346 0.891000 7230775
-0.297813 -0.116907 0.896000 9503785
-0.299475 -0.112410 0.901000 9835812
-0.299475 -0.107262 0.901000 8947072
-0.301802 -0.102907 0.908000 10901066
-0.302467 -0.097933 0.910000 13412251
-0.302467 -0.092733 0.910000 11893376
-0.303464 -0.087822 0.913000 9312031
-0.304793 -0.082967 0.917000 9573661
-0.287184 -0.187870 0.869000 4139084
-0.286523 -0.182483 0.867000 2563372
-0.287845 -0.178348 0.871000 2366513
-0.289167 -0.169167 0.875000 2431781
-0.289167 -0.164167 0.875000 2497569
-0.290158 -0.159712 0.878000 2757926
-0.290819 -0.155048 0.880000 3214347
-0.291480 -0.150360 0.882000 9575961
-0.292141 -0.145650 0.884000 10960138
-0.292141 -0.140598 0.884000 11289131
-0.294454 -0.136620 0.891000 12621218
-0.294454 -0.131529 0.891000 13481524
-0.294454 -0.126437 0.891000 11037547
-0.295446 -0.121754 0.894000 8399158
-0.296768 -0.117168 0.898000 9836065
-0.297759 -0.112410 0.901000 10166560
-0.298420 -0.107500 0.903000 9536670
-0.299081 -0.102567 0.905000 11765850
-0.300733 -0.097933 0.910000 13675169
-0.300733 -0.092733 0.910000 11368044
-0.302386 -0.088014 0.915000 9508905
-0.302386 -0.082786 0.915000 9709335
-0.285529 -0.187870 0.869000 5987190
-0.284871 -0.182483 0.867000 2303311
-0.286843 -0.178757 0.873000 2955822
-0.288486 -0.169747 0.878000 2431784
-0.288486 -0.164730 0.878000 2628642
-0.288486 -0.159712 0.878000 2431783
-0.289800 -0.155400 0.882000 1579546
-0.289800 -0.150360 0.882000 6555932
-0.290457 -0.145650 0.884000 10289419
-0.290457 -0.140598 0.884000 12869951
-0.292757 -0.136620 0.891000 12615043
-0.292757 -0.131529 0.891000 14128462
-0.293743 -0.126863 0.894000 10594898
-0.293743 -0.121754 0.894000 9572666
-0.296043 -0.117559 0.901000 10164777
-0.296043 -0.112410 0.901000 10497323
-0.296700 -0.107500 0.903000 10199190
-0.298343 -0.102907 0.908000 12614222
-0.299000 -0.097933 0.910000 13936776
-0.299986 -0.093039 0.913000 10767176
-0.299986 -0.087822 0.913000 9772587
-0.300643 -0.082786 0.915000 9841441
-0.286813 -0.169747 0.878000 2628395
-0.286813 -0.164730 0.878000 2693922
-0.287467 -0.160076 0.880000 2497833
-0.288120 -0.155400 0.882000 2104104
-0.288773 -0.150701 0.884000 3932447
-0.288773 -0.145650 0.884000 9247500
-0.290407 -0.141393 0.889000 13731154
-0.291060 -0.136620 0.891000 13274467
-0.291060 -0.131529 0.891000 13078120
-0.292040 -0.126863 0.894000 10445112
-0.292693 -0.122027 0.896000 9834047
-0.294327 -0.117559 0.901000 10227505
-0.294980 -0.112660 0.903000 10762806
-0.294980 -0.107500 0.903000 10521485
-0.296613 -0.102907 0.908000 12285250
-0.297267 -0.097933 0.910000 12351086
-0.298247 -0.093039 0.913000 10430243
-0.298900 -0.088014 0.915000 9902124
-0.299553 -0.082967 0.917000 9901098
-0.285141 -0.169747 0.878000 2759724
-0.285141 -0.164730 0.878000 2758951
-0.285790 -0.160076 0.880000 2563623
-0.287090 -0.155752 0.884000 2629161
-0.287090 -0.150701 0.884000 1315107
-0.288064 -0.146144 0.887000 8197401
-0.288713 -0.141393 0.889000 14593380
-0.289363 -0.136620 0.891000 13924721
-0.289363 -0.131529 0.891000 11962971
-0.290337 -0.126863 0.894000 10371908
-0.291636 -0.122299 0.898000 10034493
-0.293260 -0.117820 0.903000 10289964
-0.293260 -0.112660 0.903000 10957609
-0.293260 -0.107500 0.903000 10858628
-0.294884 -0.102907 0.908000 11879481
-0.295533 -0.097933 0.910000 10758712
-0.296508 -0.093039 0.913000 10096659
-0.297807 -0.088207 0.917000 10098473
-0.297807 -0.082967 0.917000 9905960
-0.284760 -0.160440 0.882000 2498085
-0.285406 -0.155752 0.884000 2629161
-0.286374 -0.151212 0.887000 2038822
-0.286374 -0.146144 0.887000 4790566
-0.287020 -0.141393 0.889000 13618039
-0.287666 -0.136620 0.891000 14003839
-0.289280 -0.132267 0.896000 13149007
-0.289280 -0.127147 0.896000 10761551
-0.290894 -0.122708 0.901000 10962236
-0.291540 -0.117820 0.903000 10758439
-0.291540 -0.112660 0.903000 10754588
-0.291540 -0.107500 0.903000 10582394
-0.293154 -0.102907 0.908000 10952751
-0.293800 -0.097933 0.910000 10162177
-0.294769 -0.093039 0.913000 9699586
-0.295414 -0.088014 0.915000 9836325
-0.296060 -0.082967 0.917000 9909541
-0.283080 -0.160440 0.882000 2432554
-0.283722 -0.155752 0.884000 2694697
-0.284685 -0.151212 0.887000 2694436
-0.285327 -0.146473 0.889000 1379620
-0.285969 -0.141711 0.891000 12612668
-0.286931 -0.137080 0.894000 14146403
-0.287573 -0.132267 0.896000 14327638
-0.287573 -0.127147 0.896000 11208002
-0.289178 -0.122708 0.901000 11813947
-0.289820 -0.117820 0.903000 11228989
-0.289820 -0.112660 0.903000 10494770
-0.290462 -0.107738 0.905000 10385490
-0.291425 -0.102907 0.908000 10036019
-0.292067 -0.097933 0.910000 9636609
-0.293671 -0.093243 0.915000 9315617
-0.294313 -0.088207 0.917000 9638212
-0.295276 -0.083238 0.920000 9847359
-0.282038 -0.155752 0.884000 2628648
-0.282995 -0.151212 0.887000 2760227
-0.284271 -0.146803 0.891000 2167842
-0.284271 -0.141711 0.891000 6422786
-0.286505 -0.137693 0.898000 12562502
-0.286505 -0.132562 0.898000 13610334
-0.286505 -0.127430 0.898000 11215925
-0.287462 -0.122708 0.901000 11681594
-0.288100 -0.117820 0.903000 12350290
-0.288738 -0.112910 0.905000 11089992
-0.288738 -0.107738 0.905000 10110249
-0.290333 -0.103133 0.910000 10100534
-0.291290 -0.098256 0.913000 9635585
-0.291929 -0.093243 0.915000 12554815
-0.292567 -0.088207 0.917000 11560803
-0.293524 -0.083238 0.920000 11226457
-0.280354 -0.155752 0.884000 2562605
-0.281306 -0.151212 0.887000 2759715
-0.282574 -0.146803 0.891000 2890533
-0.283526 -0.142189 0.894000 198931
-0.284794 -0.137693 0.898000 11038244
-0.284794 -0.132562 0.898000 12877126
-0.284794 -0.127430 0.898000 11284537
-0.285746 -0.122708 0.901000 11555640
-0.286380 -0.117820 0.903000 13473110
-0.287014 -0.112910 0.905000 11690082
-0.287966 -0.108095 0.908000 9847351
-0.288600 -0.103133 0.910000 10171198
-0.289551 -0.098256 0.913000 9634054
-0.289551 -0.093039 0.913000 15707703
-0.290820 -0.088207 0.917000 13547927
-0.291771 -0.083238 0.920000 12551516
-0.280877 -0.146803 0.891000 2759463
-0.282453 -0.142507 0.896000 1642532
-0.283084 -0.137693 0.898000 5910273
-0.283084 -0.132562 0.898000 9131054
-0.283084 -0.127430 0.898000 11087676
-0.284660 -0.122980 0.903000 12543542
-0.285290 -0.118081 0.905000 14262105
-0.286236 -0.113284 0.908000 13339772
-0.286867 -0.108333 0.910000 10966852
-0.287812 -0.103473 0.913000 10832453
-0.287812 -0.098256 0.913000 11024394
-0.288443 -0.093243 0.915000 14789423
-0.289073 -0.088207 0.917000 13550539
-0.290650 -0.083419 0.922000 13144671
-0.279180 -0.146803 0.891000 2628650
-0.280747 -0.142507 0.896000 3086371
-0.281373 -0.137693 0.898000 786708
-0.282313 -0.133005 0.901000 5379618
-0.282313 -0.127856 0.901000 10956843
-0.282940 -0.122980 0.903000 13528623
-0.284507 -0.118472 0.908000 15051114
-0.285133 -0.113533 0.910000 14922887
-0.285133 -0.108333 0.910000 12024696
-0.286073 -0.103473 0.913000 11422808
-0.286700 -0.098471 0.915000 12474937
-0.287327 -0.093447 0.917000 13876305
-0.288267 -0.088495 0.920000 13619918
-0.288893 -0.083419 0.922000 13670767
-0.277483 -0.146803 0.891000 2497068
-0.279040 -0.142507 0.896000 3021602
-0.280597 -0.138153 0.901000 1839142
-0.280597 -0.133005 0.901000 3867157
-0.280597 -0.127856 0.901000 6491930
-0.281220 -0.122980 0.903000 11563561
-0.282777 -0.118472 0.908000 15251835
-0.283400 -0.113533 0.910000 15851410
-0.283400 -0.108333 0.910000 13936555
-0.284334 -0.103473 0.913000 12540010
-0.284957 -0.098471 0.915000 13404007
-0.285580 -0.093447 0.917000 14603123
-0.286514 -0.088495 0.920000 14404817
-0.287137 -0.083419 0.922000 13088383
-0.278881 -0.138153 0.901000 2955815
-0.278881 -0.133005 0.901000 2298652
-0.279500 -0.122980 0.903000 9518105
-0.281667 -0.118733 0.910000 15384135
-0.281667 -0.113533 0.910000 16698976
-0.282595 -0.108690 0.913000 15781288
-0.283214 -0.103700 0.915000 13671822
-0.283833 -0.098687 0.917000 14394003
-0.283833 -0.093447 0.917000 15252593
-0.284762 -0.088495 0.920000 15259286
-0.286310 -0.083690 0.925000 12416077
-0.279933 -0.118733 0.910000 8740115
-0.279933 -0.113533 0.910000 13283374
-0.280856 -0.108690 0.913000 14403236
-0.282087 -0.103927 0.917000 14672818
-0.282087 -0.098687 0.917000 14990526
-0.282087 -0.093447 0.917000 13742448
-0.283010 -0.088495 0.920000 11173466
-0.279117 -0.119125 0.913000 2097424
-0.279117 -0.113908 0.913000 9783319
-0.279117 -0.108690 0.913000 13011795
-0.279729 -0.103700 0.915000 15640933
-0.281257 -0.099010 0.920000 15648653
-0.280340 -0.093447 0.917000 12220487
-0.281869 -0.088688 0.922000 7079982
-0.277986 -0.119386 0.915000 2297357
-0.277378 -0.113908 0.913000 5177601
-0.278593 -0.109167 0.917000 6562817
-0.278593 -0.103927 0.917000 7880985
-0.279505 -0.099010 0.920000 7887964
-0.279505 -0.093752 0.920000 6232349
-0.281024 -0.088976 0.925000 4261122
-0.276243 -0.119386 0.915000 2498586
-0.277752 -0.109524 0.920000 131350
-0.277752 -0.104267 0.920000 136223
-0.277752 -0.099010 0.920000 196919
-0.278356 -0.093956 0.922000 199969
-0.279866 -0.089169 0.927000 1509655
-0.276000 -0.109524 0.920000 1578283
-0.276000 -0.104267 0.920000 1642020
-0.276000 -0.099010 0.920000 1708306
-0.276600 -0.093956 0.922000 1710118
-0.278100 -0.089169 0.927000 2299948
-0.274844 -0.104493 0.922000 3086885
-0.274844 -0.099225 0.922000 3287325
-0.276334 -0.094466 0.927000 3153961
-0.277229 -0.089457 0.930000 3088172
-0.273088 -0.099225 0.922000 3023399
-0.274569 -0.094466 0.927000 3153964
-0.276050 -0.089650 0.932000 3088172
-0.272214 -0.099548 0.925000 2760478
-0.272803 -0.094466 0.927000 3087394
-0.274274 -0.089650 0.932000 3087907
-0.270452 -0.099548 0.925000 1576724
-0.270452 -0.094262 0.925000 1904921
-0.272499 -0.089650 0.932000 1904921
-0.268690 -0.094262 0.925000 659512
-0.270143 -0.089457 0.930000 721465
-0.341623 -0.220480 0.848000 8918530
-0.338003 -0.223997 0.843000 10494017
-0.335597 -0.217620 0.837000 7733514
-0.335597 -0.212837 0.837000 6950945
-0.337201 -0.209049 0.841000 8268865
-0.336397 -0.223997 0.843000 10632001
-0.334003 -0.217620 0.837000 8126994
-0.333205 -0.212329 0.835000 7340302
-0.334003 -0.208054 0.837000 7539713
-0.333997 -0.223466 0.841000 10762823
-0.331614 -0.217100 0.835000 8585493
-0.331614 -0.212329 0.835000 7733774
-0.332409 -0.208054 0.837000 6816012
-0.333203 -0.203757 0.839000 5833485
-0.345117 -0.171317 0.869000 6569534
-0.332395 -0.223466 0.841000 10698573
-0.330024 -0.217100 0.835000 8848920
-0.330024 -0.212329 0.835000 7864846
-0.330814 -0.208054 0.837000 7143958
-0.331605 -0.203757 0.839000 6161945
-0.333186 -0.199911 0.843000 6423554
-0.342671 -0.175877 0.867000 3805441
-0.343462 -0.171317 0.869000 3604737
-0.343462 -0.166351 0.869000 3411457
-0.330007 -0.222934 0.839000 10566992
-0.328433 -0.217100 0.835000 9175319
-0.328433 -0.212329 0.835000 7995918
-0.328433 -0.207557 0.835000 7471634
-0.329220 -0.203271 0.837000 6423826
-0.331580 -0.199911 0.843000 6556423
-0.333547 -0.196251 0.848000 6095626
-0.336693 -0.193211 0.856000 4916239
-0.337480 -0.188760 0.858000 984081
-0.335120 -0.177703 0.852000 591627
-0.340233 -0.175471 0.865000 721934
-0.341020 -0.170923 0.867000 656904
-0.341020 -0.165969 0.867000 722184
-0.346920 -0.138600 0.882000 328199
-0.350460 -0.134923 0.891000 198153
-0.351640 -0.130269 0.894000 196873
-0.328409 -0.222934 0.839000 10633300
-0.326843 -0.217100 0.835000 9372949
-0.326060 -0.211820 0.833000 8323853
-0.326060 -0.207060 0.833000 7996174
-0.326843 -0.202786 0.835000 6750988
-0.329191 -0.199437 0.841000 6620939
-0.332714 -0.196714 0.850000 6489364
-0.333497 -0.192309 0.852000 5638426
-0.334280 -0.187880 0.854000 1051166
-0.333497 -0.182571 0.852000 1182741
-0.333497 -0.177703 0.852000 987158
-0.338586 -0.175471 0.865000 1116443
-0.338586 -0.170529 0.865000 920591
-0.339369 -0.165969 0.867000 1313039
-0.343674 -0.153023 0.878000 2952728
-0.343674 -0.148006 0.878000 3016720
-0.345240 -0.143640 0.882000 3214361
-0.346023 -0.138914 0.884000 3607565
-0.347980 -0.134620 0.889000 3609873
-0.350720 -0.130560 0.896000 3542033
-0.349937 -0.125160 0.894000 3017494
-0.326810 -0.222934 0.839000 10633038
-0.325252 -0.217100 0.835000 9568548
-0.324473 -0.211820 0.833000 8585743
-0.324473 -0.207060 0.833000 8520464
-0.325252 -0.202786 0.835000 7078667
-0.327590 -0.199437 0.841000 6751499
-0.331095 -0.196714 0.850000 6817297
-0.331874 -0.192309 0.852000 6359571
-0.331874 -0.187440 0.852000 1116697
-0.331095 -0.182143 0.850000 1576466
-0.331874 -0.177703 0.852000 1313811
-0.335770 -0.174863 0.862000 1575444
-0.334990 -0.169543 0.860000 1116943
-0.337717 -0.165969 0.867000 1903373
-0.338496 -0.161386 0.869000 1640972
-0.340833 -0.157500 0.875000 2950407
-0.342002 -0.153023 0.878000 5705236
-0.342002 -0.148006 0.878000 5834010
-0.343560 -0.143640 0.882000 6163994
-0.344339 -0.138914 0.884000 6885137
-0.346287 -0.134620 0.889000 6950929
-0.348234 -0.130269 0.894000 6951187
-0.349013 -0.125440 0.896000 5837593
-0.325988 -0.223466 0.841000 10699080
-0.322887 -0.216580 0.833000 9700403
-0.322111 -0.211311 0.831000 8651024
-0.322111 -0.206563 0.831000 8389137
-0.323662 -0.202786 0.835000 7209482
-0.325212 -0.198963 0.839000 6947851
-0.327538 -0.195557 0.845000 6882574
-0.329476 -0.191857 0.850000 6555915
-0.330251 -0.187440 0.852000 1116692
-0.330251 -0.182571 0.852000 1379087
-0.331027 -0.178120 0.854000 1116689
-0.333352 -0.174457 0.860000 1378573
-0.333352 -0.169543 0.860000 1117198
-0.335290 -0.165586 0.865000 1509898
-0.336841 -0.161386 0.869000 3998476
-0.338391 -0.157140 0.873000 5115145
-0.339167 -0.152500 0.875000 6295055
-0.340330 -0.148006 0.878000 6952483
-0.341880 -0.143640 0.882000 7872796
-0.342655 -0.138914 0.884000 6949653
-0.344593 -0.134620 0.889000 7015698
-0.346531 -0.130269 0.894000 7148053
-0.347307 -0.125440 0.896000 7019804
-0.347307 -0.120320 0.896000 6364429
-0.325157 -0.223997 0.843000 10697804
-0.321300 -0.216580 0.833000 9830710
-0.320529 -0.211311 0.831000 8716562
-0.320529 -0.206563 0.831000 8257813
-0.322071 -0.202786 0.835000 7340557
-0.323614 -0.198963 0.839000 7143949
-0.325157 -0.195094 0.843000 6947852
-0.327857 -0.191857 0.850000 6817035
-0.328629 -0.187440 0.852000 1116179
-0.328629 -0.182571 0.852000 1181452
-0.329400 -0.178120 0.854000 854286
-0.331714 -0.174457 0.860000 1247501
-0.332486 -0.169937 0.862000 1117197
-0.333643 -0.165586 0.865000 1116428
-0.335186 -0.161386 0.869000 6358795
-0.336729 -0.157140 0.873000 7278087
-0.337500 -0.152500 0.875000 6884376
-0.338657 -0.148006 0.878000 8063529
-0.339429 -0.143314 0.880000 9589794
-0.340971 -0.138914 0.884000 7014431
-0.342900 -0.134620 0.889000 7014934
-0.344829 -0.130269 0.894000 7344150
-0.345600 -0.125440 0.896000 8132120
-0.345600 -0.120320 0.896000 8068369
-0.347529 -0.115843 0.901000 8729879
-0.323551 -0.223997 0.843000 10763601
-0.320481 -0.217100 0.835000 9898040
-0.318946 -0.211311 0.831000 8913172
-0.319713 -0.207060 0.833000 8388889
-0.320481 -0.202786 0.835000 7667984
-0.322016 -0.198963 0.839000 7340558
-0.323551 -0.195094 0.843000 7209737
-0.326238 -0.191857 0.850000 7013643
-0.327006 -0.187440 0.852000 1312786
-0.326238 -0.182143 0.850000 1181705
-0.327773 -0.178120 0.854000 985355
-0.329309 -0.174051 0.858000 1378573
-0.330076 -0.169543 0.860000 1379340
-0.331995 -0.165586 0.865000 2819342
-0.333530 -0.161386 0.869000 7342602
-0.334298 -0.156780 0.871000 7210500
-0.335833 -0.152500 0.875000 7145250
-0.336985 -0.148006 0.878000 8067374
-0.337752 -0.143314 0.880000 9667880
-0.339288 -0.138914 0.884000 7014185
-0.341207 -0.134620 0.889000 7079962
-0.343126 -0.130269 0.894000 7343127
-0.343893 -0.125440 0.896000 7736340
-0.343893 -0.120320 0.896000 8000533
-0.344661 -0.115457 0.898000 8667677
-0.351186 -0.101957 0.915000 5525041
-0.321946 -0.223997 0.843000 10762061
-0.318890 -0.217100 0.835000 10029107
-0.317363 -0.211311 0.831000 9044247
-0.318127 -0.207060 0.833000 8519978
-0.318890 -0.202786 0.835000 7995921
-0.320418 -0.198963 0.839000 7536907
-0.321946 -0.195094 0.843000 7406345
-0.324619 -0.191857 0.850000 7209738
-0.324619 -0.187000 0.850000 1443603
-0.324619 -0.182143 0.850000 1116427
-0.326147 -0.178120 0.854000 1116683
-0.327674 -0.174051 0.858000 1509643
-0.328438 -0.169543 0.860000 1640969
-0.329202 -0.165011 0.862000 4522762
-0.331875 -0.161386 0.869000 8267295
-0.332639 -0.156780 0.871000 7143722
-0.334167 -0.152500 0.875000 7341091
-0.335312 -0.148006 0.878000 8063524
-0.336076 -0.143314 0.880000 9659951
-0.336840 -0.138600 0.882000 7080220
-0.339513 -0.134620 0.889000 7145753
-0.341423 -0.130269 0.894000 7342611
-0.342187 -0.125440 0.896000 7342869
-0.342187 -0.120320 0.896000 7868183
-0.344096 -0.115843 0.901000 8531229
-0.345624 -0.111186 0.905000 10052365
-0.345624 -0.106014 0.905000 10383398
-0.348679 -0.101734 0.913000 10255910
-0.348679 -0.096517 0.913000 7295019
-0.320340 -0.223997 0.843000 10761546
-0.317300 -0.217100 0.835000 10095406
-0.316540 -0.211820 0.833000 9306393
-0.316540 -0.207060 0.833000 8782650
-0.317300 -0.202786 0.835000 8126994
-0.318820 -0.198963 0.839000 7799304
-0.320340 -0.195094 0.843000 7602953
-0.321100 -0.190729 0.845000 7406857
-0.322240 -0.186560 0.848000 1640212
-0.323000 -0.182143 0.850000 1181708
-0.324520 -0.178120 0.854000 1116940
-0.326040 -0.174051 0.858000 1444361
-0.326800 -0.169543 0.860000 1772039
-0.327560 -0.165011 0.862000 5047813
-0.329460 -0.161014 0.867000 8872244
-0.330220 -0.156420 0.869000 8138576
-0.331740 -0.152151 0.873000 7668772
-0.333640 -0.148006 0.878000 8003354
-0.333640 -0.142989 0.878000 9923383
-0.335160 -0.138600 0.882000 7081742
-0.337820 -0.134620 0.889000 7211545
-0.339720 -0.130269 0.894000 7342606
-0.340480 -0.125440 0.896000 7211285
-0.340480 -0.120320 0.896000 7801881
-0.342380 -0.115843 0.901000 8064029
-0.343900 -0.111186 0.905000 9327364
-0.343900 -0.106014 0.905000 10051599
-0.346940 -0.101734 0.913000 10384922
-0.347700 -0.096729 0.915000 9408568
-0.318734 -0.223997 0.843000 10695500
-0.315710 -0.217100 0.835000 10224434
-0.314953 -0.211820 0.833000 9503002
-0.314953 -0.207060 0.833000 9044775
-0.315710 -0.202786 0.835000 8258063
-0.316466 -0.198489 0.837000 8061707
-0.318734 -0.195094 0.843000 7799306
-0.319490 -0.190729 0.845000 7602953
-0.320625 -0.186560 0.848000 1770768
-0.321381 -0.182143 0.850000 1247245
-0.322893 -0.178120 0.854000 1116941
-0.324406 -0.174051 0.858000 1378569
-0.325162 -0.169543 0.860000 1837321
-0.325918 -0.165011 0.862000 5638673
-0.328565 -0.161386 0.869000 9393983
-0.328565 -0.156420 0.869000 9201002
-0.329321 -0.151803 0.871000 8008011
-0.331968 -0.148006 0.878000 7996942
-0.331968 -0.142989 0.878000 10118952
-0.333480 -0.138600 0.882000 7143696
-0.336127 -0.134620 0.889000 7276315
-0.336883 -0.129831 0.891000 7276817
-0.338017 -0.125160 0.894000 7014932
-0.338773 -0.120320 0.896000 7802391
-0.340664 -0.115843 0.901000 7543067
-0.342176 -0.111186 0.905000 8535575
-0.342176 -0.106014 0.905000 9652766
-0.345201 -0.101734 0.913000 10579230
-0.345957 -0.096729 0.915000 11503164
-0.346713 -0.091700 0.917000 9668448
-0.322019 -0.227451 0.856000 10761294
-0.314119 -0.217100 0.835000 10357302
-0.313367 -0.211820 0.833000 9634075
-0.314119 -0.207557 0.835000 9241875
-0.314119 -0.202786 0.835000 8520205
-0.314871 -0.198489 0.837000 8258317
-0.316376 -0.194631 0.841000 7995915
-0.317881 -0.190729 0.845000 7800072
-0.319010 -0.186560 0.848000 1770508
-0.319762 -0.182143 0.850000 1378574
-0.321267 -0.178120 0.854000 1116686
-0.322771 -0.174051 0.858000 1444105
-0.323524 -0.169543 0.860000 1377291
-0.325405 -0.165586 0.865000 6227740
-0.326157 -0.161014 0.867000 9460297
-0.326910 -0.156420 0.869000 9532804
-0.327662 -0.151803 0.871000 8282226
-0.330295 -0.148006 0.878000 8065025
-0.330295 -0.142989 0.878000 9527064
-0.331800 -0.138600 0.882000 7869970
-0.333681 -0.134317 0.887000 7472157
-0.335186 -0.129831 0.891000 7276563
-0.336314 -0.125160 0.894000 7342612
-0.336314 -0.120051 0.894000 8267285
-0.338948 -0.115843 0.901000 8074008
-0.340452 -0.111186 0.905000 8270890
-0.340452 -0.106014 0.905000 7808300
-0.342333 -0.101400 0.910000 9460770
-0.343462 -0.096517 0.913000 10910785
-0.344967 -0.091700 0.917000 10324851
-0.318891 -0.226389 0.852000 10760523
-0.313277 -0.217620 0.837000 10487856
-0.312529 -0.212329 0.835000 9765144
-0.312529 -0.207557 0.835000 9438227
-0.313277 -0.203271 0.837000 8716816
-0.314026 -0.198963 0.839000 8389137
-0.314774 -0.194631 0.841000 8192524
-0.316271 -0.190729 0.845000 7996169
-0.317394 -0.186560 0.848000 1771021
-0.318143 -0.182143 0.850000 1575438
-0.319640 -0.178120 0.854000 1116941
-0.321137 -0.174051 0.858000 1575180
-0.321886 -0.169543 0.860000 919052
-0.323757 -0.165586 0.865000 6883602
-0.324506 -0.161014 0.867000 9459270
-0.326003 -0.156780 0.871000 9861254
-0.326751 -0.152151 0.873000 8538212
-0.327500 -0.147500 0.875000 8192262
-0.328623 -0.142989 0.878000 8869406
-0.329371 -0.138286 0.880000 8658976
-0.331991 -0.134317 0.887000 7681835
-0.332740 -0.129540 0.889000 7275787
-0.333489 -0.124740 0.891000 7607062
-0.334611 -0.120051 0.894000 8796722
-0.337231 -0.115843 0.901000 8536615
-0.337980 -0.110940 0.903000 8072742
-0.338729 -0.106014 0.905000 5909025
-0.340600 -0.101400 0.910000 8406290
-0.341723 -0.096517 0.913000 10313766
-0.343220 -0.091700 0.917000 11041618
-0.345091 -0.086931 0.922000 11237717
-0.315779 -0.225326 0.848000 10826312
-0.311683 -0.217620 0.837000 10618922
-0.310938 -0.212329 0.835000 9896214
-0.310938 -0.207557 0.835000 9503507
-0.311683 -0.203271 0.837000 8847891
-0.312428 -0.198963 0.839000 8585749
-0.313917 -0.195094 0.843000 8389390
-0.315779 -0.191406 0.848000 8193546
-0.316524 -0.187000 0.850000 1573135
-0.317269 -0.182571 0.852000 1509902
-0.318013 -0.178120 0.854000 1379340
-0.318758 -0.173646 0.856000 1509902
-0.320248 -0.169543 0.860000 918285
-0.322854 -0.165969 0.867000 7211271
-0.323599 -0.161386 0.869000 9788995
-0.324344 -0.156780 0.871000 10253447
-0.325089 -0.152151 0.873000 8717399
-0.326950 -0.148006 0.878000 8131339
-0.326950 -0.142989 0.878000 9000739
-0.327695 -0.138286 0.880000 8795181
-0.329185 -0.133863 0.884000 8942648
-0.331047 -0.129540 0.889000 7209986
-0.331791 -0.124740 0.891000 7741465
-0.332909 -0.120051 0.894000 9461839
-0.335515 -0.115843 0.901000 9001782
-0.336260 -0.110940 0.903000 8077602
-0.337005 -0.106014 0.905000 6500630
-0.338867 -0.101400 0.910000 8000001
-0.339984 -0.096517 0.913000 8727050
-0.340729 -0.091500 0.915000 9917489
-0.343335 -0.086931 0.922000 10978640
-0.343335 -0.081663 0.922000 5721191
-0.314164 -0.225326 0.848000 10825544
-0.310089 -0.217620 0.837000 10748720
-0.309348 -0.212329 0.835000 10027550
-0.310089 -0.208054 0.837000 9503252
-0.310830 -0.203757 0.839000 8978962
-0.310830 -0.198963 0.839000 8716819
-0.312311 -0.195094 0.843000 8520463
-0.314164 -0.191406 0.848000 8323594
-0.314905 -0.187000 0.850000 1377553
-0.315646 -0.182571 0.852000 1444370
-0.316387 -0.178120 0.854000 1575949
-0.317869 -0.174051 0.858000 1510414
-0.318610 -0.169543 0.860000 918544
-0.321203 -0.165969 0.867000 7537669
-0.321203 -0.161014 0.867000 10117967
-0.322685 -0.156780 0.871000 10648191
-0.323426 -0.152151 0.873000 8933738
-0.324167 -0.147500 0.875000 8126726
-0.325278 -0.142989 0.878000 9064742
-0.326019 -0.138286 0.880000 8982330
-0.327501 -0.133863 0.884000 10118441
-0.328612 -0.129249 0.887000 7144462
-0.330094 -0.124740 0.891000 7810071
-0.331947 -0.120320 0.896000 10120509
-0.333799 -0.115843 0.901000 9391413
-0.334540 -0.110940 0.903000 8146987
-0.335281 -0.106014 0.905000 7025177
-0.337133 -0.101400 0.910000 7667975
-0.338245 -0.096517 0.913000 7087647
-0.338986 -0.091500 0.915000 8857133
-0.341579 -0.086931 0.922000 10646078
-0.341579 -0.081663 0.922000 9077056
-0.307757 -0.217100 0.835000 10815285
-0.307757 -0.212329 0.835000 10158629
-0.309231 -0.208551 0.839000 9635093
-0.309231 -0.203757 0.839000 9175568
-0.309969 -0.199437 0.841000 8978961
-0.310706 -0.195094 0.843000 8716817
-0.312549 -0.191406 0.848000 8455178
-0.313286 -0.187000 0.850000 1114644
-0.314023 -0.182571 0.852000 1575445
-0.314760 -0.178120 0.854000 1444878
-0.316234 -0.174051 0.858000 1575694
-0.316971 -0.169543 0.860000 787220
-0.319551 -0.165969 0.867000 7931651
-0.319551 -0.161014 0.867000 9854810
-0.321026 -0.156780 0.871000 10248054
-0.321763 -0.152151 0.873000 9332604
-0.322500 -0.147500 0.875000 8393473
-0.322500 -0.142500 0.875000 9522985
-0.324343 -0.138286 0.880000 9253446
-0.326923 -0.134317 0.887000 10121498
-0.326923 -0.129249 0.887000 6686490
-0.327660 -0.124460 0.889000 7743765
-0.329503 -0.120051 0.894000 9196330
-0.332083 -0.115843 0.901000 8398132
-0.332820 -0.110940 0.903000 7682612
-0.333557 -0.106014 0.905000 6827804
-0.335400 -0.101400 0.910000 8665868
-0.336506 -0.096517 0.913000 7810099
-0.336506 -0.091300 0.913000 8463400
-0.339823 -0.086931 0.922000 9460523
-0.339823 -0.081663 0.922000 10191897
-0.312400 -0.226389 0.852000 11021641
-0.308367 -0.218660 0.841000 10814262
-0.306167 -0.212329 0.835000 10224416
-0.307633 -0.208551 0.839000 9765659
-0.308367 -0.204243 0.841000 9372436
-0.308367 -0.199437 0.841000 9175573
-0.309100 -0.195094 0.843000 8913425
-0.310933 -0.191406 0.848000 8651533
-0.312400 -0.187440 0.852000 853267
-0.312400 -0.182571 0.852000 1640722
-0.314600 -0.178954 0.858000 1248015
-0.314600 -0.174051 0.858000 1706511
-0.315333 -0.169543 0.860000 591123
-0.317167 -0.165586 0.865000 8323332
-0.317900 -0.161014 0.867000 9588293
-0.319367 -0.156780 0.871000 9925763
-0.320100 -0.152151 0.873000 9657471
-0.320833 -0.147500 0.875000 8716552
-0.321933 -0.142989 0.878000 9985312
-0.323400 -0.138600 0.882000 9571144
-0.324133 -0.133863 0.884000 10049815
-0.325967 -0.129540 0.889000 6228498
-0.325967 -0.124460 0.889000 7613718
-0.327800 -0.120051 0.894000 8273945
-0.330367 -0.115843 0.901000 7412525
-0.331100 -0.110940 0.903000 7216419
-0.331833 -0.106014 0.905000 6566951
-0.332933 -0.101177 0.908000 9725448
-0.334767 -0.096517 0.913000 8538434
-0.334767 -0.091300 0.913000 8072229
-0.337333 -0.086743 0.920000 8271143
-0.338067 -0.081663 0.922000 11303459
-0.312236 -0.227451 0.856000 11284043
-0.306765 -0.218660 0.841000 10946614
-0.306035 -0.213346 0.839000 10355226
-0.306765 -0.209049 0.841000 9896736
-0.306765 -0.204243 0.841000 9569049
-0.306765 -0.199437 0.841000 9306904
-0.307494 -0.195094 0.843000 9110290
-0.310048 -0.191857 0.850000 8717583
-0.310777 -0.187440 0.852000 655634
-0.312236 -0.183429 0.856000 1575695
-0.312966 -0.178954 0.858000 1444879
-0.312966 -0.174051 0.858000 1640975
-0.313695 -0.169543 0.860000 656402
-0.315519 -0.165586 0.865000 8456709
-0.316249 -0.161014 0.867000 9572912
-0.317708 -0.156780 0.871000 9853840
-0.318437 -0.152151 0.873000 9983617
-0.319167 -0.147500 0.875000 8786702
-0.319167 -0.142500 0.875000 10112791
-0.320990 -0.138286 0.880000 9384778
-0.322450 -0.133863 0.884000 9981460
-0.323544 -0.129249 0.887000 6687242
-0.324273 -0.124460 0.889000 7352855
-0.326097 -0.120051 0.894000 7549447
-0.328650 -0.115843 0.901000 7083046
-0.328650 -0.110694 0.901000 6957329
-0.329380 -0.105780 0.903000 6303026
-0.331204 -0.101177 0.908000 9459459
-0.331933 -0.096200 0.910000 9331281
-0.333028 -0.091300 0.913000 8070946
-0.334487 -0.086460 0.917000 8262178
-0.336310 -0.081663 0.922000 10114860
-0.309880 -0.226920 0.854000 11544904
-0.305163 -0.218660 0.841000 11142964
-0.305163 -0.213854 0.841000 10486560
-0.305889 -0.209546 0.843000 10093084
-0.305163 -0.204243 0.841000 9765658
-0.305889 -0.199911 0.843000 9503513
-0.306614 -0.195557 0.845000 9306902
-0.309154 -0.192309 0.852000 8848146
-0.309154 -0.187440 0.852000 460563
-0.310606 -0.183429 0.856000 1510672
-0.311331 -0.178954 0.858000 1640977
-0.311331 -0.174051 0.858000 1509903
-0.312057 -0.169543 0.860000 722448
-0.313871 -0.165586 0.865000 8585476
-0.314597 -0.161014 0.867000 9523794
-0.316049 -0.156780 0.871000 9842317
-0.316774 -0.152151 0.873000 10251133
-0.317500 -0.147500 0.875000 8782089
-0.317500 -0.142500 0.875000 10187305
-0.318589 -0.137971 0.878000 9176102
-0.320766 -0.133863 0.884000 9851173
-0.321854 -0.129249 0.887000 7210260
-0.322580 -0.124460 0.889000 7024404
-0.324394 -0.120051 0.894000 6830885
-0.325120 -0.115200 0.896000 6756134
-0.326934 -0.110694 0.901000 6690061
-0.328386 -0.106014 0.905000 5977643
-0.329474 -0.101177 0.908000 9259012
-0.330200 -0.096200 0.910000 10054989
-0.331289 -0.091300 0.913000 8004382
-0.332740 -0.086460 0.917000 8263454
-0.334554 -0.081663 0.922000 8929064
-0.308253 -0.226920 0.854000 11741509
-0.303561 -0.218660 0.841000 11274545
-0.303561 -0.213854 0.841000 10749478
-0.304283 -0.209546 0.843000 10289944
-0.303561 -0.204243 0.841000 10027804
-0.304283 -0.199911 0.843000 9765914
-0.306810 -0.196714 0.850000 9569050
-0.307531 -0.192309 0.852000 8848916
-0.308253 -0.187880 0.854000 656405
-0.308975 -0.183429 0.856000 1575952
-0.309697 -0.178954 0.858000 1640978
-0.309697 -0.174051 0.858000 1510415
-0.310419 -0.169543 0.860000 721934
-0.312946 -0.165969 0.867000 8590338
-0.312946 -0.161014 0.867000 9790325
-0.314390 -0.156780 0.871000 10119305
-0.315111 -0.152151 0.873000 10314616
-0.315111 -0.147163 0.873000 8788739
-0.315833 -0.142500 0.875000 11114556
-0.316916 -0.137971 0.878000 9317121
-0.319082 -0.133863 0.884000 10116663
-0.320165 -0.129249 0.887000 7472413
-0.320887 -0.124460 0.889000 7414802
-0.322691 -0.120051 0.894000 6898755
-0.323413 -0.115200 0.896000 6496038
-0.324135 -0.110326 0.898000 6300681
-0.326662 -0.106014 0.905000 5386532
-0.327745 -0.101177 0.908000 8464900
-0.328467 -0.096200 0.910000 10583881
-0.329550 -0.091300 0.913000 7937049
-0.330271 -0.086271 0.915000 8133657
-0.332798 -0.081663 0.922000 8202788
-0.307345 -0.227451 0.856000 11937861
-0.301959 -0.218660 0.841000 11470126
-0.301959 -0.213854 0.841000 10946342
-0.302677 -0.209546 0.843000 10421278
-0.302677 -0.204729 0.843000 10224674
-0.302677 -0.199911 0.843000 10028060
-0.305190 -0.196714 0.850000 9765659
-0.305909 -0.192309 0.852000 8848406
-0.306627 -0.187880 0.854000 789020
-0.307345 -0.183429 0.856000 1575957
-0.308063 -0.178954 0.858000 1641234
-0.308063 -0.174051 0.858000 1576464
-0.308781 -0.169543 0.860000 656912
-0.311294 -0.165969 0.867000 8589058
-0.312012 -0.161386 0.869000 9988476
-0.312730 -0.156780 0.871000 10450073
-0.313449 -0.152151 0.873000 10381440
-0.313449 -0.147163 0.873000 8847626
-0.314167 -0.142500 0.875000 11962922
-0.316680 -0.138600 0.882000 9510167
-0.317398 -0.133863 0.884000 10313524
-0.318475 -0.129249 0.887000 7668500
-0.319193 -0.124460 0.889000 7805200
-0.320989 -0.120051 0.894000 6897460
-0.321707 -0.115200 0.896000 6241318
-0.322425 -0.110326 0.898000 5905426
-0.324220 -0.105780 0.903000 4800290
-0.326015 -0.101177 0.908000 7735053
-0.326733 -0.096200 0.910000 11037237
-0.326733 -0.091000 0.910000 7932179
-0.328529 -0.086271 0.915000 7935761
-0.331042 -0.081663 0.922000 7543321
-0.304286 -0.226389 0.852000 12068677
-0.300357 -0.218660 0.841000 11404842
-0.301071 -0.214363 0.843000 10946855
-0.301071 -0.209546 0.843000 10552611
-0.301071 -0.204729 0.843000 10356008
-0.301786 -0.200386 0.845000 10224926
-0.303571 -0.196714 0.850000 10028061
-0.304286 -0.192309 0.852000 8719383
-0.305000 -0.187880 0.854000 1248802
-0.306429 -0.183857 0.858000 1642266
-0.306429 -0.178954 0.858000 1576211
-0.305714 -0.173646 0.856000 1576464
-0.307857 -0.169937 0.862000 721938
-0.308929 -0.165586 0.865000 8463618
-0.310357 -0.161386 0.869000 10057603
-0.311071 -0.156780 0.871000 11437993
-0.311786 -0.152151 0.873000 10385800
-0.311786 -0.147163 0.873000 9179665
-0.312500 -0.142500 0.875000 11703321
-0.315000 -0.138600 0.882000 9382956
-0.315000 -0.133560 0.882000 10589488
-0.316786 -0.129249 0.887000 7668491
-0.317500 -0.124460 0.889000 8066319
-0.319286 -0.120051 0.894000 7350565
-0.319286 -0.114943 0.894000 5920550
-0.320714 -0.110326 0.898000 5258778
-0.322500 -0.105780 0.903000 4279328
-0.323214 -0.100843 0.905000 7408405
-0.325000 -0.096200 0.910000 10051617
-0.325000 -0.091000 0.910000 7934477
-0.326071 -0.086083 0.913000 7867912
-0.327500 -0.081220 0.917000 7672077
-0.302663 -0.226389 0.852000 12131905
-0.298755 -0.218660 0.841000 11273001
-0.299466 -0.214363 0.843000 10946087
-0.300176 -0.210043 0.845000 10617890
-0.300176 -0.205214 0.845000 10421282
-0.300176 -0.200386 0.845000 10487071
-0.302663 -0.197177 0.852000 10225184
-0.303373 -0.192760 0.854000 8591640
-0.303373 -0.187880 0.854000 1643048
-0.304794 -0.183857 0.858000 1708316
-0.304794 -0.178954 0.858000 1510933
-0.304794 -0.174051 0.858000 1576468
-0.306215 -0.169937 0.862000 788243
-0.307991 -0.165969 0.867000 8326146
-0.308702 -0.161386 0.869000 10047341
-0.309412 -0.156780 0.871000 12494730
-0.310123 -0.152151 0.873000 10313086
-0.310833 -0.147500 0.875000 9503009
-0.310833 -0.142500 0.875000 11367706
-0.313320 -0.138600 0.882000 9252650
-0.314030 -0.133863 0.884000 10771268
-0.315096 -0.129249 0.887000 7668762
-0.315807 -0.124460 0.889000 8261652
-0.317583 -0.120051 0.894000 7804184
-0.318293 -0.115200 0.896000 5586206
-0.319004 -0.110326 0.898000 4607521
-0.320780 -0.105780 0.903000 3688224
-0.321490 -0.100843 0.905000 7080208
-0.323267 -0.096200 0.910000 8990492
-0.323267 -0.091000 0.910000 7932169
-0.324332 -0.086083 0.913000 7800845
-0.325753 -0.081220 0.917000 7800855
-0.301040 -0.226389 0.852000 11934526
-0.297153 -0.218660 0.841000 11339047
-0.297860 -0.214363 0.843000 10880295
-0.298567 -0.210043 0.845000 10617889
-0.299627 -0.205943 0.848000 10289949
-0.299627 -0.201097 0.848000 10421535
-0.301747 -0.197640 0.854000 10356002
-0.301747 -0.192760 0.854000 8263448
-0.302453 -0.188320 0.856000 2234415
-0.303160 -0.183857 0.858000 1839902
-0.303160 -0.178954 0.858000 1577239
-0.303160 -0.174051 0.858000 1576471
-0.304573 -0.169937 0.862000 1312275
-0.306340 -0.165969 0.867000 6890754
-0.307047 -0.161386 0.869000 10234454
-0.307753 -0.156780 0.871000 11431018
-0.308460 -0.152151 0.873000 10254453
-0.309167 -0.147500 0.875000 9771313
-0.309167 -0.142500 0.875000 11356955
-0.310933 -0.138286 0.880000 9782312
-0.312347 -0.133863 0.884000 10970200
-0.313407 -0.129249 0.887000 8061736
-0.314113 -0.124460 0.889000 8392985
-0.315880 -0.120051 0.894000 8000011
-0.315880 -0.114943 0.894000 6234903
-0.318353 -0.110694 0.901000 4214824
-0.319060 -0.105780 0.903000 3488801
-0.319767 -0.100843 0.905000 6101258
-0.320827 -0.095989 0.908000 8127000
-0.321533 -0.091000 0.910000 7800325
-0.322593 -0.086083 0.913000 7864595
-0.323300 -0.081043 0.915000 7670816
-0.299417 -0.226389 0.852000 11670586
-0.296254 -0.219180 0.843000 11338799
-0.296957 -0.214871 0.845000 10815018
-0.298011 -0.210789 0.848000 10552099
