# .PCD v.7 - Point Cloud Data file format
VERSION .7
FIELDS x y z rgb
SIZE 4 4 4 4
TYPE F F F I
COUNT 1 1 1 1
WIDTH 1266
HEIGHT 1
POINTS 1266
DATA ascii
-0.048049 -0.081037 0.753000 10391717
-0.046119 -0.182348 0.745000 13149358
-0.046243 -0.178569 0.747000 13553130
-0.045562 -0.171733 0.736000 13617639
-0.045129 -0.165934 0.729000 13617895
-0.044695 -0.160215 0.722000 13881066
-0.044324 -0.154792 0.716000 13881321
-0.043829 -0.149017 0.708000 13881321
-0.043519 -0.143948 0.703000 11841248
-0.043581 -0.140130 0.704000 10589616
-0.043767 -0.136687 0.707000 10590647
-0.043952 -0.133210 0.710000 10455467
-0.044138 -0.129698 0.713000 10720936
-0.044386 -0.126329 0.717000 10192806
-0.044510 -0.122572 0.719000 10455454
-0.044571 -0.118629 0.720000 10655144
-0.044943 -0.115469 0.726000 8486810
-0.045129 -0.111780 0.729000 10191248
-0.045252 -0.107910 0.731000 10720682
-0.045314 -0.103874 0.732000 10785961
-0.045624 -0.100372 0.737000 10720422
-0.045748 -0.096422 0.739000 10588835
-0.045995 -0.092698 0.743000 10325918
-0.046305 -0.089048 0.748000 9733282
-0.046429 -0.085000 0.750000 8349591
-0.046552 -0.080930 0.752000 10524321
-0.044820 -0.182837 0.747000 13284545
-0.044820 -0.178569 0.747000 13485802
-0.043920 -0.170800 0.732000 13683431
-0.043740 -0.165934 0.729000 13552873
-0.043200 -0.159771 0.720000 13881321
-0.042840 -0.154360 0.714000 13881320
-0.042480 -0.149017 0.708000 13881063
-0.042180 -0.143948 0.703000 12038627
-0.042180 -0.139930 0.703000 10852532
-0.042300 -0.136300 0.705000 10787513
-0.042480 -0.132834 0.708000 10588593
-0.042780 -0.129698 0.713000 10918830
-0.042960 -0.126152 0.716000 10391991
-0.043140 -0.122572 0.719000 10586275
-0.043200 -0.118629 0.720000 10918319
-0.043500 -0.115310 0.725000 10001334
-0.043680 -0.111627 0.728000 10720437
-0.043860 -0.107910 0.731000 10918062
-0.043920 -0.103874 0.732000 10918061
-0.044220 -0.100372 0.737000 10917804
-0.044340 -0.096422 0.739000 10590116
-0.044520 -0.092573 0.742000 9997987
-0.044820 -0.088929 0.747000 10456746
-0.044880 -0.084773 0.748000 9600159
-0.045000 -0.080714 0.750000 9732252
-0.043455 -0.183082 0.748000 13352135
-0.043397 -0.178569 0.747000 13355752
-0.042526 -0.170800 0.732000 13814763
-0.042351 -0.165934 0.729000 13483998
-0.041829 -0.159771 0.720000 13947373
-0.041480 -0.154360 0.714000 13815272
-0.041131 -0.149017 0.708000 13880552
-0.040841 -0.143948 0.703000 12237026
-0.040841 -0.139930 0.703000 11049143
-0.040957 -0.136300 0.705000 10919614
-0.041131 -0.132834 0.708000 10785974
-0.041422 -0.129698 0.713000 11049651
-0.041480 -0.125800 0.714000 10590391
-0.041654 -0.122231 0.717000 10718630
-0.041829 -0.118629 0.720000 11115700
-0.042003 -0.114991 0.723000 11443895
-0.042177 -0.111320 0.726000 11247542
-0.042351 -0.107614 0.729000 11049907
-0.042526 -0.103874 0.732000 11049907
-0.042816 -0.100372 0.737000 11049651
-0.042816 -0.096161 0.737000 10591141
-0.042990 -0.092324 0.740000 9665160
-0.043281 -0.088690 0.745000 11179183
-0.043397 -0.084660 0.747000 10785962
-0.043455 -0.080499 0.748000 9011611
-0.042030 -0.183082 0.748000 13352653
-0.041974 -0.178569 0.747000 13420262
-0.041131 -0.170800 0.732000 13158638
-0.040963 -0.165934 0.729000 12166867
-0.040457 -0.159771 0.720000 14013168
-0.040120 -0.154360 0.714000 13815273
-0.039783 -0.149017 0.708000 13880809
-0.039502 -0.143948 0.703000 12302049
-0.039502 -0.139930 0.703000 11378106
-0.039614 -0.136300 0.705000 11116995
-0.039783 -0.132834 0.708000 10918331
-0.039951 -0.129334 0.711000 11247800
-0.040120 -0.125800 0.714000 10787510
-0.040289 -0.122231 0.717000 10850986
-0.040401 -0.118464 0.719000 11313337
-0.040626 -0.114991 0.723000 11509689
-0.040794 -0.111320 0.726000 11444406
-0.040963 -0.107614 0.729000 11312824
-0.041075 -0.103732 0.731000 11312568
-0.041356 -0.100236 0.736000 11246779
-0.041412 -0.096161 0.737000 10519462
-0.041525 -0.092199 0.739000 9327981
-0.041750 -0.088452 0.743000 11312307
-0.041862 -0.084433 0.745000 10984885
-0.042030 -0.080499 0.748000 9599385
-0.040606 -0.178808 0.748000 13420515
-0.040280 -0.173133 0.742000 12504299
-0.039574 -0.165934 0.729000 10785985
-0.039031 -0.159550 0.719000 14144743
-0.038760 -0.154360 0.714000 13749736
-0.038434 -0.149017 0.708000 13945834
-0.038163 -0.143948 0.703000 12304868
-0.038163 -0.139930 0.703000 11705790
-0.038217 -0.136107 0.704000 11314372
-0.038434 -0.132834 0.708000 11116479
-0.038597 -0.129334 0.711000 11379130
-0.038760 -0.125800 0.714000 10984893
-0.038869 -0.122061 0.716000 10983346
-0.039031 -0.118464 0.719000 11510974
-0.039194 -0.114832 0.722000 11576255
-0.039357 -0.111167 0.725000 11575993
-0.039520 -0.107467 0.728000 11510205
-0.039683 -0.103732 0.731000 11509946
-0.039846 -0.099964 0.734000 11378365
-0.040009 -0.096161 0.737000 10453425
-0.040171 -0.092324 0.740000 8934248
-0.040334 -0.088452 0.743000 11510200
-0.040443 -0.084433 0.745000 11116217
-0.040551 -0.080391 0.747000 10255796
-0.039129 -0.178569 0.747000 13420257
-0.038710 -0.172433 0.739000 12435432
-0.038290 -0.166390 0.731000 11435439
-0.037557 -0.159106 0.717000 13549533
-0.037400 -0.154360 0.714000 13815016
-0.037086 -0.149017 0.708000 14012394
-0.036824 -0.143948 0.703000 12501736
-0.036824 -0.139930 0.703000 11905218
-0.036876 -0.136107 0.704000 11578054
-0.037086 -0.132834 0.708000 11313858
-0.037190 -0.129152 0.710000 11577532
-0.037348 -0.125624 0.713000 11051459
-0.037505 -0.122061 0.716000 11180731
-0.037662 -0.118464 0.719000 11708867
-0.037819 -0.114832 0.722000 11839173
-0.037976 -0.111167 0.725000 11773883
-0.038133 -0.107467 0.728000 11707587
-0.038186 -0.103449 0.729000 11773884
-0.038448 -0.099964 0.734000 11642047
-0.038552 -0.096030 0.736000 10588860
-0.038710 -0.092199 0.739000 8991076
-0.038919 -0.088452 0.743000 11707324
-0.039024 -0.084433 0.745000 11444413
-0.039129 -0.080391 0.747000 10982095
-0.037706 -0.178569 0.747000 13420771
-0.037453 -0.173133 0.742000 12432604
-0.036797 -0.165934 0.729000 12027565
-0.036191 -0.159106 0.717000 12951227
-0.036040 -0.154360 0.714000 13815785
-0.035737 -0.149017 0.708000 14078442
-0.035485 -0.143948 0.703000 12633834
-0.035485 -0.139930 0.703000 12102600
-0.035586 -0.136300 0.705000 11775179
-0.035687 -0.132647 0.707000 11512010
-0.035838 -0.129152 0.710000 11773632
-0.035990 -0.125624 0.713000 11184837
-0.036040 -0.121720 0.714000 11313856
-0.036292 -0.118464 0.719000 11906758
-0.036444 -0.114832 0.722000 12036808
-0.036595 -0.111167 0.725000 11971783
-0.036646 -0.107171 0.726000 11905735
-0.036797 -0.103449 0.729000 11971781
-0.037050 -0.099964 0.734000 11839939
-0.037150 -0.096030 0.736000 10727108
-0.037302 -0.092199 0.739000 9004427
-0.037453 -0.088333 0.742000 11971013
-0.037504 -0.084207 0.743000 11708098
-0.037706 -0.080391 0.747000 11707851
-0.036331 -0.178808 0.748000 13420773
-0.036040 -0.173133 0.742000 12428239
-0.035409 -0.165934 0.729000 12025771
-0.034923 -0.159550 0.719000 12620697
-0.034680 -0.154360 0.714000 13946857
-0.034340 -0.148807 0.707000 14078442
-0.034146 -0.143948 0.703000 12895980
-0.034146 -0.139930 0.703000 12235214
-0.034243 -0.136300 0.705000 11972816
-0.034340 -0.132647 0.707000 11709137
-0.034486 -0.129152 0.710000 12036804
-0.034631 -0.125624 0.713000 11380935
-0.034680 -0.121720 0.714000 11381189
-0.034826 -0.118134 0.717000 12169928
-0.034971 -0.114514 0.720000 12235210
-0.035214 -0.111167 0.725000 12169426
-0.035263 -0.107171 0.726000 12300491
-0.035409 -0.103449 0.729000 11775181
-0.035554 -0.099691 0.732000 12037832
-0.035651 -0.095770 0.734000 11447756
-0.035797 -0.091950 0.737000 10058418
-0.036040 -0.088333 0.742000 12103118
-0.036089 -0.084207 0.743000 11971784
-0.036283 -0.080391 0.747000 11839943
-0.035093 -0.184061 0.752000 13421800
-0.034860 -0.178569 0.747000 13420773
-0.034487 -0.172433 0.739000 12487121
-0.033973 -0.165707 0.728000 12026797
-0.033600 -0.159771 0.720000 12293796
-0.033320 -0.154360 0.714000 14078433
-0.032900 -0.148386 0.705000 14143465
-0.032807 -0.143948 0.703000 13093612
-0.032807 -0.139930 0.703000 12366801
-0.032900 -0.136300 0.705000 12169939
-0.032993 -0.132647 0.707000 11973332
-0.033040 -0.128789 0.708000 12299719
-0.033273 -0.125624 0.713000 11579852
-0.033320 -0.121720 0.714000 11446984
-0.033460 -0.118134 0.717000 12433102
-0.033693 -0.114832 0.722000 12367312
-0.033740 -0.110860 0.723000 12432084
-0.033880 -0.107171 0.726000 12694990
-0.034020 -0.103449 0.729000 11509676
-0.034160 -0.099691 0.732000 12235468
-0.034253 -0.095770 0.734000 12170704
-0.034393 -0.091950 0.737000 11118019
-0.034533 -0.088095 0.740000 12300496
-0.034673 -0.084207 0.743000 12169420
-0.034767 -0.080176 0.745000 12037579
-0.033661 -0.184061 0.752000 13486314
-0.033482 -0.178808 0.748000 13486820
-0.033079 -0.172433 0.739000 12622291
-0.032587 -0.165707 0.728000 12224431
-0.032229 -0.159771 0.720000 12556974
-0.031960 -0.154360 0.714000 14143960
-0.031647 -0.148807 0.707000 14143975
-0.031468 -0.143948 0.703000 13224429
-0.031468 -0.139930 0.703000 12564436
-0.031512 -0.136107 0.704000 12367062
-0.031647 -0.132647 0.707000 12169943
-0.031691 -0.128789 0.708000 12432330
-0.031915 -0.125624 0.713000 11774929
-0.031960 -0.121720 0.714000 11708618
-0.032050 -0.117970 0.716000 12366548
-0.032318 -0.114832 0.722000 12565206
-0.032363 -0.110860 0.723000 12563925
-0.032497 -0.107171 0.726000 11187664
-0.032587 -0.103307 0.728000 11239819
-0.032766 -0.099691 0.732000 12498897
-0.032855 -0.095770 0.734000 12433108
-0.032990 -0.091950 0.737000 11974869
-0.033124 -0.088095 0.740000 12432849
-0.033258 -0.084207 0.743000 12432336
-0.033348 -0.080176 0.745000 12300750
-0.032229 -0.184061 0.752000 13553899
-0.032014 -0.178569 0.747000 13552614
-0.031671 -0.172433 0.739000 12756198
-0.031200 -0.165707 0.728000 12423591
-0.030857 -0.159771 0.720000 12819372
-0.030600 -0.154360 0.714000 14142937
-0.030300 -0.148807 0.707000 14209257
-0.030129 -0.143948 0.703000 13356780
-0.030129 -0.139930 0.703000 12695515
-0.030171 -0.136107 0.704000 12564441
-0.030300 -0.132647 0.707000 12367831
-0.030343 -0.128789 0.708000 12564433
-0.030557 -0.125624 0.713000 11904981
-0.030600 -0.121720 0.714000 11972299
-0.030686 -0.117970 0.716000 12296384
-0.030857 -0.114514 0.720000 12759483
-0.030986 -0.110860 0.723000 12696024
-0.031114 -0.107171 0.726000 9605062
-0.031200 -0.103307 0.728000 10969218
-0.031329 -0.099555 0.731000 12696784
-0.031457 -0.095770 0.734000 12629462
-0.031586 -0.091950 0.737000 12761303
-0.031714 -0.088095 0.740000 12629973
-0.031843 -0.084207 0.743000 12695252
-0.031929 -0.080176 0.745000 12497874
-0.030796 -0.184061 0.752000 13552620
-0.030510 -0.178090 0.745000 13683432
-0.030182 -0.171967 0.737000 12167416
-0.029813 -0.165707 0.728000 12360864
-0.029568 -0.160215 0.722000 11899049
-0.029240 -0.154360 0.714000 14144218
-0.028953 -0.148807 0.707000 14209771
-0.028790 -0.143948 0.703000 13552874
-0.028790 -0.139930 0.703000 12893154
-0.028830 -0.136107 0.704000 12696028
-0.028953 -0.132647 0.707000 12433110
-0.028994 -0.128789 0.708000 12762583
-0.029117 -0.125271 0.711000 12037337
-0.029240 -0.121720 0.714000 12104653
-0.029322 -0.117970 0.716000 11697579
-0.029486 -0.114514 0.720000 12888737
-0.029568 -0.110707 0.722000 12959194
-0.029731 -0.107171 0.726000 10780861
-0.029813 -0.103307 0.728000 11035512
-0.029936 -0.099555 0.731000 12828623
-0.030059 -0.095770 0.734000 12761304
-0.030182 -0.091950 0.737000 12826841
-0.030264 -0.087976 0.739000 12761816
-0.030428 -0.084207 0.743000 12827096
-0.030510 -0.080176 0.745000 12696022
-0.029364 -0.184061 0.752000 13553902
-0.029169 -0.178569 0.747000 13748966
-0.028778 -0.171967 0.737000 11574466
-0.028349 -0.165251 0.726000 12292013
-0.028231 -0.160437 0.723000 10975910
-0.027880 -0.154360 0.714000 14143203
-0.027607 -0.148807 0.707000 14209000
-0.027450 -0.143948 0.703000 13685228
-0.027450 -0.139930 0.703000 13024480
-0.027490 -0.136107 0.704000 12762078
-0.027607 -0.132647 0.707000 12565464
-0.027646 -0.128789 0.708000 12959193
-0.027763 -0.125271 0.711000 12165091
-0.027880 -0.121720 0.714000 12236238
-0.027958 -0.117970 0.716000 11172273
-0.028114 -0.114514 0.720000 13009551
-0.028192 -0.110707 0.722000 13287646
-0.028349 -0.107171 0.726000 11904208
-0.028466 -0.103449 0.729000 11030640
-0.028544 -0.099555 0.731000 12960216
-0.028583 -0.095509 0.732000 12958172
-0.028778 -0.091950 0.737000 12893403
-0.028895 -0.088095 0.740000 12958940
-0.029012 -0.084207 0.743000 12959453
-0.029090 -0.080176 0.745000 12959944
-0.027857 -0.183571 0.750000 13618159
-0.027671 -0.178090 0.745000 13748965
-0.027337 -0.171733 0.736000 12030348
-0.027040 -0.165707 0.728000 11767226
-0.026854 -0.160437 0.723000 11375267
-0.026483 -0.154144 0.713000 14078700
-0.026260 -0.148807 0.707000 14275045
-0.026111 -0.143948 0.703000 13749743
-0.026111 -0.139930 0.703000 13156574
-0.026149 -0.136107 0.704000 12893921
-0.026186 -0.132271 0.705000 12630233
-0.026297 -0.128789 0.708000 13157595
-0.026483 -0.125624 0.713000 12168685
-0.026520 -0.121720 0.714000 12499408
-0.026631 -0.118134 0.717000 11436983
-0.026743 -0.114514 0.720000 11350908
-0.026817 -0.110707 0.722000 13420002
-0.026966 -0.107171 0.726000 12961764
-0.027040 -0.103307 0.728000 10973543
-0.027151 -0.099555 0.731000 13222625
-0.027263 -0.095770 0.734000 13156831
-0.027374 -0.091950 0.737000 13156318
-0.027486 -0.088095 0.740000 13156575
-0.027597 -0.084207 0.743000 13026019
-0.027671 -0.080176 0.745000 12033977
-0.026358 -0.183082 0.748000 13619949
-0.026252 -0.178090 0.745000 13683431
-0.025935 -0.171733 0.736000 12476576
-0.025653 -0.165707 0.728000 11243705
-0.025477 -0.160437 0.723000 11777740
-0.025125 -0.154144 0.713000 13947369
-0.024913 -0.148807 0.707000 14339045
-0.024772 -0.143948 0.703000 13816560
-0.024772 -0.139930 0.703000 13287904
-0.024808 -0.136107 0.704000 13025508
-0.024843 -0.132271 0.705000 12762589
-0.024949 -0.128789 0.708000 13288669
-0.025054 -0.125271 0.711000 12172015
-0.025160 -0.121720 0.714000 12694730
-0.025266 -0.118134 0.717000 11707601
-0.025371 -0.114514 0.720000 9669042
-0.025477 -0.110860 0.723000 13617124
-0.025583 -0.107171 0.726000 13944298
-0.025653 -0.103307 0.728000 10908831
-0.025759 -0.099555 0.731000 13421286
-0.025794 -0.095509 0.732000 13354468
-0.025970 -0.091950 0.737000 13420257
-0.026076 -0.088095 0.740000 13354210
-0.026182 -0.084207 0.743000 13021139
-0.026252 -0.080176 0.745000 11103169
-0.025000 -0.183571 0.750000 13618154
-0.024833 -0.178090 0.745000 13683433
-0.024533 -0.171733 0.736000 12159156
-0.024300 -0.165934 0.729000 10983352
-0.024100 -0.160437 0.723000 12896244
-0.023767 -0.154144 0.713000 14012135
-0.023567 -0.148807 0.707000 14340324
-0.023433 -0.143948 0.703000 14012145
-0.023433 -0.139930 0.703000 13419490
-0.023467 -0.136107 0.704000 13156839
-0.023500 -0.132271 0.705000 12893409
-0.023600 -0.128789 0.708000 13552095
-0.023767 -0.125624 0.713000 12501489
-0.023867 -0.122061 0.716000 12499141
-0.023967 -0.118464 0.719000 12893930
-0.024000 -0.114514 0.720000 11913192
-0.024067 -0.110707 0.722000 13683173
-0.024200 -0.107171 0.726000 13815024
-0.024267 -0.103307 0.728000 12299990
-0.024367 -0.099555 0.731000 13552619
-0.024467 -0.095770 0.734000 13224424
-0.024567 -0.091950 0.737000 13618404
-0.024733 -0.088333 0.742000 13486053
-0.024767 -0.084207 0.743000 12751044
-0.024833 -0.080176 0.745000 11171528
-0.023634 -0.184061 0.752000 13619433
-0.023414 -0.178090 0.745000 13617639
-0.023131 -0.171733 0.736000 11826379
-0.022880 -0.165707 0.728000 10722250
-0.022691 -0.160215 0.722000 14017775
-0.022346 -0.153711 0.711000 14012136
-0.022126 -0.148175 0.704000 14404585
-0.022031 -0.143538 0.701000 14144752
-0.022031 -0.139532 0.701000 13485286
-0.022094 -0.135913 0.703000 13223147
-0.022157 -0.132271 0.705000 12958433
-0.022220 -0.128607 0.707000 13748194
-0.022346 -0.125271 0.711000 12898545
-0.022440 -0.121720 0.714000 12232647
-0.022534 -0.118134 0.717000 14078443
-0.022597 -0.114355 0.719000 14142697
-0.022691 -0.110707 0.722000 13748968
-0.022786 -0.107024 0.725000 13618669
-0.022880 -0.103307 0.728000 13683171
-0.022911 -0.099283 0.729000 13617900
-0.023069 -0.095770 0.734000 13095146
-0.023163 -0.091950 0.737000 13809354
-0.023257 -0.088095 0.740000 13683431
-0.023351 -0.084207 0.743000 12429020
-0.023414 -0.080176 0.745000 11161041
-0.022202 -0.184061 0.752000 13552359
-0.021936 -0.177612 0.743000 13551844
-0.021670 -0.171267 0.734000 12759010
-0.021493 -0.165707 0.728000 12098269
-0.021080 -0.158440 0.714000 13947881
-0.020991 -0.153711 0.711000 13946601
-0.020755 -0.147965 0.703000 14341101
-0.020696 -0.143538 0.701000 14012911
-0.020696 -0.139532 0.701000 13617130
-0.020755 -0.135913 0.703000 13485295
-0.020785 -0.132084 0.704000 13090528
-0.020873 -0.128607 0.707000 13815013
-0.020991 -0.125271 0.711000 13357297
-0.021080 -0.121720 0.714000 12227786
-0.021169 -0.118134 0.717000 14077931
-0.021228 -0.114355 0.719000 14011627
-0.021257 -0.110400 0.720000 13815018
-0.021405 -0.107024 0.725000 13815275
-0.021434 -0.103023 0.726000 13815023
-0.021523 -0.099283 0.729000 13683694
-0.021611 -0.095509 0.732000 12691947
-0.021730 -0.091825 0.736000 13476017
-0.021848 -0.088095 0.740000 13815273
-0.021907 -0.084093 0.742000 13221108
-0.021936 -0.079961 0.743000 12557529
-0.020659 -0.183082 0.748000 13488100
-0.020576 -0.178090 0.745000 13486051
-0.020328 -0.171733 0.736000 13683682
-0.020107 -0.165707 0.728000 13418467
-0.019803 -0.159106 0.717000 13814760
-0.019637 -0.153711 0.711000 13880808
-0.019416 -0.147965 0.703000 14276592
-0.019361 -0.143538 0.701000 13881839
-0.019361 -0.139532 0.701000 13683180
-0.019416 -0.135913 0.703000 13684207
-0.019444 -0.132084 0.704000 13287138
-0.019554 -0.128789 0.708000 13880040
-0.019637 -0.125271 0.711000 13751799
-0.019720 -0.121720 0.714000 12161491
-0.019803 -0.118134 0.717000 14077679
-0.019858 -0.114355 0.719000 13880813
-0.019941 -0.110707 0.722000 13880814
-0.020024 -0.107024 0.725000 13946861
-0.020107 -0.103307 0.728000 14012144
-0.020134 -0.099283 0.729000 13749999
-0.020217 -0.095509 0.732000 12291781
-0.020328 -0.091825 0.736000 13146548
-0.020438 -0.088095 0.740000 13946859
-0.020493 -0.084093 0.742000 14011890
-0.020521 -0.079961 0.743000 13948391
-0.019234 -0.183082 0.748000 13486049
-0.019157 -0.178090 0.745000 13485794
-0.018926 -0.171733 0.736000 13617890
-0.018720 -0.165707 0.728000 13552873
-0.018437 -0.159106 0.717000 13815015
-0.018283 -0.153711 0.711000 13946599
-0.018077 -0.147965 0.703000 14540275
-0.018026 -0.143538 0.701000 13946607
-0.018026 -0.139532 0.701000 13814509
-0.018077 -0.135913 0.703000 13947887
-0.018103 -0.132084 0.704000 13353187
-0.018257 -0.129152 0.710000 14078187
-0.018283 -0.125271 0.711000 13949692
-0.018360 -0.121720 0.714000 11889371
-0.018437 -0.118134 0.717000 14143986
-0.018489 -0.114355 0.719000 14012399
-0.018566 -0.110707 0.722000 14209777
-0.018643 -0.107024 0.725000 14012912
-0.018720 -0.103307 0.728000 14077936
-0.018746 -0.099283 0.729000 14012400
-0.018874 -0.095770 0.734000 11958687
-0.018951 -0.091950 0.737000 13478328
-0.019029 -0.088095 0.740000 14078445
-0.019080 -0.084093 0.742000 14078961
-0.019106 -0.079961 0.743000 14210548
-0.017810 -0.183082 0.748000 13552862
-0.017738 -0.178090 0.745000 13486050
-0.017524 -0.171733 0.736000 13552100
-0.017286 -0.165251 0.726000 13683944
-0.017071 -0.159106 0.717000 13749480
-0.016929 -0.153711 0.711000 14011623
-0.016762 -0.148175 0.704000 14807796
-0.016690 -0.143538 0.701000 13948143
-0.016690 -0.139532 0.701000 13880046
-0.016738 -0.135913 0.703000 14145776
-0.016786 -0.132271 0.705000 13484516
-0.016905 -0.129152 0.710000 14209519
-0.016976 -0.125624 0.713000 14080751
-0.017048 -0.122061 0.716000 11564482
-0.017071 -0.118134 0.717000 14276598
-0.017119 -0.114355 0.719000 14143984
-0.017214 -0.110860 0.723000 14539249
-0.017286 -0.107171 0.726000 14012907
-0.017333 -0.103307 0.728000 14143728
-0.017405 -0.099555 0.731000 14275312
-0.017476 -0.095770 0.734000 11695816
-0.017548 -0.091950 0.737000 13743829
-0.017619 -0.088095 0.740000 14209520
-0.017667 -0.084093 0.742000 14144496
-0.017690 -0.079961 0.743000 14472178
-0.016385 -0.183082 0.748000 13354202
-0.016319 -0.178090 0.745000 13551841
-0.016122 -0.171733 0.736000 13617638
-0.015903 -0.165251 0.726000 13749735
-0.015706 -0.159106 0.717000 13815273
-0.015574 -0.153711 0.711000 13946087
-0.015421 -0.148175 0.704000 14738932
-0.015355 -0.143538 0.701000 14210543
-0.015355 -0.139532 0.701000 14078703
-0.015421 -0.136107 0.704000 14345714
-0.015487 -0.132647 0.707000 13681893
-0.015574 -0.129334 0.711000 14211828
-0.015618 -0.125624 0.713000 12556770
-0.015684 -0.122061 0.716000 11751850
-0.015706 -0.118134 0.717000 14276345
-0.015771 -0.114514 0.720000 14340593
-0.015837 -0.110860 0.723000 13290993
-0.015903 -0.107171 0.726000 13813735
-0.015969 -0.103449 0.729000 14275823
-0.016034 -0.099691 0.732000 14406640
-0.016122 -0.096030 0.736000 13219056
-0.016144 -0.091950 0.737000 14341875
-0.016210 -0.088095 0.740000 14341874
-0.016275 -0.084207 0.743000 14341359
-0.016319 -0.080176 0.745000 14538224
-0.014960 -0.183082 0.748000 13223127
-0.014860 -0.177612 0.743000 13551843
-0.014640 -0.170800 0.732000 13617894
-0.014520 -0.165251 0.726000 13749734
-0.014380 -0.159550 0.719000 13946345
-0.014220 -0.153711 0.711000 13880807
-0.014100 -0.148386 0.705000 14738421
-0.014060 -0.143948 0.703000 14407663
-0.014080 -0.140130 0.704000 14276335
-0.014080 -0.136107 0.704000 14539761
-0.014160 -0.132834 0.708000 13878245
-0.014220 -0.129334 0.711000 14207973
-0.014260 -0.125624 0.713000 11039728
-0.014320 -0.122061 0.716000 11962551
-0.014380 -0.118464 0.719000 14343408
-0.014400 -0.114514 0.720000 14537969
-0.014460 -0.110860 0.723000 11968453
-0.014560 -0.107467 0.728000 13611979
-0.014580 -0.103449 0.729000 14473455
-0.014640 -0.099691 0.732000 14472943
-0.014680 -0.095770 0.734000 14736368
-0.014740 -0.091950 0.737000 14867956
-0.014800 -0.088095 0.740000 14540001
-0.014860 -0.084207 0.743000 14473456
-0.014940 -0.080391 0.747000 14669552
-0.013517 -0.182837 0.747000 13221588
-0.013445 -0.177612 0.743000 13551844
-0.013246 -0.170800 0.732000 13617893
-0.013119 -0.165024 0.725000 13815014
-0.013010 -0.159550 0.719000 13880809
-0.012902 -0.154144 0.713000 13749735
-0.012739 -0.148175 0.704000 14869493
-0.012721 -0.143948 0.703000 14538991
-0.012739 -0.140130 0.704000 14341870
-0.012757 -0.136300 0.705000 14801905
-0.012848 -0.133210 0.710000 14077668
-0.012902 -0.129698 0.713000 12362199
-0.012956 -0.126152 0.716000 12429054
-0.012956 -0.122061 0.716000 11907781
-0.013010 -0.118464 0.719000 14078182
-0.013065 -0.114832 0.722000 14802416
-0.013119 -0.111167 0.725000 11626136
-0.013173 -0.107467 0.728000 13741232
-0.013191 -0.103449 0.729000 14604783
-0.013246 -0.099691 0.732000 14538991
-0.013318 -0.096030 0.736000 14670576
-0.013372 -0.092199 0.739000 14932982
-0.013427 -0.088333 0.742000 13547472
-0.013445 -0.084207 0.743000 14801904
-0.013517 -0.080391 0.747000 14801904
-0.012030 -0.181858 0.743000 13288391
-0.012030 -0.177612 0.743000 13552102
-0.011851 -0.170800 0.732000 13683685
-0.011738 -0.165024 0.725000 13880807
-0.011641 -0.159550 0.719000 13815273
-0.011560 -0.154360 0.714000 13618151
-0.011414 -0.148386 0.705000 15002615
-0.011398 -0.144152 0.704000 14604527
-0.011414 -0.140329 0.705000 14472943
-0.011447 -0.136687 0.707000 15064817
-0.011511 -0.133397 0.711000 14206442
-0.011560 -0.129880 0.714000 10461646
-0.011592 -0.126152 0.716000 13810911
-0.011609 -0.122231 0.717000 11770808
-0.011641 -0.118464 0.719000 13816042
-0.011706 -0.114991 0.723000 15064051
-0.011738 -0.111167 0.725000 11300511
-0.011787 -0.107467 0.728000 13812428
-0.011835 -0.103732 0.731000 14801392
-0.011884 -0.099964 0.734000 14605039
-0.011916 -0.096030 0.736000 14604528
-0.011932 -0.091950 0.737000 14999029
-0.012013 -0.088333 0.742000 12478162
-0.012030 -0.084207 0.743000 15064555
-0.012094 -0.080391 0.747000 14933233
-0.010600 -0.181613 0.742000 13154489
-0.010600 -0.177373 0.742000 13617639
-0.010457 -0.170800 0.732000 13683684
-0.010357 -0.165024 0.725000 13946600
-0.010271 -0.159550 0.719000 13815273
-0.010186 -0.154144 0.713000 13551848
-0.010071 -0.148386 0.705000 14935800
-0.010057 -0.144152 0.704000 14538479
-0.010071 -0.140329 0.705000 14538479
-0.010100 -0.136687 0.707000 14870258
-0.010157 -0.133397 0.711000 13486063
-0.010200 -0.129880 0.714000 11441094
-0.010229 -0.126152 0.716000 13342912
-0.010243 -0.122231 0.717000 11568300
-0.010286 -0.118629 0.720000 14078958
-0.010329 -0.114991 0.723000 15131637
-0.010371 -0.111320 0.726000 12419493
-0.010414 -0.107614 0.729000 14540264
-0.010443 -0.103732 0.731000 14802160
-0.010514 -0.100236 0.736000 14736879
-0.010529 -0.096161 0.737000 14801903
-0.010557 -0.092199 0.739000 14474996
-0.010600 -0.088333 0.742000 12483540
-0.010643 -0.084433 0.745000 15131110
-0.010686 -0.080499 0.748000 14999025
-0.009187 -0.181613 0.742000 13088169
-0.009187 -0.177373 0.742000 13618150
-0.009063 -0.170800 0.732000 13683684
-0.008976 -0.165024 0.725000 14011880
-0.008877 -0.159106 0.717000 13880552
-0.008828 -0.154144 0.713000 13422057
-0.008753 -0.148807 0.707000 14934771
-0.008729 -0.144357 0.705000 14472943
-0.008729 -0.140329 0.705000 14604015
-0.008753 -0.136687 0.707000 14671345
-0.008803 -0.133397 0.711000 12768244
-0.008865 -0.130244 0.716000 12419517
-0.008877 -0.126329 0.717000 12812732
-0.008902 -0.122572 0.719000 11306158
-0.008951 -0.119123 0.723000 14342887
-0.008976 -0.115310 0.725000 15197174
-0.008989 -0.111320 0.726000 13474765
-0.009026 -0.107614 0.729000 15261677
-0.009063 -0.103874 0.732000 14867952
-0.009112 -0.100236 0.736000 14868208
-0.009125 -0.096161 0.737000 14933487
-0.009150 -0.092199 0.739000 13876970
-0.009199 -0.088452 0.743000 12490440
-0.009249 -0.084660 0.747000 15130861
-0.009261 -0.080499 0.748000 15064562
-0.007773 -0.177373 0.742000 13617638
-0.007669 -0.170800 0.732000 13683428
-0.007595 -0.165024 0.725000 13946088
-0.007511 -0.159106 0.717000 13684199
-0.007449 -0.153711 0.711000 14142698
-0.007407 -0.148807 0.707000 14736366
-0.007386 -0.144357 0.705000 14407407
-0.007407 -0.140727 0.707000 14473199
-0.007417 -0.136880 0.708000 14340847
-0.007470 -0.133772 0.713000 13224184
-0.007511 -0.130426 0.717000 12480949
-0.007532 -0.126681 0.719000 12945848
-0.007543 -0.122743 0.720000 11698097
-0.007574 -0.119123 0.723000 14073311
-0.007606 -0.115469 0.726000 15197174
-0.007637 -0.111780 0.729000 14274549
-0.007658 -0.107910 0.731000 15131379
-0.007669 -0.103874 0.732000 14999535
-0.007710 -0.100236 0.736000 14934257
-0.007721 -0.096161 0.737000 14933487
-0.007752 -0.092324 0.740000 13743073
-0.007784 -0.088452 0.743000 13280700
-0.007826 -0.084660 0.747000 15131124
-0.007836 -0.080499 0.748000 15131123
-0.006360 -0.181613 0.742000 12821148
-0.006343 -0.176895 0.740000 13551840
-0.006274 -0.170800 0.732000 13683428
-0.006197 -0.164569 0.723000 13815017
-0.006146 -0.159106 0.717000 13553127
-0.006111 -0.154144 0.713000 14867437
-0.006060 -0.148807 0.707000 14537453
-0.006060 -0.144767 0.707000 14341871
-0.006069 -0.140926 0.708000 14406895
-0.006086 -0.137267 0.710000 14012143
-0.006120 -0.133960 0.714000 13688817
-0.006163 -0.130790 0.719000 12480686
-0.006163 -0.126681 0.719000 13082035
-0.006189 -0.123084 0.722000 12091308
-0.006214 -0.119452 0.725000 13795246
-0.006223 -0.115469 0.726000 15196916
-0.006249 -0.111780 0.729000 15065842
-0.006274 -0.108057 0.732000 14999794
-0.006291 -0.104158 0.734000 15065845
-0.006317 -0.100372 0.737000 14933481
-0.006317 -0.096161 0.737000 14867696
-0.006360 -0.092573 0.742000 13552362
-0.006386 -0.088690 0.745000 14142682
-0.006411 -0.084773 0.748000 15131636
-0.004947 -0.181613 0.742000 12756127
-0.004933 -0.176895 0.740000 13486043
-0.004880 -0.170800 0.732000 13617891
-0.004820 -0.164569 0.723000 13815275
-0.004793 -0.159550 0.719000 13617895
-0.004753 -0.154144 0.713000 15199984
-0.004720 -0.149017 0.708000 14407148
-0.004720 -0.144971 0.708000 14276336
-0.004733 -0.141324 0.710000 14209774
-0.004753 -0.137847 0.713000 13944559
-0.004773 -0.134335 0.716000 13417962
-0.004793 -0.130790 0.719000 12276648
-0.004813 -0.127210 0.722000 12554157
-0.004820 -0.123254 0.723000 11171239
-0.004833 -0.119452 0.725000 13334909
-0.004853 -0.115787 0.728000 15065585
-0.004880 -0.112240 0.732000 14933743
-0.004907 -0.108648 0.736000 14868722
-0.004907 -0.104442 0.736000 13817851
-0.004913 -0.100372 0.737000 14669536
-0.004913 -0.096161 0.737000 14868208
-0.004947 -0.092573 0.742000 14280180
-0.004980 -0.088929 0.747000 14605559
-0.005000 -0.085000 0.750000 14868213
-0.003510 -0.176178 0.737000 13354193
-0.003481 -0.170567 0.731000 13617634
-0.003443 -0.164569 0.723000 13749736
-0.003414 -0.159106 0.717000 13683170
-0.003395 -0.154144 0.713000 15459057
-0.003381 -0.149438 0.710000 14341869
-0.003381 -0.145381 0.710000 14210287
-0.003386 -0.141523 0.711000 14078191
-0.003395 -0.137847 0.713000 13815023
-0.003414 -0.134523 0.717000 13215703
-0.003438 -0.131335 0.722000 12089272
-0.003443 -0.127386 0.723000 11961251
-0.003452 -0.123595 0.725000 10261936
-0.003457 -0.119617 0.726000 12956606
-0.003471 -0.115946 0.729000 14934770
-0.003495 -0.112547 0.734000 14736623
-0.003505 -0.108648 0.736000 14736112
-0.003510 -0.104584 0.737000 12632267
-0.003519 -0.100645 0.739000 14400978
-0.003524 -0.096552 0.740000 14868210
-0.003538 -0.092698 0.743000 15000310
-0.003562 -0.089048 0.748000 14999540
-0.003581 -0.085227 0.752000 14604267
-0.002106 -0.176178 0.737000 13222856
-0.002083 -0.170100 0.729000 13486048
-0.002063 -0.164341 0.722000 13684197
-0.002049 -0.159106 0.717000 13946076
-0.002037 -0.154144 0.713000 15065586
-0.002029 -0.149438 0.710000 14276334
-0.002031 -0.145586 0.711000 14144495
-0.002037 -0.141921 0.713000 14012911
-0.002046 -0.138427 0.716000 13946607
-0.002054 -0.134898 0.719000 12883395
-0.002066 -0.131517 0.723000 13021896
-0.002071 -0.127738 0.725000 11693464
-0.002074 -0.123766 0.726000 11978938
-0.002080 -0.119947 0.728000 13818110
-0.002089 -0.116264 0.731000 14933491
-0.002097 -0.112547 0.734000 14736623
-0.002106 -0.108795 0.737000 14470639
-0.002106 -0.104584 0.737000 11887514
-0.002111 -0.100645 0.739000 14335172
-0.002123 -0.096944 0.743000 14868723
-0.002129 -0.092948 0.745000 14804983
-0.002137 -0.089048 0.748000 14933744
-0.002151 -0.085340 0.753000 14536417
-0.000696 -0.170567 0.731000 13419229
-0.000688 -0.164341 0.722000 13551323
-0.000683 -0.159106 0.717000 14271977
-0.000679 -0.154144 0.713000 14605553
-0.000677 -0.149649 0.711000 14275823
-0.000679 -0.145995 0.713000 14078703
-0.000680 -0.142120 0.714000 14012912
-0.000683 -0.138620 0.717000 14078962
-0.000688 -0.135461 0.722000 12488918
-0.000689 -0.131517 0.723000 13876437
-0.000691 -0.127914 0.726000 11359402
-0.000691 -0.123766 0.726000 13682643
-0.000694 -0.120111 0.729000 14673641
-0.000696 -0.116264 0.731000 14866914
-0.000701 -0.112853 0.736000 14736879
-0.000704 -0.109090 0.739000 14141680
-0.000705 -0.105010 0.740000 11168445
-0.000704 -0.100645 0.739000 14208477
-0.000710 -0.097205 0.745000 14802416
-0.000712 -0.093322 0.748000 14595034
-0.000714 -0.089286 0.750000 14802931
-0.000717 -0.085340 0.753000 14470890
0.000696 -0.170567 0.731000 13353946
0.000686 -0.163886 0.720000 13547729
0.000683 -0.159106 0.717000 14605813
0.000680 -0.154360 0.714000 14406129
0.000679 -0.150070 0.713000 14144495
0.000680 -0.146200 0.714000 14078448
0.000682 -0.142518 0.716000 14078192
0.000685 -0.139007 0.719000 14473973
0.000686 -0.135086 0.720000 13156073
0.000690 -0.131881 0.725000 13614817
0.000691 -0.127914 0.726000 12359611
0.000693 -0.124107 0.728000 13221612
0.000694 -0.120111 0.729000 13210067
0.000697 -0.116423 0.732000 14868432
0.000702 -0.113007 0.737000 14670575
0.000705 -0.109238 0.740000 14408177
0.000707 -0.105293 0.742000 13023712
0.000707 -0.101053 0.742000 14606582
0.000712 -0.097596 0.748000 13745644
0.000712 -0.093322 0.748000 12400829
0.000714 -0.089286 0.750000 14999798
0.002083 -0.170100 0.729000 13290978
0.002057 -0.163886 0.720000 13487845
0.002054 -0.159550 0.719000 15001844
0.002040 -0.154360 0.714000 14143984
0.002040 -0.150280 0.714000 14078703
0.002046 -0.146610 0.716000 14012910
0.002049 -0.142717 0.717000 14209261
0.002054 -0.139007 0.719000 14865649
0.002063 -0.135461 0.722000 13815271
0.002071 -0.131881 0.725000 13354214
0.002080 -0.128267 0.728000 13423322
0.002083 -0.124277 0.729000 12696551
0.002089 -0.120441 0.731000 11766233
0.002103 -0.117059 0.736000 14865634
0.002114 -0.113467 0.740000 14670063
0.002123 -0.109681 0.743000 14670578
0.002120 -0.105293 0.742000 14937580
0.002123 -0.101190 0.743000 14999284
0.002137 -0.097596 0.748000 12696047
0.002143 -0.093571 0.750000 10192853
0.002149 -0.089524 0.752000 15134199
0.003471 -0.170100 0.729000 13553386
0.003429 -0.163886 0.720000 14084858
0.003414 -0.159106 0.717000 14670579
0.003414 -0.155009 0.717000 14143472
0.003410 -0.150701 0.716000 13947375
0.003424 -0.147224 0.719000 13947371
0.003429 -0.143314 0.720000 14077930
0.003438 -0.139587 0.722000 14076652
0.003452 -0.136024 0.725000 13616101
0.003457 -0.132063 0.726000 13950699
0.003471 -0.128443 0.729000 14015737
0.003481 -0.124618 0.731000 13416163
0.003486 -0.120606 0.732000 13087198
0.003519 -0.117536 0.739000 14802421
0.003533 -0.113773 0.742000 14538990
0.003538 -0.109681 0.743000 14737139
0.003538 -0.105435 0.743000 14606072
0.003557 -0.101734 0.747000 14801906
0.003571 -0.097857 0.750000 13550322
0.003571 -0.093571 0.750000 12569836
0.003586 -0.089643 0.753000 14145528
0.004800 -0.163886 0.720000 14604517
0.004780 -0.159106 0.717000 14339046
0.004780 -0.155009 0.717000 14142949
0.004780 -0.150911 0.717000 13750506
0.004800 -0.147429 0.720000 13880806
0.004800 -0.143314 0.720000 13945825
0.004813 -0.139587 0.722000 13223140
0.004820 -0.135649 0.723000 13483495
0.004853 -0.132427 0.728000 14539244
0.004873 -0.128795 0.731000 14670068
0.004880 -0.124789 0.732000 14076908
0.004907 -0.121265 0.736000 14408939
0.004933 -0.117695 0.740000 14671347
0.004953 -0.113927 0.743000 14472945
0.004967 -0.109976 0.745000 14800358
0.004967 -0.105719 0.745000 14339279
0.004987 -0.101870 0.748000 14604272
0.005013 -0.098118 0.752000 14473461
0.005013 -0.093821 0.752000 14932975
0.005040 -0.090000 0.756000 13087448
0.006171 -0.163886 0.720000 13813713
0.006146 -0.159106 0.717000 13615577
0.006163 -0.155441 0.719000 13550809
0.006146 -0.150911 0.717000 13552612
0.006189 -0.147838 0.722000 13552864
0.006171 -0.143314 0.720000 13484247
0.006197 -0.139780 0.723000 13089243
0.006214 -0.136024 0.725000 13419496
0.006249 -0.132609 0.729000 14210541
0.006266 -0.128795 0.731000 14339822
0.006291 -0.125130 0.734000 14146293
0.006317 -0.121430 0.737000 14276343
0.006386 -0.118490 0.745000 14538225
0.006403 -0.114540 0.747000 14473203
0.006403 -0.110271 0.747000 13680600
0.006386 -0.105719 0.745000 13743782
0.006429 -0.102143 0.750000 14670575
0.006454 -0.098249 0.753000 14539255
0.006454 -0.093946 0.753000 14868210
0.006480 -0.090000 0.756000 13083064
0.007543 -0.163886 0.720000 12955579
0.007511 -0.159106 0.717000 12954816
0.007532 -0.155441 0.719000 12891077
0.007543 -0.151543 0.720000 13421002
0.007564 -0.147838 0.722000 13218753
0.007543 -0.143314 0.720000 13087678
0.007574 -0.139780 0.723000 12955841
0.007595 -0.136024 0.725000 13418185
0.007637 -0.132609 0.729000 13876683
0.007658 -0.128795 0.731000 14073547
0.007710 -0.125470 0.736000 14206413
0.007742 -0.121759 0.739000 14206417
0.007826 -0.118809 0.747000 14404309
0.007826 -0.114540 0.747000 14538713
0.007836 -0.110419 0.748000 12498643
0.007836 -0.106145 0.748000 13215674
0.007857 -0.102143 0.750000 14734558
0.007910 -0.098510 0.755000 14669284
0.007910 -0.094195 0.755000 14799328
0.007920 -0.090000 0.756000 13090505
0.008914 -0.151543 0.720000 13020848
0.008939 -0.147838 0.722000 13016739
0.009112 -0.125470 0.736000 13280421
0.009150 -0.121759 0.739000 13348011
0.009261 -0.118968 0.748000 13415354
0.009286 -0.115000 0.750000 13482175
0.009286 -0.110714 0.750000 12695758
0.009261 -0.106145 0.748000 13022669
0.009348 -0.102824 0.755000 13746381
0.009348 -0.098510 0.755000 13614544
0.009385 -0.094570 0.758000 13813198
0.010557 -0.121759 0.739000 12492716
0.010686 -0.118968 0.748000 12428209
0.010714 -0.115000 0.750000 12360626
0.010714 -0.110714 0.750000 12888250
0.010714 -0.106429 0.750000 12824248
0.010786 -0.102824 0.755000 12756917
0.010786 -0.098510 0.755000 12559797
0.010829 -0.094570 0.758000 12756148
0.012224 -0.102824 0.755000 12753565
0.012272 -0.094570 0.758000 12687515
-0.068074 -0.150589 0.722000 11705251
-0.066514 -0.154286 0.720000 11639204
-0.066699 -0.150589 0.722000 10716300
-0.066791 -0.146666 0.723000 12624538
-0.065414 -0.159060 0.723000 11440039
-0.065143 -0.154286 0.720000 10849958
-0.065143 -0.150171 0.720000 9988726
-0.065324 -0.146463 0.722000 11044232
-0.065595 -0.142929 0.725000 11835284
-0.065595 -0.138786 0.725000 12098469
-0.064214 -0.159500 0.725000 10986436
-0.063771 -0.154286 0.720000 10131107
-0.063771 -0.150171 0.720000 9204616
-0.063949 -0.146463 0.722000 9531271
-0.064037 -0.142534 0.723000 10913160
-0.064214 -0.138786 0.725000 11702930
-0.062833 -0.159500 0.725000 12304866
-0.062400 -0.154286 0.720000 10524319
-0.062400 -0.150171 0.720000 9402266
-0.062400 -0.146057 0.720000 9270405
-0.062660 -0.142534 0.723000 9990524
-0.062660 -0.138403 0.723000 10387070
-0.064047 -0.128797 0.739000 11506315
-0.064133 -0.124743 0.740000 11506833
-0.065260 -0.109723 0.753000 11638418
-0.065520 -0.105840 0.756000 11176579
-0.062639 -0.171026 0.739000 13287891
-0.062046 -0.165223 0.732000 14210283
-0.061452 -0.159500 0.725000 13617380
-0.061029 -0.154286 0.720000 10917051
-0.060944 -0.149963 0.719000 9537695
-0.061029 -0.146057 0.720000 9009543
-0.061198 -0.142337 0.722000 9074558
-0.061198 -0.138211 0.722000 9075327
-0.061283 -0.134271 0.723000 8349293
-0.062470 -0.128449 0.737000 10189177
-0.062639 -0.124574 0.739000 10323072
-0.062724 -0.120514 0.740000 10647933
-0.063741 -0.109577 0.752000 11703942
-0.064080 -0.105840 0.756000 11175808
-0.064250 -0.101789 0.758000 10847098
-0.061314 -0.171257 0.740000 14017261
-0.060651 -0.165223 0.732000 13946598
-0.060071 -0.159500 0.725000 13618663
-0.059657 -0.154286 0.720000 11314646
-0.059574 -0.149963 0.719000 10066084
-0.059574 -0.145854 0.719000 9140873
-0.059657 -0.141943 0.720000 9141121
-0.059823 -0.138211 0.722000 9075328
-0.060071 -0.134643 0.725000 8541542
-0.060817 -0.132120 0.734000 8670044
-0.060983 -0.128274 0.736000 9135463
-0.061066 -0.124237 0.737000 9795950
-0.061314 -0.120514 0.740000 9782367
-0.061729 -0.117071 0.745000 10117225
-0.062143 -0.113571 0.750000 10648440
-0.062309 -0.109577 0.752000 10584442
-0.062557 -0.105700 0.755000 10518397
-0.062640 -0.101520 0.756000 10519163
-0.062971 -0.097714 0.760000 10519675
-0.060148 -0.180443 0.743000 12557987
-0.060067 -0.175960 0.742000 13083568
-0.059905 -0.171257 0.740000 14735339
-0.059257 -0.165223 0.732000 13748709
-0.058529 -0.159060 0.723000 13618406
-0.058205 -0.154071 0.719000 11712738
-0.057719 -0.148711 0.713000 10524592
-0.057800 -0.144840 0.714000 9207178
-0.058205 -0.141746 0.719000 9207181
-0.058286 -0.137829 0.720000 9140869
-0.058529 -0.134271 0.723000 8740459
-0.059257 -0.131760 0.732000 8344415
-0.059581 -0.128274 0.736000 8082781
-0.059662 -0.124237 0.737000 9270907
-0.059824 -0.120351 0.739000 8874355
-0.060067 -0.116600 0.742000 8672378
-0.060310 -0.112814 0.745000 9535105
-0.060714 -0.109286 0.750000 9468545
-0.060957 -0.105420 0.753000 9797247
-0.061200 -0.101520 0.756000 10190973
-0.061524 -0.097714 0.760000 10186360
-0.060876 -0.092389 0.752000 10387833
-0.058416 -0.179471 0.739000 12557987
-0.058653 -0.175960 0.742000 13220807
-0.058258 -0.170563 0.737000 14142186
-0.057863 -0.165223 0.732000 13683427
-0.057072 -0.158840 0.722000 13618917
-0.056440 -0.153000 0.714000 12370157
-0.056361 -0.148711 0.713000 10658235
-0.056361 -0.144637 0.713000 9404298
-0.056440 -0.140760 0.714000 9272986
-0.056835 -0.137637 0.719000 9272458
-0.057151 -0.134271 0.723000 8871281
-0.057389 -0.130680 0.726000 8410465
-0.057784 -0.127403 0.731000 8078163
-0.057863 -0.123394 0.732000 9204359
-0.058021 -0.119537 0.734000 9470599
-0.058258 -0.115814 0.737000 9402506
-0.058653 -0.112360 0.742000 9798282
-0.059049 -0.108849 0.747000 9731975
-0.059128 -0.104720 0.748000 9797506
-0.059444 -0.100983 0.752000 9994111
-0.059681 -0.097071 0.755000 9124724
-0.059444 -0.092389 0.752000 9926016
-0.057009 -0.179471 0.739000 12557731
-0.057240 -0.175960 0.742000 13292507
-0.056854 -0.170563 0.737000 13552104
-0.056469 -0.165223 0.732000 13683429
-0.055697 -0.158840 0.722000 13618406
-0.055080 -0.153000 0.714000 12963051
-0.054849 -0.148294 0.711000 10788552
-0.054771 -0.144029 0.710000 9666450
-0.055003 -0.140563 0.713000 9339544
-0.055080 -0.136680 0.714000 9337741
-0.055466 -0.133529 0.719000 8938870
-0.055543 -0.129600 0.720000 8541790
-0.056237 -0.127054 0.729000 8078684
-0.056391 -0.123226 0.731000 9137527
-0.056469 -0.119211 0.732000 9995402
-0.056623 -0.115343 0.734000 10192268
-0.057009 -0.111906 0.739000 10060683
-0.057471 -0.108557 0.745000 10060423
-0.057626 -0.104580 0.747000 9731460
-0.057857 -0.100714 0.750000 9798018
-0.058089 -0.096814 0.753000 8024445
-0.058320 -0.092880 0.756000 9466243
-0.058860 -0.089380 0.763000 9862527
-0.055601 -0.179471 0.739000 12426147
-0.055827 -0.175960 0.742000 13553903
-0.055601 -0.171026 0.739000 13551846
-0.055375 -0.166126 0.736000 13683431
-0.054322 -0.158840 0.722000 13683687
-0.053645 -0.152786 0.713000 13422056
-0.053419 -0.148086 0.710000 10788052
-0.053419 -0.144029 0.710000 9930137
-0.053494 -0.140169 0.711000 9536405
-0.053645 -0.136489 0.713000 9469840
-0.053946 -0.133157 0.717000 9268348
-0.054171 -0.129600 0.720000 8541019
-0.054623 -0.126531 0.726000 7881061
-0.054849 -0.122889 0.729000 9071718
-0.054999 -0.119049 0.731000 10192013
-0.055225 -0.115343 0.734000 10126734
-0.055450 -0.111603 0.737000 10126476
-0.055827 -0.108120 0.742000 9667206
-0.056052 -0.104300 0.745000 9534087
-0.056278 -0.100446 0.748000 9864325
-0.056579 -0.096686 0.752000 9143686
-0.056880 -0.092880 0.756000 9731717
-0.057181 -0.089029 0.760000 9863557
-0.054267 -0.179714 0.740000 12229546
-0.054487 -0.176197 0.743000 13883632
-0.054193 -0.171026 0.739000 13486309
-0.053973 -0.166126 0.736000 13683431
-0.052947 -0.158840 0.722000 13684200
-0.052360 -0.153000 0.714000 13880808
-0.052067 -0.148086 0.710000 10791384
-0.051920 -0.143623 0.708000 10191772
-0.052067 -0.139971 0.710000 9667734
-0.052287 -0.136489 0.713000 9601425
-0.052580 -0.133157 0.717000 9533064
-0.052727 -0.129420 0.719000 8608636
-0.053020 -0.126009 0.723000 7688813
-0.053240 -0.122383 0.726000 9005678
-0.053460 -0.118723 0.729000 10389389
-0.053680 -0.115029 0.732000 10061207
-0.053973 -0.111451 0.736000 10126993
-0.054193 -0.107683 0.739000 9275534
-0.054487 -0.104020 0.743000 9269082
-0.054780 -0.100311 0.747000 9996427
-0.054853 -0.096171 0.748000 10192522
-0.055147 -0.092389 0.752000 9930122
-0.055587 -0.088794 0.758000 9864073
-0.053357 -0.181414 0.747000 12292017
-0.053071 -0.176197 0.743000 13881585
-0.052786 -0.171026 0.739000 13552100
-0.052214 -0.164997 0.731000 13683431
-0.051571 -0.158840 0.722000 13749992
-0.051000 -0.153000 0.714000 13815527
-0.050571 -0.147669 0.708000 11052253
-0.050500 -0.143420 0.707000 10391967
-0.050571 -0.139577 0.708000 9930647
-0.050786 -0.136106 0.711000 9733778
-0.051000 -0.132600 0.714000 9798036
-0.051357 -0.129420 0.719000 9272221
-0.051571 -0.125834 0.722000 8351606
-0.051786 -0.122214 0.725000 8680310
-0.052071 -0.118723 0.729000 10324110
-0.052214 -0.114871 0.731000 10128288
-0.052429 -0.111149 0.734000 10258325
-0.052643 -0.107391 0.737000 9471126
-0.053000 -0.103880 0.742000 9004589
-0.053214 -0.100043 0.745000 9796496
-0.053357 -0.096043 0.747000 10192526
-0.053714 -0.092389 0.752000 10061454
-0.054000 -0.088560 0.756000 10126988
-0.054143 -0.084463 0.758000 9201515
-0.051030 -0.182451 0.734000 12426916
-0.051934 -0.181414 0.747000 12364987
-0.051656 -0.176197 0.743000 13880556
-0.051239 -0.170563 0.737000 13617637
-0.050822 -0.164997 0.731000 13749224
-0.050057 -0.158400 0.720000 13815529
-0.049570 -0.152786 0.713000 13815274
-0.049153 -0.147460 0.707000 11318749
-0.049153 -0.143420 0.707000 10656181
-0.049223 -0.139577 0.708000 10194075
-0.049362 -0.135914 0.710000 9864869
-0.049570 -0.132414 0.713000 9995669
-0.049849 -0.129060 0.717000 9932699
-0.050057 -0.125486 0.720000 9009535
-0.050196 -0.121709 0.722000 8353935
-0.050474 -0.118234 0.726000 10258325
-0.050822 -0.114871 0.731000 10194567
-0.050891 -0.110846 0.732000 10324360
-0.051170 -0.107246 0.736000 9669785
-0.051448 -0.103600 0.740000 8677478
-0.051795 -0.100043 0.745000 9665430
-0.051795 -0.095786 0.745000 10193043
-0.052143 -0.092143 0.750000 10258577
-0.052490 -0.088443 0.755000 10387853
-0.052560 -0.084240 0.756000 9009539
-0.049632 -0.182451 0.734000 12361123
-0.050511 -0.181414 0.747000 13153990
-0.050376 -0.176671 0.745000 13749222
-0.049835 -0.170563 0.737000 13617639
-0.049294 -0.164546 0.729000 13749480
-0.048686 -0.158400 0.720000 13881066
-0.048212 -0.152786 0.713000 13881325
-0.047807 -0.147460 0.707000 12173022
-0.047671 -0.143014 0.705000 10788043
-0.047807 -0.139380 0.707000 10325920
-0.047874 -0.135531 0.708000 10063800
-0.048077 -0.132043 0.711000 10192790
-0.048483 -0.129060 0.717000 10062745
-0.048618 -0.125311 0.719000 9338248
-0.048821 -0.121709 0.722000 9405863
-0.049091 -0.118234 0.726000 10390940
-0.049294 -0.114557 0.729000 8408686
-0.049497 -0.110846 0.732000 10522748
-0.049632 -0.106954 0.734000 10128795
-0.049835 -0.103180 0.737000 9734816
-0.050241 -0.099774 0.743000 10126748
-0.050376 -0.095786 0.745000 10324120
-0.050511 -0.091774 0.747000 10258835
-0.050850 -0.088091 0.752000 10054798
-0.051052 -0.084129 0.755000 9667994
-0.049089 -0.181414 0.747000 13942726
-0.048957 -0.176671 0.745000 13617380
-0.048431 -0.170563 0.737000 13617639
-0.047840 -0.164320 0.728000 13815015
-0.047314 -0.158400 0.720000 13946858
-0.046854 -0.152786 0.713000 13947371
-0.046460 -0.147460 0.707000 13026534
-0.046263 -0.142811 0.704000 10921417
-0.046460 -0.139380 0.707000 10391975
-0.046526 -0.135531 0.708000 10263736
-0.046723 -0.132043 0.711000 10323868
-0.047051 -0.128880 0.716000 10195614
-0.047249 -0.125311 0.719000 9665933
-0.047314 -0.121371 0.720000 10458533
-0.047643 -0.118071 0.725000 10456476
-0.047906 -0.114557 0.729000 6694760
-0.048037 -0.110694 0.731000 10715778
-0.048234 -0.106954 0.734000 10587553
-0.048431 -0.103180 0.737000 10719137
-0.048629 -0.099371 0.740000 10588063
-0.048826 -0.095529 0.743000 10455963
-0.049089 -0.091774 0.747000 10324886
-0.049417 -0.088091 0.752000 9657490
-0.049483 -0.083906 0.753000 10326674
-0.047666 -0.185683 0.747000 12229797
-0.047538 -0.180929 0.745000 14077639
-0.047410 -0.176197 0.743000 13617377
-0.046964 -0.170331 0.736000 13617639
-0.046453 -0.164320 0.728000 13749222
-0.045943 -0.158400 0.720000 13947115
-0.045496 -0.152786 0.713000 13881321
-0.044922 -0.146834 0.704000 13556719
-0.044858 -0.142609 0.703000 11052231
-0.044986 -0.138986 0.705000 10523822
-0.045177 -0.135531 0.708000 10394040
-0.045369 -0.132043 0.711000 10455203
-0.045560 -0.128520 0.714000 10326946
-0.045879 -0.125311 0.719000 9864082
-0.045943 -0.121371 0.720000 10458531
-0.046262 -0.118071 0.725000 10588829
-0.046453 -0.114400 0.728000 7885665
-0.046645 -0.110694 0.731000 10652808
-0.046709 -0.106663 0.732000 10654119
-0.046964 -0.103040 0.736000 10719395
-0.047155 -0.099237 0.739000 10588577
-0.047347 -0.095400 0.742000 10522270
-0.047538 -0.091529 0.745000 10325657
-0.047857 -0.087857 0.750000 9385367
-0.047985 -0.083794 0.752000 9927818
-0.046243 -0.185683 0.747000 12295585
-0.046243 -0.181414 0.747000 14207695
-0.046119 -0.176671 0.745000 13551588
-0.045438 -0.169869 0.734000 13617639
-0.045067 -0.164320 0.728000 13749479
-0.044571 -0.158400 0.720000 13881322
-0.044138 -0.152786 0.713000 13815529
-0.043581 -0.146834 0.704000 14011375
-0.043519 -0.142609 0.703000 11185098
-0.043581 -0.138789 0.704000 10655411
-0.043767 -0.135340 0.707000 10527160
-0.044014 -0.132043 0.711000 10521512
-0.044200 -0.128520 0.714000 10524842
-0.044510 -0.125311 0.719000 10060700
