# .PCD v.7 - Point Cloud Data file format
VERSION .7
FIELDS x y z rgb
SIZE 4 4 4 4
TYPE F F F I
COUNT 1 1 1 1
WIDTH 1264
HEIGHT 1
POINTS 1264
DATA ascii
-0.040367 -0.139224 0.865000 10311037
-0.040460 -0.134591 0.867000 10122130
-0.040647 -0.130235 0.871000 9275029
-0.040740 -0.125546 0.873000 12561588
-0.041067 -0.121524 0.880000 12233928
-0.041160 -0.116760 0.882000 11971524
-0.041393 -0.112353 0.887000 10321814
-0.041487 -0.107527 0.889000 12034990
-0.041720 -0.103023 0.894000 12103366
-0.041907 -0.098352 0.898000 11773889
-0.042047 -0.093532 0.901000 11444665
-0.040017 -0.189869 0.894000 13683428
-0.039480 -0.182280 0.882000 12896497
-0.039167 -0.175833 0.875000 12161999
-0.038809 -0.169271 0.867000 13947634
-0.038495 -0.162990 0.860000 13881069
-0.038227 -0.156973 0.854000 13355244
-0.038227 -0.152093 0.854000 12630498
-0.038316 -0.147558 0.856000 12237283
-0.038495 -0.143333 0.860000 12432854
-0.038585 -0.138741 0.862000 10715281
-0.038809 -0.134591 0.867000 9666725
-0.038988 -0.130235 0.871000 10196118
-0.039077 -0.125546 0.873000 12632523
-0.039301 -0.121248 0.878000 12432838
-0.039390 -0.116495 0.880000 12365513
-0.039570 -0.111973 0.884000 9655921
-0.039793 -0.107527 0.889000 11968927
-0.040017 -0.103023 0.894000 12234446
-0.040196 -0.098352 0.898000 11972035
-0.040330 -0.093532 0.901000 11179708
-0.038486 -0.195850 0.898000 13423837
-0.038186 -0.189231 0.891000 13815012
-0.037886 -0.182693 0.884000 12958431
-0.037500 -0.175833 0.875000 12030658
-0.037157 -0.169271 0.867000 13948146
-0.036857 -0.162990 0.860000 13881069
-0.036600 -0.156973 0.854000 13552624
-0.036600 -0.152093 0.854000 12827619
-0.036686 -0.147558 0.856000 12501735
-0.036771 -0.143000 0.858000 12629460
-0.036943 -0.138741 0.862000 11115200
-0.037157 -0.134591 0.867000 9205667
-0.037329 -0.130235 0.871000 11124400
-0.037414 -0.125546 0.873000 12693945
-0.037500 -0.120833 0.875000 12630472
-0.037714 -0.116495 0.880000 12694996
-0.037800 -0.111720 0.882000 8997010
-0.038100 -0.107527 0.889000 11903419
-0.038314 -0.103023 0.894000 12299985
-0.038400 -0.098133 0.896000 12167874
-0.038486 -0.093221 0.898000 10923728
-0.036775 -0.195850 0.898000 13486302
-0.036489 -0.189231 0.891000 13815012
-0.036202 -0.182693 0.884000 12557004
-0.035751 -0.175431 0.873000 12028598
-0.035424 -0.168881 0.865000 14012914
-0.035137 -0.162611 0.858000 13946093
-0.034973 -0.156973 0.854000 13750260
-0.034973 -0.152093 0.854000 13091044
-0.035055 -0.147558 0.856000 12698602
-0.035137 -0.143000 0.858000 12825554
-0.035301 -0.138741 0.862000 11645422
-0.035506 -0.134591 0.867000 10124961
-0.035588 -0.129936 0.869000 11383498
-0.035751 -0.125546 0.873000 11902119
-0.035833 -0.120833 0.875000 12364745
-0.036038 -0.116495 0.880000 12893663
-0.036120 -0.111720 0.882000 10780851
-0.036407 -0.107527 0.889000 12565207
-0.036489 -0.102677 0.891000 12302292
-0.036693 -0.098133 0.896000 10720962
-0.036775 -0.093221 0.898000 11973860
-0.035065 -0.195850 0.898000 13551584
-0.034791 -0.189231 0.891000 13815270
-0.034518 -0.182693 0.884000 12092107
-0.034089 -0.175431 0.873000 11965620
-0.033776 -0.168881 0.865000 14144753
-0.033503 -0.162611 0.858000 13946859
-0.033347 -0.156973 0.854000 13948916
-0.033347 -0.152093 0.854000 13288165
-0.033425 -0.147558 0.856000 12963560
-0.033503 -0.143000 0.858000 13023705
-0.033659 -0.138741 0.862000 12237027
-0.033854 -0.134591 0.867000 11050942
-0.034010 -0.130235 0.871000 11718108
-0.034089 -0.125546 0.873000 11039648
-0.034167 -0.120833 0.875000 12103071
-0.034362 -0.116495 0.880000 13025502
-0.034440 -0.111720 0.882000 12562893
-0.034635 -0.107285 0.887000 13222365
-0.034791 -0.102677 0.891000 12367571
-0.034909 -0.097914 0.894000 9269681
-0.035065 -0.093221 0.898000 12958948
-0.033354 -0.195850 0.898000 13551586
-0.033206 -0.189869 0.894000 13815271
-0.032946 -0.183313 0.887000 12228810
-0.032426 -0.175431 0.873000 10982834
-0.032129 -0.168881 0.865000 14078447
-0.031794 -0.162232 0.856000 14012138
-0.031720 -0.156973 0.854000 14079731
-0.031720 -0.152093 0.854000 13420262
-0.031794 -0.147558 0.856000 13092838
-0.031869 -0.143000 0.858000 13155297
-0.032017 -0.138741 0.862000 12563672
-0.032129 -0.134281 0.865000 12236251
-0.032351 -0.130235 0.871000 12831725
-0.032426 -0.125546 0.873000 10968218
-0.032500 -0.120833 0.875000 12095604
-0.032686 -0.116495 0.880000 13222621
-0.032760 -0.111720 0.882000 13091047
-0.032946 -0.107285 0.887000 13288163
-0.033094 -0.102677 0.891000 11969746
-0.033206 -0.097914 0.894000 9449376
-0.033354 -0.093221 0.898000 13223395
-0.031503 -0.189869 0.894000 13749223
-0.031150 -0.182693 0.884000 12359106
-0.030833 -0.175833 0.875000 9996980
-0.030481 -0.168881 0.865000 14079985
-0.030234 -0.162611 0.858000 14078699
-0.030093 -0.156973 0.854000 14212081
-0.030093 -0.152093 0.854000 13551593
-0.030164 -0.147558 0.856000 13225960
-0.030234 -0.143000 0.858000 13222371
-0.030375 -0.138741 0.862000 12889569
-0.030481 -0.134281 0.865000 13353179
-0.030692 -0.130235 0.871000 13881067
-0.030763 -0.125546 0.873000 10847936
-0.030833 -0.120833 0.875000 12035766
-0.031010 -0.116495 0.880000 13420004
-0.031080 -0.111720 0.882000 13682408
-0.031256 -0.107285 0.887000 13354214
-0.031397 -0.102677 0.891000 11649251
-0.031397 -0.097586 0.891000 9601218
-0.031644 -0.093221 0.898000 13487329
-0.029800 -0.189869 0.894000 13748968
-0.029467 -0.182693 0.884000 12228025
-0.029167 -0.175833 0.875000 10314165
-0.028833 -0.168881 0.865000 14144499
-0.028600 -0.162611 0.858000 14209773
-0.028467 -0.156973 0.854000 14276590
-0.028467 -0.152093 0.854000 13748716
-0.028533 -0.147558 0.856000 13420777
-0.028600 -0.143000 0.858000 13616870
-0.028733 -0.138741 0.862000 12761834
-0.028833 -0.134281 0.865000 13682652
-0.029033 -0.130235 0.871000 13881064
-0.029100 -0.125546 0.873000 12296166
-0.029167 -0.120833 0.875000 13091063
-0.029333 -0.116495 0.880000 13617132
-0.029400 -0.111720 0.882000 13682664
-0.029467 -0.106922 0.884000 13683433
-0.029633 -0.102447 0.889000 12699380
-0.029700 -0.097586 0.891000 11638756
-0.029867 -0.093013 0.896000 12960734
-0.028003 -0.189231 0.891000 13748967
-0.027783 -0.182693 0.884000 12094135
-0.027500 -0.175833 0.875000 10588607
-0.027186 -0.168881 0.865000 14209777
-0.026966 -0.162611 0.858000 14341869
-0.026840 -0.156973 0.854000 14342639
-0.026840 -0.152093 0.854000 13880813
-0.026903 -0.147558 0.856000 13683941
-0.027029 -0.143333 0.860000 14011113
-0.027186 -0.139224 0.865000 12701413
-0.027249 -0.134591 0.867000 14009319
-0.027374 -0.130235 0.871000 13881066
-0.027437 -0.125546 0.873000 13747948
-0.027500 -0.120833 0.875000 14078965
-0.027657 -0.116495 0.880000 13748972
-0.027720 -0.111720 0.882000 13748460
-0.027877 -0.107285 0.887000 13943507
-0.028003 -0.102677 0.891000 13750512
-0.028003 -0.097586 0.891000 13681896
-0.028160 -0.093013 0.896000 12502493
-0.026394 -0.189869 0.894000 13749223
-0.026040 -0.182280 0.882000 11768501
-0.025774 -0.175431 0.873000 12367050
-0.025538 -0.168881 0.865000 14143982
-0.025331 -0.162611 0.858000 14473710
-0.025213 -0.156973 0.854000 14342128
-0.025213 -0.152093 0.854000 14013166
-0.025272 -0.147558 0.856000 13550561
-0.025390 -0.143333 0.860000 14013419
-0.025538 -0.139224 0.865000 12828896
-0.025597 -0.134591 0.867000 14341618
-0.025715 -0.130235 0.871000 14012907
-0.025774 -0.125546 0.873000 14078707
-0.025833 -0.120833 0.875000 14078450
-0.025981 -0.116495 0.880000 13945837
-0.026040 -0.111720 0.882000 13881072
-0.026188 -0.107285 0.887000 12232126
-0.026306 -0.102677 0.891000 13618156
-0.026306 -0.097586 0.891000 13815789
-0.026453 -0.093013 0.896000 12365532
-0.024691 -0.189869 0.894000 13749222
-0.024360 -0.182280 0.882000 11441325
-0.024111 -0.175431 0.873000 14139349
-0.023890 -0.168881 0.865000 14144493
-0.023697 -0.162611 0.858000 14605038
-0.023587 -0.156973 0.854000 14407408
-0.023587 -0.152093 0.854000 14144495
-0.023642 -0.147558 0.856000 13479903
-0.023808 -0.143667 0.862000 14012652
-0.023890 -0.139224 0.865000 13026532
-0.023946 -0.134591 0.867000 14604016
-0.024056 -0.130235 0.871000 14210031
-0.024111 -0.125546 0.873000 14341106
-0.024250 -0.121248 0.878000 14143985
-0.024305 -0.116495 0.880000 14143471
-0.024360 -0.111720 0.882000 14080242
-0.024415 -0.106922 0.884000 10522569
-0.024609 -0.102677 0.891000 13558252
-0.024691 -0.097914 0.894000 13881581
-0.024747 -0.093013 0.896000 12164077
-0.022911 -0.189231 0.891000 13814757
-0.022680 -0.182280 0.882000 11503525
-0.022346 -0.174628 0.869000 14209504
-0.022166 -0.168295 0.862000 14078700
-0.021960 -0.161853 0.854000 14999023
-0.021909 -0.156606 0.852000 14538992
-0.021909 -0.151737 0.852000 14341617
-0.022011 -0.147558 0.856000 13615581
-0.022114 -0.143333 0.860000 14276590
-0.022166 -0.138741 0.862000 13486312
-0.022243 -0.134281 0.865000 14538735
-0.022346 -0.129936 0.869000 14341618
-0.022346 -0.124970 0.869000 14407153
-0.022500 -0.120833 0.875000 14275824
-0.022629 -0.116495 0.880000 14275825
-0.022680 -0.111720 0.882000 14144499
-0.022731 -0.106922 0.884000 10395604
-0.022911 -0.102677 0.891000 13815788
-0.022911 -0.097586 0.891000 14143982
-0.023040 -0.093013 0.896000 13087742
-0.021167 -0.188807 0.889000 13814246
-0.020952 -0.181867 0.880000 11560630
-0.020690 -0.174628 0.869000 14209001
-0.020524 -0.168295 0.862000 14013420
-0.020381 -0.162232 0.856000 15327985
-0.020286 -0.156606 0.852000 14604015
-0.020286 -0.151737 0.852000 14473200
-0.020381 -0.147558 0.856000 13748199
-0.020476 -0.143333 0.860000 14538479
-0.020524 -0.138741 0.862000 14009833
-0.020595 -0.134281 0.865000 14473457
-0.020690 -0.129936 0.869000 14472945
-0.020738 -0.125258 0.871000 14473201
-0.020833 -0.120833 0.875000 14407156
-0.020905 -0.116230 0.878000 14407409
-0.020952 -0.111467 0.880000 14211315
-0.021048 -0.106922 0.884000 10196956
-0.021167 -0.102447 0.889000 14081010
-0.021167 -0.097367 0.889000 14341359
-0.021286 -0.092806 0.894000 13948917
-0.019473 -0.188807 0.889000 13749222
-0.019276 -0.181867 0.880000 12624071
-0.019079 -0.175030 0.871000 14145010
-0.018882 -0.168295 0.862000 13947372
-0.018750 -0.162232 0.856000 15658740
-0.018663 -0.156606 0.852000 14736366
-0.018707 -0.152093 0.854000 14539759
-0.018750 -0.147558 0.856000 14077681
-0.018838 -0.143333 0.860000 14736625
-0.018882 -0.138741 0.862000 13880297
-0.018948 -0.134281 0.865000 14867444
-0.019035 -0.129936 0.869000 14670320
-0.019079 -0.125258 0.871000 14670065
-0.019167 -0.120833 0.875000 14539511
-0.019232 -0.116230 0.878000 14670322
-0.019276 -0.111467 0.880000 14407922
-0.019364 -0.106922 0.884000 12236261
-0.019473 -0.102447 0.889000 14407671
-0.019473 -0.097367 0.889000 14472944
-0.019583 -0.092806 0.894000 14144491
-0.017780 -0.188807 0.889000 13617894
-0.017640 -0.182280 0.882000 13681627
-0.017420 -0.175030 0.871000 14078702
-0.017240 -0.168295 0.862000 13881578
-0.017120 -0.162232 0.856000 15919347
-0.017040 -0.156606 0.852000 14868463
-0.017080 -0.152093 0.854000 14605296
-0.017120 -0.147558 0.856000 14342897
-0.017200 -0.143333 0.860000 14933490
-0.017240 -0.138741 0.862000 13814509
-0.017300 -0.134281 0.865000 15259885
-0.017380 -0.129936 0.869000 14801909
-0.017420 -0.125258 0.871000 14802418
-0.017500 -0.120833 0.875000 14736098
-0.017560 -0.116230 0.878000 14867690
-0.017640 -0.111720 0.882000 14670066
-0.017740 -0.107285 0.887000 14275308
-0.017780 -0.102447 0.889000 14735604
-0.017780 -0.097367 0.889000 14604528
-0.017880 -0.092806 0.894000 14273774
-0.016087 -0.188807 0.889000 13617381
-0.015888 -0.181453 0.878000 13748975
-0.015761 -0.175030 0.871000 14012906
-0.015598 -0.168295 0.862000 14012135
-0.015490 -0.162232 0.856000 15790834
-0.015417 -0.156606 0.852000 14802672
-0.015453 -0.152093 0.854000 14736369
-0.015490 -0.147558 0.856000 14605552
-0.015598 -0.143667 0.862000 15197426
-0.015598 -0.138741 0.862000 14012400
-0.015689 -0.134591 0.867000 14143462
-0.015725 -0.129936 0.869000 14998265
-0.015761 -0.125258 0.871000 14999283
-0.015888 -0.121248 0.878000 13013965
-0.015924 -0.116495 0.880000 15131619
-0.015924 -0.111467 0.880000 14801905
-0.016050 -0.107285 0.887000 14671859
-0.016087 -0.102447 0.889000 14801904
-0.016087 -0.097367 0.889000 14801392
-0.016177 -0.092806 0.894000 14604272
-0.014539 -0.195850 0.898000 13286609
-0.014393 -0.188807 0.889000 13617893
-0.014280 -0.182280 0.882000 13815020
-0.014102 -0.175030 0.871000 13947370
-0.013956 -0.168295 0.862000 14143207
-0.013827 -0.161853 0.854000 15592179
-0.013794 -0.156606 0.852000 14802671
-0.013827 -0.152093 0.854000 14802674
-0.013891 -0.147903 0.858000 14932206
-0.013956 -0.143667 0.862000 15458803
-0.014005 -0.139224 0.865000 14209510
-0.014070 -0.134902 0.869000 13022440
-0.014102 -0.130235 0.871000 15195366
-0.014134 -0.125546 0.873000 15196405
-0.014215 -0.121248 0.878000 11291091
-0.014248 -0.116495 0.880000 15391971
-0.014280 -0.111720 0.882000 14933233
-0.014361 -0.107285 0.887000 14999794
-0.014393 -0.102447 0.889000 14867954
-0.014474 -0.097914 0.894000 14934004
-0.014507 -0.093013 0.896000 14933745
-0.012829 -0.195850 0.898000 13286351
-0.012700 -0.188807 0.889000 13617893
-0.012571 -0.181867 0.880000 13749224
-0.012443 -0.175030 0.871000 13947369
-0.012314 -0.168295 0.862000 14472167
-0.012229 -0.162232 0.856000 15394805
-0.012200 -0.156973 0.854000 14670318
-0.012200 -0.152093 0.854000 14736883
-0.012286 -0.148248 0.860000 14669035
-0.012357 -0.144167 0.865000 15002099
-0.012357 -0.139224 0.865000 14141403
-0.012414 -0.134902 0.869000 12491753
-0.012443 -0.130235 0.871000 14205139
-0.012471 -0.125546 0.873000 15197175
-0.012543 -0.121248 0.878000 12155096
-0.012571 -0.116495 0.880000 15525603
-0.012600 -0.111720 0.882000 15065585
-0.012671 -0.107285 0.887000 15065585
-0.012700 -0.102447 0.889000 15000051
-0.012771 -0.097914 0.894000 14870263
-0.012800 -0.093013 0.896000 14868465
-0.011118 -0.195850 0.898000 13287357
-0.010982 -0.188382 0.887000 13552356
-0.010895 -0.181867 0.880000 13748967
-0.010784 -0.175030 0.871000 13946855
-0.010672 -0.168295 0.862000 14798058
-0.010598 -0.162232 0.856000 15132660
-0.010573 -0.156973 0.854000 14537711
-0.010598 -0.152450 0.856000 14605041
-0.010648 -0.148248 0.860000 14403820
-0.010672 -0.143667 0.862000 14537714
-0.010734 -0.139546 0.867000 14068196
-0.010759 -0.134902 0.869000 11974382
-0.010784 -0.130235 0.871000 13160419
-0.010809 -0.125546 0.873000 15131637
-0.010870 -0.121248 0.878000 13072608
-0.010895 -0.116495 0.880000 15656429
-0.010945 -0.111973 0.884000 15263475
-0.010982 -0.107285 0.887000 15065585
-0.011007 -0.102447 0.889000 15131891
-0.011069 -0.097914 0.894000 14732005
-0.009292 -0.188382 0.887000 13617635
-0.009198 -0.181453 0.878000 13683430
-0.009104 -0.174628 0.869000 13880805
-0.009030 -0.168295 0.862000 14801388
-0.008947 -0.161853 0.854000 15000308
-0.008968 -0.157341 0.856000 14472431
-0.008989 -0.152806 0.858000 14472687
-0.009030 -0.148592 0.862000 14405868
-0.009083 -0.144500 0.867000 14407152
-0.009083 -0.139546 0.867000 14007788
-0.009104 -0.134902 0.869000 13485043
-0.009167 -0.130833 0.875000 14080242
-0.009167 -0.125833 0.875000 14999540
-0.009198 -0.121248 0.878000 14008295
-0.009219 -0.116495 0.880000 15327991
-0.009261 -0.111973 0.884000 14539253
-0.009292 -0.107285 0.887000 15196658
-0.009366 -0.103023 0.894000 14603762
-0.009387 -0.098133 0.896000 13932243
-0.007603 -0.188382 0.887000 13617889
-0.007526 -0.181453 0.878000 13683172
-0.007449 -0.174628 0.869000 13748962
-0.007389 -0.168295 0.862000 14868211
-0.007337 -0.162232 0.856000 14802418
-0.007337 -0.157341 0.856000 14341872
-0.007371 -0.153162 0.860000 14341871
-0.007414 -0.149110 0.865000 14339822
-0.007431 -0.144500 0.867000 14210292
-0.007449 -0.139868 0.869000 13944036
-0.007466 -0.135212 0.871000 14933236
-0.007500 -0.130833 0.875000 14999795
-0.007526 -0.126265 0.878000 14802675
-0.007526 -0.121248 0.878000 14998509
-0.007560 -0.116760 0.882000 14934260
-0.007603 -0.112353 0.887000 13878502
-0.007620 -0.107527 0.889000 15261932
-0.007663 -0.103023 0.894000 14147570
-0.007680 -0.098133 0.896000 13145057
-0.005913 -0.188382 0.887000 13617631
-0.005853 -0.181453 0.878000 13617889
-0.005793 -0.174628 0.869000 13485535
-0.005747 -0.168295 0.862000 15132409
-0.005720 -0.162611 0.858000 14604528
-0.005720 -0.157709 0.858000 14341360
-0.005747 -0.153518 0.862000 14211312
-0.005767 -0.149110 0.865000 14472688
-0.005793 -0.144833 0.869000 14345464
-0.005807 -0.140190 0.871000 14010844
-0.005807 -0.135212 0.871000 14868212
-0.005853 -0.131282 0.878000 15000307
-0.005853 -0.126265 0.878000 14802675
-0.005867 -0.121524 0.880000 14933491
-0.005893 -0.117025 0.884000 14867953
-0.005913 -0.112353 0.887000 13085398
-0.005927 -0.107527 0.889000 15196646
-0.005960 -0.103023 0.894000 14539506
-0.005973 -0.098133 0.896000 14136815
-0.004224 -0.188382 0.887000 13551830
-0.004181 -0.181453 0.878000 13552608
-0.004138 -0.174628 0.869000 13225188
-0.004105 -0.168295 0.862000 15398392
-0.004095 -0.162990 0.860000 14407920
-0.004095 -0.158076 0.860000 14275312
-0.004105 -0.153518 0.862000 14078449
-0.004129 -0.149454 0.867000 14671347
-0.004148 -0.145167 0.871000 14402015
-0.004157 -0.140511 0.873000 14076894
-0.004167 -0.135833 0.875000 14736628
-0.004167 -0.130833 0.875000 15001323
-0.004181 -0.126265 0.878000 14801903
-0.004190 -0.121524 0.880000 14934002
-0.004210 -0.117025 0.884000 14799345
-0.004233 -0.112607 0.889000 12306384
-0.004243 -0.107769 0.891000 15065582
-0.004257 -0.103023 0.894000 14934002
-0.004276 -0.098352 0.898000 15064306
-0.002526 -0.187745 0.884000 13354957
-0.002500 -0.180833 0.875000 13352926
-0.002483 -0.174628 0.869000 14474217
-0.002463 -0.168295 0.862000 15198198
-0.002457 -0.162990 0.860000 14341616
-0.002463 -0.158444 0.862000 14209776
-0.002471 -0.154052 0.865000 14076658
-0.002483 -0.149799 0.869000 13882869
-0.002494 -0.145500 0.873000 13405637
-0.002500 -0.140833 0.875000 14076128
-0.002509 -0.136299 0.878000 14735859
-0.002509 -0.131282 0.878000 13221602
-0.002514 -0.126552 0.880000 14734827
-0.002520 -0.121800 0.882000 14801904
-0.002534 -0.117422 0.887000 14735856
-0.002540 -0.112607 0.889000 13551306
-0.002554 -0.108131 0.894000 14870775
-0.002566 -0.103484 0.898000 14933745
-0.002566 -0.098352 0.898000 15263989
-0.000842 -0.187745 0.884000 13156036
-0.000833 -0.180833 0.875000 13155302
-0.000828 -0.174628 0.869000 15656433
-0.000821 -0.168295 0.862000 15062003
-0.000821 -0.163370 0.862000 14275825
-0.000824 -0.158995 0.865000 14143474
-0.000828 -0.154765 0.869000 14012651
-0.000830 -0.150144 0.871000 13154278
-0.000831 -0.145500 0.873000 12353708
-0.000836 -0.141316 0.878000 14080204
-0.000836 -0.136299 0.878000 14735858
-0.000838 -0.131581 0.880000 11502302
-0.000840 -0.126840 0.882000 14599659
-0.000845 -0.122490 0.887000 14670064
-0.000847 -0.117687 0.889000 14604273
-0.000849 -0.112860 0.891000 14803426
-0.000851 -0.108131 0.894000 14598890
-0.000853 -0.103253 0.896000 14999283
-0.000855 -0.098352 0.898000 15392755
0.000833 -0.180833 0.875000 14014190
0.000828 -0.174628 0.869000 15331578
0.000821 -0.168295 0.862000 14801136
0.000824 -0.163938 0.865000 14143730
0.000826 -0.159363 0.867000 14143987
0.000828 -0.154765 0.869000 13552100
0.000830 -0.150144 0.871000 12687319
0.000833 -0.145833 0.875000 11621524
0.000836 -0.141316 0.878000 13614775
0.000838 -0.136610 0.880000 14735601
0.000840 -0.131880 0.882000 12357081
0.000842 -0.127128 0.884000 14801642
0.000847 -0.122767 0.889000 14604528
0.000849 -0.117951 0.891000 14670067
0.000851 -0.113240 0.894000 14277370
0.000853 -0.108373 0.896000 13591006
0.000855 -0.103484 0.898000 14999285
0.002500 -0.180833 0.875000 14867935
0.002483 -0.174628 0.869000 14998506
0.002471 -0.168881 0.865000 14539238
0.002477 -0.164317 0.867000 14011883
0.002483 -0.159730 0.869000 14146030
0.002489 -0.155121 0.871000 13084371
0.002494 -0.150489 0.873000 12225733
0.002509 -0.146333 0.878000 10844839
0.002509 -0.141316 0.878000 13162967
0.002514 -0.136610 0.880000 14670068
0.002520 -0.131880 0.882000 13221610
0.002534 -0.127559 0.887000 14997994
0.002540 -0.122767 0.889000 14604018
0.002554 -0.118349 0.894000 14670323
0.002560 -0.113493 0.896000 13751030
0.002566 -0.108615 0.898000 12621793
0.002580 -0.104060 0.903000 15065330
0.004167 -0.180833 0.875000 13811407
0.004148 -0.175030 0.871000 14010587
0.004119 -0.168881 0.865000 13549276
0.004129 -0.164317 0.867000 13616356
0.004148 -0.160098 0.871000 13486056
0.004148 -0.155121 0.871000 12421059
0.004167 -0.150833 0.875000 12224690
0.004181 -0.146333 0.878000 11573947
0.004190 -0.141638 0.880000 13686007
0.004210 -0.137230 0.884000 14539255
0.004224 -0.132628 0.887000 13883387
0.004233 -0.127847 0.889000 13620970
0.004243 -0.123043 0.891000 14472179
0.004267 -0.118613 0.896000 14604788
0.004276 -0.113747 0.898000 13878001
0.004276 -0.108615 0.898000 13746660
0.004300 -0.104060 0.903000 14407151
0.005820 -0.180420 0.873000 12757177
0.005793 -0.174628 0.869000 12956351
0.005780 -0.169271 0.867000 12556995
0.005780 -0.164317 0.867000 13154246
0.005807 -0.160098 0.871000 12824518
0.005807 -0.155121 0.871000 11769271
0.005833 -0.150833 0.875000 12231862
0.005853 -0.146333 0.878000 12299191
0.005867 -0.141638 0.880000 14274517
0.005913 -0.137696 0.887000 14404572
0.005927 -0.132927 0.889000 14536928
0.005940 -0.128134 0.891000 12234192
0.005960 -0.123457 0.894000 14404066
0.005987 -0.118878 0.898000 14537959
0.005987 -0.113747 0.898000 13945573
0.006007 -0.108978 0.901000 14864873
0.006053 -0.104636 0.908000 13808587
0.007483 -0.180420 0.873000 12821667
0.007449 -0.174628 0.869000 12952227
0.007431 -0.169271 0.867000 12689321
0.007431 -0.164317 0.867000 12886185
0.007466 -0.160098 0.871000 12887204
0.007483 -0.155477 0.873000 12427179
0.007526 -0.151350 0.878000 12494010
0.007526 -0.146333 0.878000 12494515
0.007543 -0.141638 0.880000 13348787
0.007620 -0.138007 0.889000 13480642
0.007620 -0.132927 0.889000 13547716
0.007637 -0.128134 0.891000 12488117
0.007663 -0.123457 0.894000 13680080
0.007697 -0.118878 0.898000 13880793
0.007697 -0.113747 0.898000 13549785
0.007723 -0.108978 0.901000 14276591
0.007757 -0.104290 0.905000 13344167
0.009146 -0.175431 0.873000 12952999
0.009104 -0.169662 0.869000 12821931
0.009125 -0.160098 0.871000 12886438
0.009125 -0.155121 0.871000 13083305
0.009198 -0.151350 0.878000 12755891
0.009198 -0.146333 0.878000 12625072
0.009219 -0.141638 0.880000 12493233
0.009313 -0.138007 0.889000 12559793
0.009334 -0.133226 0.891000 12624564
0.009334 -0.128134 0.891000 12754603
0.009387 -0.123733 0.896000 12957882
0.009408 -0.118878 0.898000 13152188
0.009408 -0.113747 0.898000 13149884
0.009439 -0.108978 0.901000 13613769
0.009512 -0.104636 0.908000 12950445
0.010809 -0.175431 0.873000 12887979
0.010784 -0.160098 0.871000 12820904
0.010784 -0.155121 0.871000 12952232
0.010870 -0.151350 0.878000 12755884
0.011031 -0.133226 0.891000 12557731
0.011031 -0.128134 0.891000 12425377
0.011093 -0.123733 0.896000 12690339
0.011155 -0.119275 0.901000 12753054
0.011118 -0.113747 0.898000 12688030
0.011155 -0.108978 0.901000 12817828
0.012543 -0.151350 0.878000 12755625
0.012800 -0.123733 0.896000 12426661
0.012871 -0.119275 0.901000 12295586
0.012829 -0.113747 0.898000 12229284
-0.072533 -0.137387 0.896000 12229020
-0.070827 -0.137387 0.896000 12163485
-0.067500 -0.164167 0.875000 10584969
-0.069120 -0.142507 0.896000 12295587
-0.069120 -0.137387 0.896000 12163489
-0.069120 -0.132267 0.896000 12032153
-0.066059 -0.169747 0.878000 10784957
-0.065833 -0.164167 0.875000 9927795
-0.065683 -0.158803 0.873000 10250876
-0.067413 -0.142507 0.896000 12362664
-0.067413 -0.137387 0.896000 12361381
-0.067413 -0.132267 0.896000 12163993
-0.064680 -0.175560 0.882000 13685478
-0.064167 -0.169167 0.875000 10398926
-0.063873 -0.163416 0.871000 9273744
-0.063873 -0.158439 0.871000 8089471
-0.065193 -0.141393 0.889000 12422291
-0.065340 -0.136620 0.891000 12493200
-0.065707 -0.132267 0.896000 12228240
-0.066367 -0.123252 0.905000 11308679
-0.066733 -0.118733 0.910000 11176834
-0.063500 -0.182033 0.889000 13819119
-0.063000 -0.175560 0.882000 13882609
-0.062500 -0.169167 0.875000 12240096
-0.062214 -0.163416 0.871000 9472173
-0.062214 -0.158439 0.871000 8680578
-0.062500 -0.154167 0.875000 9730958
-0.063000 -0.145320 0.882000 9727351
-0.063500 -0.141393 0.889000 9850494
-0.063643 -0.136620 0.891000 10782331
-0.063857 -0.131971 0.894000 10912391
-0.064643 -0.123252 0.905000 11046533
-0.064857 -0.118472 0.908000 10980481
-0.061807 -0.182033 0.889000 14735597
-0.061320 -0.175560 0.882000 14013166
-0.060694 -0.168780 0.873000 14076903
-0.060555 -0.163416 0.871000 9672380
-0.060416 -0.158075 0.869000 9271949
-0.060694 -0.153814 0.873000 9141907
-0.061320 -0.150360 0.882000 8284801
-0.061320 -0.145320 0.882000 7755132
-0.061459 -0.140598 0.884000 7297144
-0.061807 -0.136313 0.889000 9071485
-0.062154 -0.131971 0.894000 9600647
-0.062432 -0.127430 0.898000 10189429
-0.062641 -0.122708 0.901000 10717574
-0.062919 -0.118081 0.905000 10783623
-0.062919 -0.112910 0.905000 10782338
-0.060451 -0.188166 0.894000 13417929
-0.060113 -0.182033 0.889000 14273772
-0.059505 -0.175162 0.880000 14012651
-0.058896 -0.168393 0.871000 14013678
-0.058626 -0.162666 0.867000 10657483
-0.058626 -0.157711 0.867000 9535639
-0.058761 -0.153110 0.869000 9405335
-0.059031 -0.148826 0.873000 8944266
-0.059505 -0.144990 0.880000 8414592
-0.059775 -0.140598 0.884000 8220019
-0.060113 -0.136313 0.889000 9401727
-0.060249 -0.131529 0.891000 9797767
-0.060451 -0.126863 0.894000 9726807
-0.060722 -0.122299 0.898000 10452359
-0.061195 -0.118081 0.905000 10388364
-0.061060 -0.112660 0.903000 10453636
-0.061195 -0.107738 0.905000 10453894
-0.058551 -0.187534 0.891000 13490654
-0.058289 -0.181624 0.887000 13749738
-0.057829 -0.175162 0.880000 13946604
-0.057237 -0.168393 0.871000 13947373
-0.056843 -0.162290 0.865000 11641566
-0.056843 -0.157348 0.865000 9734304
-0.056974 -0.152757 0.867000 9735069
-0.057237 -0.148485 0.871000 9535892
-0.057500 -0.144167 0.875000 9139601
-0.057960 -0.140280 0.882000 9136503
-0.058289 -0.136007 0.887000 9799564
-0.058551 -0.131529 0.891000 9930125
-0.058551 -0.126437 0.891000 9269114
-0.058880 -0.122027 0.896000 10126218
-0.059340 -0.117820 0.903000 10060176
-0.059471 -0.112910 0.905000 10125177
-0.059471 -0.107738 0.905000 10190982
-0.059800 -0.103133 0.910000 9862255
-0.056727 -0.187113 0.889000 13751282
-0.056599 -0.181624 0.887000 13749480
-0.056025 -0.174764 0.878000 13946860
-0.055450 -0.168007 0.869000 13881324
-0.055195 -0.162290 0.865000 12169969
-0.055195 -0.157348 0.865000 9996201
-0.055195 -0.152405 0.865000 9931682
-0.055450 -0.148144 0.869000 9865886
-0.055706 -0.143837 0.873000 9406113
-0.056152 -0.139962 0.880000 9198715
-0.056408 -0.135547 0.884000 9996696
-0.056727 -0.131233 0.889000 10127762
-0.056727 -0.126153 0.889000 9733532
-0.057173 -0.122027 0.896000 10193293
-0.057492 -0.117559 0.901000 9600404
-0.057620 -0.112660 0.903000 9795951
-0.057748 -0.107738 0.905000 10060166
-0.058067 -0.103133 0.910000 9075042
-0.055033 -0.187113 0.889000 14013422
-0.054910 -0.181624 0.887000 13749479
-0.054352 -0.174764 0.878000 14012652
-0.053795 -0.168007 0.869000 13816044
-0.053548 -0.162290 0.865000 12695282
-0.053362 -0.156802 0.862000 10195121
-0.053548 -0.152405 0.865000 10127524
-0.053671 -0.147803 0.867000 10193826
-0.053919 -0.143508 0.871000 9671307
-0.054352 -0.139644 0.878000 9264251
-0.054476 -0.134933 0.880000 10194327
-0.054600 -0.130200 0.882000 10324883
-0.054910 -0.125870 0.887000 10194571
-0.055343 -0.121754 0.894000 10259344
-0.055590 -0.117168 0.898000 9208727
-0.055776 -0.112410 0.901000 9467258
-0.055900 -0.107500 0.903000 9930896
-0.056210 -0.102907 0.908000 8223354
-0.053460 -0.187534 0.891000 13946857
-0.053340 -0.182033 0.889000 13749222
-0.052680 -0.174764 0.878000 14012907
-0.052140 -0.168007 0.869000 13881325
-0.051720 -0.161728 0.862000 12894707
-0.051720 -0.156802 0.862000 10326457
-0.051720 -0.151876 0.862000 10523558
-0.051900 -0.147462 0.865000 10258597
-0.052140 -0.143178 0.869000 9138804
-0.052680 -0.139644 0.878000 9263738
-0.052800 -0.134933 0.880000 9733781
-0.052920 -0.130200 0.882000 10390165
-0.053040 -0.125444 0.884000 9336186
-0.053460 -0.121346 0.891000 10522003
-0.053760 -0.116907 0.896000 9865370
-0.054060 -0.112410 0.901000 9792389
-0.054180 -0.107500 0.903000 10193561
-0.054480 -0.102907 0.908000 9342354
-0.051763 -0.187534 0.891000 13814504
-0.051530 -0.181624 0.887000 13749480
-0.051008 -0.174764 0.878000 14078443
-0.050485 -0.168007 0.869000 13881324
-0.050078 -0.161728 0.862000 13094385
-0.049962 -0.156438 0.860000 10395327
-0.050078 -0.151876 0.862000 10983595
-0.050252 -0.147462 0.865000 10324647
-0.050369 -0.142849 0.867000 8605296
-0.050717 -0.138849 0.873000 9199992
-0.051008 -0.134627 0.878000 9338731
-0.051124 -0.129905 0.880000 10456992
-0.051356 -0.125444 0.884000 8412025
-0.051763 -0.121346 0.891000 10717579
-0.051937 -0.116646 0.894000 10523041
-0.052053 -0.111787 0.896000 10125976
-0.052460 -0.107500 0.903000 10390688
-0.052750 -0.102907 0.908000 10455696
-0.052750 -0.097718 0.908000 9603989
-0.050066 -0.187534 0.891000 13748966
-0.049841 -0.181624 0.887000 13946347
-0.049335 -0.174764 0.878000 14078442
-0.048830 -0.168007 0.869000 13881579
-0.048324 -0.161352 0.860000 13224686
-0.048211 -0.156074 0.858000 11118278
-0.048436 -0.151876 0.862000 11313071
-0.048605 -0.147462 0.865000 10259113
-0.048717 -0.142849 0.867000 9003372
-0.049054 -0.138849 0.873000 9262965
-0.049167 -0.134167 0.875000 9132097
-0.049448 -0.129905 0.880000 10984876
-0.049560 -0.125160 0.882000 9069943
-0.049953 -0.121073 0.889000 10916996
-0.050066 -0.116254 0.891000 10720423
-0.050234 -0.111537 0.894000 10458283
-0.050459 -0.106905 0.898000 10391206
-0.050740 -0.102340 0.903000 9863566
-0.051021 -0.097718 0.908000 10063515
-0.048369 -0.187534 0.891000 13683431
-0.047989 -0.181010 0.884000 14077411
-0.047663 -0.174764 0.878000 14078441
-0.047174 -0.168007 0.869000 13881579
-0.046686 -0.161352 0.860000 13357551
-0.046577 -0.156074 0.858000 11775181
-0.046686 -0.151524 0.860000 11641272
-0.046794 -0.146950 0.862000 10131128
-0.046957 -0.142519 0.865000 9463954
-0.047283 -0.138530 0.871000 9328248
-0.047500 -0.134167 0.875000 8997219
-0.047771 -0.129905 0.880000 11441060
-0.047771 -0.124876 0.880000 9795997
-0.048151 -0.120801 0.887000 11048093
-0.048260 -0.115993 0.889000 10918060
-0.048369 -0.111163 0.891000 10721197
-0.048640 -0.106667 0.896000 10393007
-0.048911 -0.102113 0.901000 9205878
-0.049020 -0.097180 0.903000 10589089
-0.046829 -0.193274 0.894000 13814733
-0.046671 -0.187534 0.891000 13814759
-0.046305 -0.181010 0.884000 13486300
-0.045833 -0.174167 0.875000 13749992
-0.045519 -0.168007 0.869000 13881579
-0.045048 -0.161352 0.860000 13487600
-0.044733 -0.155347 0.854000 11973589
-0.044838 -0.150819 0.856000 11706817
-0.045152 -0.146950 0.862000 10721478
-0.045310 -0.142519 0.865000 10191287
-0.045519 -0.138212 0.869000 9722234
-0.045729 -0.133860 0.873000 9461893
-0.045990 -0.129610 0.878000 10386076
-0.046095 -0.124876 0.880000 10852802
-0.046305 -0.120392 0.884000 11314102
-0.046567 -0.115993 0.889000 11180976
-0.046671 -0.111163 0.891000 11049903
-0.046933 -0.106667 0.896000 10654391
-0.047195 -0.102113 0.901000 9073758
-0.047300 -0.097180 0.903000 10851751
-0.045227 -0.193707 0.896000 13944527
-0.044974 -0.187534 0.891000 13945829
-0.044520 -0.180600 0.882000 12822734
-0.044167 -0.174167 0.875000 13491685
-0.043864 -0.168007 0.869000 13881324
-0.043410 -0.161352 0.860000 13620209
-0.043107 -0.155347 0.854000 12105175
-0.043208 -0.150819 0.856000 11838156
-0.043410 -0.146610 0.860000 11314629
-0.043510 -0.142025 0.862000 10986940
-0.043763 -0.137894 0.867000 10049142
-0.043965 -0.133553 0.871000 9926788
-0.044167 -0.129167 0.875000 9263248
-0.044318 -0.124592 0.878000 11905734
-0.044520 -0.120120 0.882000 11510974
-0.044772 -0.115732 0.887000 11443638
-0.044873 -0.110913 0.889000 11312309
-0.045227 -0.106667 0.896000 10919610
-0.045328 -0.101773 0.898000 8875919
-0.045479 -0.096965 0.901000 11114674
-0.043423 -0.193274 0.894000 13947089
-0.043423 -0.188166 0.894000 13814755
-0.042840 -0.180600 0.882000 12355776
-0.042500 -0.174167 0.875000 13354721
-0.042111 -0.167620 0.867000 13881581
-0.041674 -0.160977 0.858000 13750258
-0.041480 -0.155347 0.854000 12368089
-0.041577 -0.150819 0.856000 12037335
-0.041771 -0.146610 0.860000 11643588
-0.041869 -0.142025 0.862000 11048640
-0.042111 -0.137894 0.867000 10245235
-0.042306 -0.133553 0.871000 9858946
-0.042500 -0.129167 0.875000 9118340
-0.042646 -0.124592 0.878000 12168393
-0.042743 -0.119848 0.880000 11839175
-0.042937 -0.115341 0.884000 11642811
-0.043180 -0.110913 0.889000 10195644
-0.043423 -0.106429 0.894000 11510717
-0.043617 -0.101773 0.898000 10521024
-0.043763 -0.096965 0.901000 11444669
-0.041720 -0.193274 0.894000 13880791
-0.041720 -0.188166 0.894000 13683429
-0.041160 -0.180600 0.882000 11904726
-0.040740 -0.173769 0.873000 13218764
-0.040460 -0.167620 0.867000 13881582
-0.040040 -0.160977 0.858000 13816816
-0.039853 -0.155347 0.854000 12631264
-0.039947 -0.150819 0.856000 12235995
-0.040133 -0.146610 0.860000 11907020
-0.040227 -0.142025 0.862000 11184595
-0.040367 -0.137576 0.865000 10383504
-0.040553 -0.133247 0.869000 9856128
-0.040740 -0.128871 0.873000 9010329
-0.040740 -0.123883 0.873000 12497355
-0.041067 -0.119848 0.880000 12102855
-0.041160 -0.115080 0.882000 11840705
-0.041393 -0.110664 0.887000 9009049
-0.041580 -0.106071 0.891000 12036545
-0.041813 -0.101547 0.896000 12166341
-0.041907 -0.096642 0.898000 11773630
-0.040017 -0.193274 0.894000 13749214
-0.040017 -0.188166 0.894000 13749991
-0.039390 -0.180190 0.880000 11978732
-0.039077 -0.173769 0.873000 13084343
-0.038809 -0.167620 0.867000 13881071
-0.038406 -0.160977 0.858000 13881582
-0.038227 -0.155347 0.854000 12828904
-0.038316 -0.150819 0.856000 12433375
-0.038406 -0.146269 0.858000 12235989
-0.038495 -0.141695 0.860000 11249125
-0.038719 -0.137576 0.865000 11312814
-0.038809 -0.132940 0.867000 9460606
-0.039077 -0.128871 0.873000 11122351
-0.039077 -0.123883 0.873000 12564429
-0.039301 -0.119575 0.878000 12432328
-0.039390 -0.114819 0.880000 11705031
-0.039570 -0.110290 0.884000 8205173
-0.039883 -0.106071 0.891000 12036549
-0.040107 -0.101547 0.896000 12300491
-0.040196 -0.096642 0.898000 12037054
-0.038314 -0.193274 0.894000 13618398
-0.038186 -0.187534 0.891000 13881320
-0.037714 -0.180190 0.880000 12036562
-0.037329 -0.173370 0.871000 13010110
-0.037071 -0.167233 0.865000 13881327
-0.036686 -0.160602 0.856000 14012655
-0.036600 -0.155347 0.854000 13026026
-0.036600 -0.150467 0.854000 12696546
-0.036771 -0.146269 0.858000 12499161
-0.036857 -0.141695 0.860000 11322077
-0.037071 -0.137576 0.865000 12165569
-0.037243 -0.133247 0.869000 9056899
-0.037414 -0.128871 0.873000 13220802
-0.037414 -0.123883 0.873000 12627614
-0.037500 -0.119167 0.875000 12695756
-0.037714 -0.114819 0.880000 11645398
-0.037800 -0.110040 0.882000 7428507
-0.038186 -0.106071 0.891000 12103890
-0.038400 -0.101547 0.896000 12367561
-0.038486 -0.096642 0.898000 12299972
-0.036611 -0.193274 0.894000 13617631
-0.036489 -0.187534 0.891000 13486056
-0.036038 -0.180190 0.880000 11893945
-0.035670 -0.173370 0.871000 13083333
-0.035424 -0.167233 0.865000 13946863
-0.035055 -0.160602 0.856000 14078703
-0.034973 -0.155347 0.854000 13288940
-0.034973 -0.150467 0.854000 12893924
-0.035055 -0.145928 0.856000 12697821
-0.035219 -0.141695 0.860000 12436693
-0.035424 -0.137576 0.865000 11378644
-0.035506 -0.132940 0.867000 10253191
-0.035670 -0.128576 0.871000 12434644
-0.035751 -0.123883 0.873000 11830639
-0.035833 -0.119167 0.875000 13024465
-0.036038 -0.114819 0.880000 12235493
-0.036120 -0.110040 0.882000 9924801
-0.036489 -0.106071 0.891000 12564702
-0.036611 -0.101320 0.894000 12173511
-0.036693 -0.096427 0.896000 11708105
-0.034909 -0.193274 0.894000 13551841
-0.034791 -0.187534 0.891000 13160426
-0.034362 -0.180190 0.880000 11699643
-0.034010 -0.173370 0.871000 13085372
-0.033776 -0.167233 0.865000 14012651
-0.033425 -0.160602 0.856000 14145009
-0.033347 -0.155347 0.854000 13552364
-0.033347 -0.150467 0.854000 13157094
-0.033425 -0.145928 0.856000 12893915
-0.033503 -0.141366 0.858000 13486052
-0.033776 -0.137576 0.865000 10529493
-0.033854 -0.132940 0.867000 11442613
-0.034010 -0.128576 0.871000 11647706
-0.034089 -0.123883 0.873000 10961000
-0.034167 -0.119167 0.875000 13286333
-0.034362 -0.114819 0.880000 12894433
-0.034440 -0.110040 0.882000 12430548
-0.034713 -0.105833 0.889000 13024735
-0.034791 -0.100980 0.891000 11898309
-0.034987 -0.096427 0.896000 11115947
-0.033206 -0.193274 0.894000 13551586
-0.033094 -0.187534 0.891000 13093100
-0.032760 -0.180600 0.882000 12030142
-0.032351 -0.173370 0.871000 12560563
-0.032129 -0.167233 0.865000 14012648
-0.031794 -0.160602 0.856000 14210546
-0.031720 -0.155347 0.854000 13749484
-0.031720 -0.150467 0.854000 13288679
-0.031794 -0.145928 0.856000 12958938
-0.031943 -0.141695 0.860000 13289203
-0.032129 -0.137576 0.865000 11772885
-0.032203 -0.132940 0.867000 12565731
-0.032426 -0.128871 0.873000 12700640
-0.032426 -0.123883 0.873000 10833249
-0.032500 -0.119167 0.875000 13484713
-0.032686 -0.114819 0.880000 13222620
-0.032760 -0.110040 0.882000 13092582
-0.033020 -0.105833 0.889000 13156576
-0.033094 -0.100980 0.891000 10969027
-0.033280 -0.096427 0.896000 11373964
-0.031573 -0.193707 0.896000 13552099
-0.031397 -0.187534 0.891000 13094636
-0.031080 -0.180600 0.882000 12358330
-0.030622 -0.172972 0.869000 12097716
-0.030375 -0.166653 0.862000 14013163
-0.030164 -0.160602 0.856000 14277105
-0.030093 -0.155347 0.854000 13881068
-0.030093 -0.150467 0.854000 13485802
-0.030164 -0.145928 0.856000 13025247
-0.030234 -0.141366 0.858000 13029361
-0.030481 -0.137576 0.865000 12955863
-0.030551 -0.132940 0.867000 13687273
-0.030763 -0.128871 0.873000 13747433
-0.030763 -0.123883 0.873000 10645400
-0.030833 -0.119167 0.875000 13615053
-0.031010 -0.114819 0.880000 13551076
-0.031080 -0.110040 0.882000 13682151
-0.031327 -0.105833 0.889000 13354214
-0.031397 -0.100980 0.891000 10001366
-0.031503 -0.096211 0.894000 11643323
-0.029867 -0.193707 0.896000 13683173
-0.029700 -0.187534 0.891000 13026539
-0.029400 -0.180600 0.882000 12224183
-0.028967 -0.172972 0.869000 12231093
-0.028733 -0.166653 0.862000 14078446
-0.028533 -0.160602 0.856000 14473712
-0.028467 -0.155347 0.854000 13814765
-0.028467 -0.150467 0.854000 13748972
-0.028533 -0.145928 0.856000 13155043
-0.028667 -0.141695 0.860000 13223407
-0.028833 -0.137576 0.865000 12698330
-0.028900 -0.132940 0.867000 13816302
-0.029033 -0.128576 0.871000 13814770
-0.029100 -0.123883 0.873000 12298447
-0.029267 -0.119575 0.878000 13815281
-0.029333 -0.114819 0.880000 13617132
-0.029400 -0.110040 0.882000 13747943
-0.029633 -0.105833 0.889000 13552107
-0.029700 -0.100980 0.891000 11975657
-0.029800 -0.096211 0.894000 12762345
-0.028160 -0.193707 0.896000 13748966
-0.028003 -0.187534 0.891000 12962794
-0.027720 -0.180600 0.882000 12027314
-0.027374 -0.173370 0.871000 12433874
-0.027091 -0.166653 0.862000 14078445
-0.026903 -0.160602 0.856000 14605810
-0.026840 -0.155347 0.854000 13749998
-0.026840 -0.150467 0.854000 14012654
-0.026966 -0.146269 0.858000 13221858
-0.027029 -0.141695 0.860000 13489651
-0.027186 -0.137576 0.865000 12432354
-0.027311 -0.133247 0.869000 13948143
-0.027374 -0.128576 0.871000 13881328
-0.027437 -0.123883 0.873000 14013922
-0.027594 -0.119575 0.878000 13946609
-0.027657 -0.114819 0.880000 13748971
-0.027720 -0.110040 0.882000 13749229
-0.027940 -0.105833 0.889000 13748665
-0.028003 -0.100980 0.891000 13945579
-0.028097 -0.096211 0.894000 13950444
-0.026453 -0.193707 0.896000 13682919
-0.026306 -0.187534 0.891000 12566504
-0.025981 -0.180190 0.880000 12226221
-0.025656 -0.172972 0.869000 13289198
-0.025450 -0.166653 0.862000 14143980
-0.025272 -0.160602 0.856000 14605811
-0.025213 -0.155347 0.854000 13946607
-0.025213 -0.150467 0.854000 14013167
-0.025331 -0.146269 0.858000 13155553
-0.025390 -0.141695 0.860000 13751286
-0.025538 -0.137576 0.865000 12230634
-0.025597 -0.132940 0.867000 14144240
-0.025715 -0.128576 0.871000 14078958
-0.025774 -0.123883 0.873000 14144500
-0.025922 -0.119575 0.878000 14012401
-0.025981 -0.114819 0.880000 13946089
-0.026040 -0.110040 0.882000 13880307
-0.026247 -0.105833 0.889000 12687494
-0.026306 -0.100980 0.891000 14144492
-0.026394 -0.096211 0.894000 13947374
-0.024609 -0.187534 0.891000 12176616
-0.024305 -0.180190 0.880000 12357557
-0.024001 -0.172972 0.869000 14146541
-0.023808 -0.166653 0.862000 14143979
-0.023642 -0.160602 0.856000 14672628
-0.023587 -0.155347 0.854000 14144495
-0.023587 -0.150467 0.854000 14013425
-0.023697 -0.146269 0.858000 13090017
-0.023808 -0.142025 0.862000 14013686
-0.023890 -0.137576 0.865000 12042730
-0.024001 -0.133247 0.869000 14405872
-0.024056 -0.128576 0.871000 14210032
-0.024111 -0.123883 0.873000 14275570
-0.024250 -0.119575 0.878000 14078449
-0.024305 -0.114819 0.880000 14143213
-0.024360 -0.110040 0.882000 14010094
-0.024553 -0.105833 0.889000 11618470
-0.024609 -0.100980 0.891000 14341868
-0.024691 -0.096211 0.894000 14012655
-0.022911 -0.187534 0.891000 12304616
-0.022680 -0.180600 0.882000 12156860
-0.022397 -0.173370 0.871000 14144748
-0.022063 -0.165880 0.858000 14012907
-0.021960 -0.160227 0.854000 14869492
-0.021909 -0.154983 0.852000 14275824
-0.021909 -0.150114 0.852000 14078706
-0.022063 -0.146269 0.858000 13419234
-0.022114 -0.141695 0.860000 14079733
-0.022166 -0.137099 0.862000 13092587
-0.022294 -0.132940 0.867000 14407152
-0.022346 -0.128281 0.869000 14341106
-0.022397 -0.123599 0.871000 14341616
-0.022500 -0.119167 0.875000 14210032
-0.022629 -0.114819 0.880000 14275569
-0.022680 -0.110040 0.882000 14010346
-0.022860 -0.105833 0.889000 11827654
-0.022911 -0.100980 0.891000 14276332
-0.022989 -0.096211 0.894000 14210288
-0.021214 -0.192626 0.891000 13552098
-0.021167 -0.187113 0.889000 12502503
-0.020952 -0.180190 0.880000 11901646
-0.020738 -0.173370 0.871000 14209772
-0.020476 -0.166267 0.860000 13881579
-0.020333 -0.160227 0.854000 15134712
-0.020286 -0.154983 0.852000 14341871
-0.020333 -0.150467 0.854000 14145009
-0.020429 -0.146269 0.858000 13748201
-0.020476 -0.141695 0.860000 14212340
-0.020524 -0.137099 0.862000 14143213
-0.020643 -0.132940 0.867000 14472946
-0.020690 -0.128281 0.869000 14472945
-0.020738 -0.123599 0.871000 14472945
-0.020833 -0.119167 0.875000 14342131
-0.020905 -0.114558 0.878000 14407409
-0.021000 -0.110040 0.882000 14011376
-0.021119 -0.105595 0.887000 12080076
-0.021167 -0.100753 0.889000 14210799
-0.021214 -0.095889 0.891000 14407153
-0.021286 -0.091103 0.894000 13484524
-0.019517 -0.192626 0.891000 13682914
-0.019430 -0.186692 0.887000 13024486
-0.019276 -0.180190 0.880000 12960224
-0.019079 -0.173370 0.871000 14078956
-0.018838 -0.166267 0.860000 13881068
-0.018707 -0.160227 0.854000 15264763
-0.018663 -0.154983 0.852000 14538479
-0.018707 -0.150467 0.854000 14341871
-0.018794 -0.146269 0.858000 14010865
-0.018882 -0.142025 0.862000 14211314
-0.018882 -0.137099 0.862000 14145262
-0.018991 -0.132940 0.867000 14801908
-0.019035 -0.128281 0.869000 14604273
-0.019123 -0.123883 0.873000 14671089
-0.019167 -0.119167 0.875000 14409206
-0.019232 -0.114558 0.878000 14539248
-0.019320 -0.110040 0.882000 14342389
-0.019430 -0.105595 0.887000 13348306
-0.019473 -0.100753 0.889000 14406643
-0.019517 -0.095889 0.891000 14407153
-0.019583 -0.091103 0.894000 13948142
-0.017880 -0.193274 0.894000 13813983
-0.017740 -0.186692 0.887000 13486822
-0.017600 -0.180190 0.880000 14010854
-0.017420 -0.173370 0.871000 14012908
-0.017200 -0.166267 0.860000 13815531
-0.017080 -0.160227 0.854000 15462393
-0.017040 -0.154983 0.852000 14736623
-0.017080 -0.150467 0.854000 14539505
-0.017160 -0.146269 0.858000 14210289
-0.017240 -0.142025 0.862000 14213107
-0.017240 -0.137099 0.862000 14144752
-0.017340 -0.132940 0.867000 15065318
-0.017380 -0.128281 0.869000 14736115
-0.017460 -0.123883 0.873000 14935283
-0.017560 -0.119575 0.878000 14401250
-0.017600 -0.114819 0.880000 14736626
-0.017640 -0.110040 0.882000 14670835
-0.017740 -0.105595 0.887000 14604003
-0.017780 -0.100753 0.889000 14538994
-0.017820 -0.095889 0.891000 14407665
-0.017880 -0.091103 0.894000 14406639
-0.016213 -0.193707 0.896000 13682908
-0.016087 -0.187113 0.889000 13552357
-0.015833 -0.179167 0.875000 13946604
-0.015725 -0.172972 0.869000 14012907
-0.015562 -0.166267 0.860000 14011114
-0.015453 -0.160227 0.854000 15329782
-0.015417 -0.154983 0.852000 14737648
-0.015453 -0.150467 0.854000 14803186
-0.015526 -0.146269 0.858000 14407409
-0.015598 -0.142025 0.862000 14408179
-0.015652 -0.137576 0.865000 14407667
-0.015689 -0.132940 0.867000 14533847
-0.015725 -0.128281 0.869000 15064309
-0.015797 -0.123883 0.873000 14145781
-0.015888 -0.119575 0.878000 12741071
-0.015924 -0.114819 0.880000 14934004
-0.015960 -0.110040 0.882000 14802674
-0.016050 -0.105595 0.887000 14736883
-0.016087 -0.100753 0.889000 14736112
-0.016123 -0.095889 0.891000 14670832
-0.016177 -0.091103 0.894000 14669809
-0.014539 -0.194139 0.898000 13485787
-0.014361 -0.186692 0.887000 13683429
-0.014215 -0.179781 0.878000 13881066
-0.014070 -0.172972 0.869000 14012906
-0.013924 -0.166267 0.860000 14146029
-0.013827 -0.160227 0.854000 15197684
-0.013794 -0.154983 0.852000 14736879
-0.013827 -0.150467 0.854000 15000564
-0.013924 -0.146610 0.860000 14604528
-0.013956 -0.142025 0.862000 14669811
-0.014037 -0.137894 0.867000 14604266
-0.014070 -0.133247 0.869000 14060258
-0.014102 -0.128576 0.871000 15327213
-0.014134 -0.123883 0.873000 13361143
-0.014215 -0.119575 0.878000 11042002
-0.014248 -0.114819 0.880000 15131381
-0.014280 -0.110040 0.882000 14934258
-0.014361 -0.105595 0.887000 14934258
-0.014393 -0.100753 0.889000 14868211
-0.014474 -0.096211 0.894000 14934771
-0.012829 -0.194139 0.898000 13486555
-0.012671 -0.186692 0.887000 13617892
-0.012500 -0.179167 0.875000 13880809
-0.012414 -0.172972 0.869000 13947113
-0.012286 -0.166267 0.860000 14935024
-0.012200 -0.160227 0.854000 15000305
-0.012200 -0.155347 0.854000 14670063
-0.012229 -0.150819 0.856000 14737398
-0.012286 -0.146610 0.860000 14537968
-0.012357 -0.142519 0.865000 14340082
-0.012386 -0.137894 0.867000 14669537
-0.012414 -0.133247 0.869000 12751084
-0.012471 -0.128871 0.873000 15328228
-0.012471 -0.123883 0.873000 13751544
-0.012543 -0.119575 0.878000 12089812
-0.012571 -0.114819 0.880000 15262966
-0.012629 -0.110290 0.884000 15131634
-0.012671 -0.105595 0.887000 14999792
-0.012700 -0.100753 0.889000 15000822
-0.012771 -0.096211 0.894000 14802165
-0.011118 -0.194139 0.898000 13486033
-0.010945 -0.186061 0.884000 13617636
-0.010870 -0.179781 0.878000 13815272
-0.010759 -0.172972 0.869000 13881318
-0.010648 -0.166267 0.860000 15721713
-0.010573 -0.160227 0.854000 14868976
-0.010573 -0.155347 0.854000 14538479
-0.010623 -0.151171 0.858000 14475251
-0.010672 -0.146950 0.862000 14472944
-0.010734 -0.142849 0.867000 14004463
-0.010759 -0.138212 0.869000 14666985
-0.010784 -0.133553 0.871000 11511789
-0.010833 -0.129167 0.875000 15261163
-0.010833 -0.124167 0.875000 14084343
-0.010870 -0.119575 0.878000 13085410
-0.010895 -0.114819 0.880000 15460086
-0.010945 -0.110290 0.884000 15327731
-0.010982 -0.105595 0.887000 15130865
-0.011031 -0.100980 0.891000 15062762
-0.011093 -0.096427 0.896000 14600937
-0.009387 -0.193707 0.896000 13420487
-0.009261 -0.186061 0.884000 13617635
-0.009167 -0.179167 0.875000 13815015
-0.009083 -0.172574 0.867000 13880547
-0.009010 -0.166267 0.860000 15724531
-0.008947 -0.160227 0.854000 14736367
-0.008968 -0.155710 0.856000 14472687
-0.009010 -0.151524 0.860000 14276079
-0.009030 -0.146950 0.862000 14671345
-0.009083 -0.142849 0.867000 13744619
-0.009104 -0.138212 0.869000 14933746
-0.009125 -0.133553 0.871000 13289966
-0.009167 -0.129167 0.875000 15065586
-0.009167 -0.124167 0.875000 14475254
-0.009219 -0.119848 0.880000 14144240
-0.009240 -0.115080 0.882000 15131637
-0.009292 -0.110664 0.887000 14211060
-0.009313 -0.105833 0.889000 15131121
-0.009387 -0.101547 0.896000 14135518
-0.009387 -0.096427 0.896000 14265308
-0.007680 -0.193707 0.896000 13286853
-0.007577 -0.186061 0.884000 13617890
-0.007483 -0.178757 0.873000 13749221
