# .PCD v.7 - Point Cloud Data file format
VERSION .7
FIELDS x y z rgb
SIZE 4 4 4 4
TYPE F F F I
COUNT 1 1 1 1
WIDTH 1270
HEIGHT 1
POINTS 1270
DATA ascii
-0.038687 -0.098690 0.829000 11439509
-0.038780 -0.094180 0.831000 11505814
-0.038873 -0.089647 0.833000 11833495
-0.039060 -0.085294 0.837000 11898509
-0.039853 -0.072387 0.854000 11831948
-0.039947 -0.067665 0.856000 11700358
-0.037018 -0.145710 0.827000 15131900
-0.036660 -0.139620 0.819000 15589105
-0.036570 -0.134610 0.817000 15196144
-0.036347 -0.129147 0.812000 15327731
-0.036168 -0.123893 0.808000 13683193
-0.035989 -0.118686 0.804000 11708099
-0.035989 -0.114091 0.804000 11113136
-0.036168 -0.110042 0.808000 11440806
-0.036347 -0.105947 0.812000 10981278
-0.036436 -0.101556 0.814000 11111829
-0.036839 -0.097976 0.823000 11240856
-0.037108 -0.093953 0.829000 11440281
-0.037197 -0.089431 0.831000 11109538
-0.037287 -0.084887 0.833000 11571861
-0.037466 -0.080511 0.837000 11504266
-0.038137 -0.072217 0.852000 11701136
-0.038316 -0.067665 0.856000 11568774
-0.035443 -0.145710 0.827000 15657718
-0.035186 -0.139961 0.821000 15195889
-0.035014 -0.134610 0.817000 14999024
-0.034714 -0.128829 0.810000 15130610
-0.034543 -0.123587 0.806000 14212599
-0.034371 -0.118390 0.802000 12627413
-0.034371 -0.113808 0.802000 10981807
-0.034543 -0.109770 0.806000 11573167
-0.034714 -0.105686 0.810000 11113382
-0.034886 -0.101556 0.814000 10652316
-0.035186 -0.097738 0.821000 11106715
-0.035357 -0.093500 0.825000 11373464
-0.035529 -0.089216 0.829000 10451880
-0.035614 -0.084683 0.831000 11173514
-0.035786 -0.080319 0.835000 11244189
-0.036514 -0.072217 0.852000 11636375
-0.036600 -0.067507 0.854000 11438480
-0.034031 -0.151163 0.831000 14933218
-0.033868 -0.145710 0.827000 15458800
-0.033704 -0.140302 0.823000 15261425
-0.033458 -0.134610 0.817000 15130352
-0.033171 -0.128829 0.810000 15261937
-0.033008 -0.123587 0.806000 14736628
-0.032844 -0.118390 0.802000 13220328
-0.032762 -0.113524 0.800000 11507885
-0.032926 -0.109497 0.804000 11837113
-0.033090 -0.105425 0.808000 11573166
-0.033335 -0.101556 0.814000 10717092
-0.033458 -0.097262 0.817000 10978205
-0.033704 -0.093273 0.823000 11240342
-0.033868 -0.089001 0.827000 11045806
-0.034031 -0.084683 0.831000 10839679
-0.034113 -0.080127 0.833000 11507120
-0.034441 -0.076090 0.841000 11703205
-0.034810 -0.072048 0.850000 11637149
-0.034973 -0.067507 0.854000 11505562
-0.032449 -0.151163 0.831000 16048363
-0.032292 -0.145710 0.827000 15260656
-0.032136 -0.140302 0.823000 15261424
-0.031902 -0.134610 0.817000 15196145
-0.031629 -0.128829 0.810000 15327729
-0.031472 -0.123587 0.806000 15261683
-0.031238 -0.118095 0.800000 13747947
-0.031238 -0.113524 0.800000 12034233
-0.031316 -0.109225 0.802000 12035266
-0.031472 -0.105164 0.806000 12032433
-0.031707 -0.101307 0.812000 10785202
-0.031902 -0.097262 0.817000 10849699
-0.032058 -0.093047 0.821000 11111595
-0.032214 -0.088786 0.825000 11706549
-0.032370 -0.084479 0.829000 10520218
-0.032527 -0.080127 0.833000 11836338
-0.032761 -0.075910 0.839000 11703719
-0.032995 -0.071624 0.845000 11703717
-0.033347 -0.067507 0.854000 11506074
-0.030866 -0.151163 0.831000 15790069
-0.030791 -0.146062 0.829000 15195631
-0.030569 -0.140302 0.823000 15261424
-0.030346 -0.134610 0.817000 15196401
-0.030086 -0.128829 0.810000 15393521
-0.029863 -0.123280 0.804000 15262193
-0.029714 -0.118095 0.800000 13946093
-0.029640 -0.113240 0.798000 12364485
-0.029714 -0.108952 0.800000 12300491
-0.029937 -0.105164 0.806000 12164788
-0.030011 -0.100808 0.808000 11706305
-0.030271 -0.097024 0.815000 11309737
-0.030420 -0.092820 0.819000 11837119
-0.030569 -0.088570 0.823000 12035260
-0.030717 -0.084275 0.827000 11510198
-0.030940 -0.080127 0.833000 11968436
-0.031163 -0.075910 0.839000 11507114
-0.031311 -0.071454 0.843000 11572653
-0.031386 -0.066795 0.845000 11570586
-0.029353 -0.151527 0.833000 15526646
-0.029212 -0.146062 0.829000 15130096
-0.029001 -0.140302 0.823000 15261681
-0.028860 -0.134940 0.819000 15196657
-0.028472 -0.128510 0.808000 15393265
-0.028331 -0.123280 0.804000 15327217
-0.028190 -0.118095 0.800000 14079472
-0.028120 -0.113240 0.798000 12759508
-0.028190 -0.108952 0.800000 12496846
-0.028402 -0.105164 0.806000 12295870
-0.028472 -0.100808 0.808000 12626632
-0.028684 -0.096905 0.814000 11767979
-0.028790 -0.092593 0.817000 12495045
-0.029001 -0.088570 0.823000 12297666
-0.029142 -0.084275 0.827000 12494525
-0.029283 -0.079934 0.831000 12166330
-0.029494 -0.075729 0.837000 11310249
-0.029635 -0.071285 0.841000 11440546
-0.029706 -0.066637 0.843000 11638444
-0.029952 -0.062333 0.850000 10716810
-0.027767 -0.151527 0.833000 15327223
-0.027633 -0.146062 0.829000 15130353
-0.027500 -0.140643 0.825000 15261938
-0.027233 -0.134610 0.817000 15262192
-0.027000 -0.128829 0.810000 15524337
-0.026800 -0.123280 0.804000 15196144
-0.026667 -0.118095 0.800000 14802163
-0.026600 -0.113240 0.798000 13023971
-0.026667 -0.108952 0.800000 12693713
-0.026733 -0.104642 0.802000 12495815
-0.026867 -0.100558 0.806000 12957135
-0.027067 -0.096667 0.812000 11965612
-0.027233 -0.092593 0.817000 12955083
-0.027367 -0.088355 0.821000 12561095
-0.027500 -0.084071 0.825000 12759237
-0.027633 -0.079742 0.829000 12364224
-0.027833 -0.075548 0.835000 11899817
-0.027967 -0.071115 0.839000 11308695
-0.028033 -0.066479 0.841000 12232126
-0.028267 -0.062187 0.848000 11574201
-0.026180 -0.151527 0.833000 15130868
-0.026054 -0.146062 0.829000 15195633
-0.025929 -0.140643 0.825000 15196401
-0.025677 -0.134610 0.817000 15327729
-0.025457 -0.128829 0.810000 15589873
-0.025269 -0.123280 0.804000 15130096
-0.025080 -0.117800 0.798000 15523827
-0.025080 -0.113240 0.798000 13289446
-0.025080 -0.108680 0.798000 12891093
-0.025143 -0.104381 0.800000 12693459
-0.025331 -0.100558 0.806000 13285589
-0.025457 -0.096429 0.810000 12220846
-0.025614 -0.092367 0.815000 13348796
-0.025803 -0.088355 0.821000 12757714
-0.025866 -0.083868 0.823000 13018809
-0.026054 -0.079742 0.829000 12627141
-0.026117 -0.075186 0.831000 12426684
-0.026306 -0.070946 0.837000 11107756
-0.026369 -0.066321 0.839000 12757699
-0.026557 -0.061967 0.845000 12495041
-0.024593 -0.151527 0.833000 15063793
-0.024475 -0.146062 0.829000 15130096
-0.024357 -0.140643 0.825000 15261936
-0.024062 -0.134281 0.815000 15327473
-0.023914 -0.128829 0.810000 15458801
-0.023737 -0.123280 0.804000 15064560
-0.023560 -0.117800 0.798000 15723508
-0.023530 -0.113098 0.797000 13683432
-0.023530 -0.108544 0.797000 13089753
-0.023619 -0.104381 0.800000 12890847
-0.023737 -0.100309 0.804000 13352155
-0.023855 -0.096190 0.808000 12091567
-0.024032 -0.092253 0.814000 13547949
-0.024121 -0.087925 0.817000 12759260
-0.024298 -0.083868 0.823000 12488109
-0.024416 -0.079550 0.827000 12693450
-0.024534 -0.075186 0.831000 12822479
-0.024711 -0.070946 0.837000 12165057
-0.024770 -0.066321 0.839000 12889801
-0.024889 -0.061820 0.843000 12627656
-0.023007 -0.151527 0.833000 14933232
-0.022896 -0.146062 0.829000 15130098
-0.022786 -0.140643 0.825000 15327988
-0.022482 -0.134116 0.814000 15392756
-0.022371 -0.128829 0.810000 15262193
-0.022150 -0.122973 0.802000 15064816
-0.022012 -0.117652 0.797000 15918835
-0.021902 -0.112530 0.793000 14078700
-0.021957 -0.108271 0.795000 13286879
-0.022040 -0.104120 0.798000 13023710
-0.022150 -0.100059 0.802000 13417176
-0.022261 -0.095952 0.806000 11962282
-0.022371 -0.091800 0.810000 13740461
-0.022482 -0.087602 0.814000 12762590
-0.022565 -0.083256 0.817000 11956918
-0.022841 -0.079550 0.827000 12826563
-0.022896 -0.075005 0.829000 13218773
-0.023062 -0.070776 0.835000 13154256
-0.023117 -0.066163 0.837000 13022671
-0.023228 -0.061673 0.841000 12825023
-0.023338 -0.057138 0.845000 13217744
-0.021420 -0.151527 0.833000 15064304
-0.021266 -0.145710 0.827000 15131123
-0.021111 -0.139961 0.821000 15198455
-0.020931 -0.134116 0.814000 15196662
-0.020829 -0.128829 0.810000 15327729
-0.020674 -0.123280 0.804000 15130608
-0.020494 -0.117652 0.797000 15788274
-0.020391 -0.112530 0.793000 14340848
-0.020391 -0.107999 0.793000 13615846
-0.020494 -0.103990 0.797000 13221084
-0.020571 -0.099810 0.800000 13614805
-0.020726 -0.095952 0.806000 11499940
-0.020829 -0.091800 0.810000 11903149
-0.020931 -0.087602 0.814000 13419487
-0.021009 -0.083256 0.817000 12016320
-0.021111 -0.078972 0.821000 12954044
-0.021214 -0.074643 0.825000 13417948
-0.021317 -0.070268 0.829000 13352159
-0.021471 -0.066005 0.835000 13286101
-0.021574 -0.061527 0.839000 12686518
-0.021677 -0.057003 0.843000 13156323
-0.019833 -0.151527 0.833000 15130096
-0.019690 -0.145710 0.827000 15197428
-0.019548 -0.139961 0.821000 14992348
-0.019381 -0.134116 0.814000 14998753
-0.019286 -0.128829 0.810000 15393778
-0.019143 -0.123280 0.804000 15261936
-0.018976 -0.117652 0.797000 15656946
-0.018881 -0.112530 0.793000 14669041
-0.018881 -0.107999 0.793000 13944551
-0.018976 -0.103990 0.797000 13418727
-0.019048 -0.099810 0.800000 13744600
-0.019143 -0.095714 0.804000 11104678
-0.019238 -0.091573 0.808000 10061470
-0.019381 -0.087602 0.814000 14010072
-0.019405 -0.083052 0.815000 12028625
-0.019548 -0.078972 0.821000 13088726
-0.019643 -0.074643 0.825000 13549792
-0.019738 -0.070268 0.829000 13615582
-0.019833 -0.065847 0.833000 13480657
-0.019929 -0.061380 0.837000 12544437
-0.020024 -0.056868 0.841000 13090527
-0.018203 -0.151163 0.831000 15130352
-0.018115 -0.145710 0.827000 14996981
-0.017984 -0.139961 0.821000 13601730
-0.017830 -0.134116 0.814000 14268107
-0.017743 -0.128829 0.810000 15393779
-0.017611 -0.123280 0.804000 15196400
-0.017458 -0.117652 0.797000 15657715
-0.017327 -0.112247 0.791000 14801393
-0.017370 -0.107999 0.793000 14141928
-0.017458 -0.103990 0.797000 13616625
-0.017480 -0.099560 0.798000 13742299
-0.017611 -0.095714 0.804000 11894440
-0.017699 -0.091573 0.808000 10446736
-0.017787 -0.087387 0.812000 13876176
-0.017852 -0.083052 0.815000 13086435
-0.017984 -0.078972 0.821000 13745903
-0.018028 -0.074462 0.823000 13747428
-0.018159 -0.070268 0.829000 13747165
-0.018203 -0.065689 0.831000 13612238
-0.018334 -0.061380 0.837000 12479923
-0.018422 -0.056868 0.841000 13615067
-0.016620 -0.151163 0.831000 15130609
-0.016540 -0.145710 0.827000 14803955
-0.016420 -0.139961 0.821000 12162513
-0.016280 -0.134116 0.814000 13540554
-0.016200 -0.128829 0.810000 15328500
-0.016040 -0.122973 0.802000 15196401
-0.015940 -0.117652 0.797000 15591411
-0.015820 -0.112247 0.791000 14999793
-0.015820 -0.107727 0.791000 14274284
-0.015940 -0.103990 0.797000 13815025
-0.015960 -0.099560 0.798000 13676250
-0.016080 -0.095714 0.804000 12617131
-0.016160 -0.091573 0.808000 10840725
-0.016240 -0.087387 0.812000 13752028
-0.016280 -0.082950 0.814000 14141674
-0.016380 -0.078780 0.819000 14407408
-0.016460 -0.074462 0.823000 13944552
-0.016540 -0.070098 0.827000 13943782
-0.016620 -0.065689 0.831000 13745377
-0.016700 -0.061233 0.835000 12479431
-0.016780 -0.056732 0.839000 14075618
-0.015037 -0.151163 0.831000 15261681
-0.014965 -0.145710 0.827000 14407409
-0.014856 -0.139961 0.821000 13214944
-0.014730 -0.134116 0.814000 14069704
-0.014657 -0.128829 0.810000 15459061
-0.014512 -0.122973 0.802000 15261937
-0.014422 -0.117652 0.797000 15524851
-0.014313 -0.112247 0.791000 15130608
-0.014313 -0.107727 0.791000 14406128
-0.014386 -0.103729 0.795000 14011888
-0.014422 -0.099435 0.797000 14009562
-0.014549 -0.095714 0.804000 12681645
-0.014585 -0.091347 0.806000 10774170
-0.014693 -0.087387 0.812000 14077160
-0.014730 -0.082950 0.814000 14537458
-0.014820 -0.078780 0.819000 14537713
-0.014856 -0.074281 0.821000 14273260
-0.014965 -0.070098 0.827000 14274287
-0.015001 -0.065530 0.829000 14208244
-0.015110 -0.061233 0.835000 13346778
-0.015182 -0.056732 0.839000 14010090
-0.013454 -0.151163 0.831000 15327474
-0.013390 -0.145710 0.827000 14006989
-0.013260 -0.139620 0.819000 14262226
-0.013195 -0.134281 0.815000 14590660
-0.013082 -0.128510 0.808000 15524854
-0.012985 -0.122973 0.802000 15327729
-0.012904 -0.117652 0.797000 15460083
-0.012807 -0.112247 0.791000 15327730
-0.012807 -0.107727 0.791000 14537968
-0.012871 -0.103729 0.795000 14275313
-0.012904 -0.099435 0.797000 14336223
-0.012985 -0.095476 0.802000 12814254
-0.013050 -0.091347 0.806000 10709671
-0.013147 -0.087387 0.812000 14409954
-0.013179 -0.082950 0.814000 14866162
-0.013260 -0.078780 0.819000 14668529
-0.013292 -0.074281 0.821000 14602213
-0.013357 -0.069929 0.825000 14537710
-0.013422 -0.065530 0.829000 14602227
-0.013519 -0.061233 0.835000 14275047
-0.013551 -0.056597 0.837000 13879273
-0.011871 -0.151163 0.831000 15393779
-0.011814 -0.145710 0.827000 13474728
-0.011729 -0.139961 0.821000 13733060
-0.011643 -0.134281 0.815000 14459840
-0.011543 -0.128510 0.808000 15590391
-0.011457 -0.122973 0.802000 15327729
-0.011386 -0.117652 0.797000 15525108
-0.011300 -0.112247 0.791000 15460340
-0.011300 -0.107727 0.791000 14735343
-0.011329 -0.103468 0.793000 14406385
-0.011386 -0.099435 0.797000 14138597
-0.011457 -0.095476 0.802000 12681134
-0.011514 -0.091347 0.806000 11430835
-0.011571 -0.087171 0.810000 14405596
-0.011600 -0.082747 0.812000 14932466
-0.011671 -0.078588 0.817000 14866160
-0.011729 -0.074281 0.821000 13354974
-0.011786 -0.069929 0.825000 14008556
-0.011843 -0.065530 0.829000 14668019
-0.011929 -0.061233 0.835000 14537460
-0.011957 -0.056597 0.837000 14470631
-0.010264 -0.150799 0.829000 15393011
-0.010239 -0.145710 0.827000 12940459
-0.010140 -0.139620 0.819000 13210564
-0.010090 -0.134281 0.815000 14387887
-0.009979 -0.128192 0.806000 15591153
-0.009930 -0.122973 0.802000 15327729
-0.009868 -0.117652 0.797000 15525363
-0.009793 -0.112247 0.791000 15526901
-0.009793 -0.107727 0.791000 14867183
-0.009818 -0.103468 0.793000 14538225
-0.009868 -0.099435 0.797000 13941997
-0.009930 -0.095476 0.802000 12613836
-0.009979 -0.091347 0.806000 12090041
-0.010004 -0.086956 0.808000 14409197
-0.010053 -0.082747 0.812000 14998515
-0.010115 -0.078588 0.817000 15063537
-0.010165 -0.074281 0.821000 12103896
-0.010190 -0.069759 0.823000 13543618
-0.010264 -0.065530 0.829000 14735091
-0.010313 -0.061087 0.833000 14733812
-0.010363 -0.056597 0.837000 15061231
-0.008685 -0.150799 0.829000 15393268
-0.008664 -0.145710 0.827000 13277614
-0.008601 -0.139961 0.821000 13540549
-0.008538 -0.134281 0.815000 14125469
-0.008444 -0.128192 0.806000 15656939
-0.008402 -0.122973 0.802000 15327729
-0.008360 -0.117800 0.798000 15524082
-0.008287 -0.112247 0.791000 15591925
-0.008287 -0.107727 0.791000 14998512
-0.008287 -0.103207 0.791000 14603760
-0.008329 -0.099186 0.795000 14537461
-0.008402 -0.095476 0.802000 12621801
-0.008423 -0.091120 0.804000 12480958
-0.008465 -0.086956 0.808000 14803454
-0.008507 -0.082747 0.812000 15327476
-0.008559 -0.078588 0.817000 15261169
-0.008601 -0.074281 0.821000 12298706
-0.008622 -0.069759 0.823000 13477784
-0.008685 -0.065530 0.829000 14866676
-0.008727 -0.061087 0.833000 14932467
-0.008769 -0.056597 0.837000 15196407
-0.007123 -0.151163 0.831000 15327219
-0.007089 -0.145710 0.827000 13607375
-0.007037 -0.139961 0.821000 13803470
-0.006986 -0.134281 0.815000 13858998
-0.006909 -0.128192 0.806000 15720934
-0.006874 -0.122973 0.802000 15261937
-0.006840 -0.117800 0.798000 15525618
-0.006780 -0.112247 0.791000 15723764
-0.006780 -0.107727 0.791000 15064560
-0.006780 -0.103207 0.791000 14734576
-0.006814 -0.099186 0.795000 15062772
-0.006857 -0.095238 0.800000 12634353
-0.006891 -0.091120 0.804000 12888019
-0.006909 -0.086741 0.806000 15196401
-0.006943 -0.082543 0.810000 15588334
-0.007003 -0.078588 0.817000 15458291
-0.007037 -0.074281 0.821000 12499938
-0.007054 -0.069759 0.823000 13403846
-0.007106 -0.065530 0.829000 14932979
-0.007140 -0.061087 0.833000 15197172
-0.007157 -0.056462 0.835000 15260653
-0.005527 -0.150799 0.829000 15261939
-0.005513 -0.145710 0.827000 14141679
-0.005473 -0.139961 0.821000 13144791
-0.005433 -0.134281 0.815000 13801166
-0.005373 -0.128192 0.806000 15721952
-0.005333 -0.122667 0.800000 15261680
-0.005313 -0.117652 0.797000 15656947
-0.005273 -0.112247 0.791000 15657459
-0.005273 -0.107727 0.791000 15196401
-0.005273 -0.103207 0.791000 14800880
-0.005300 -0.099186 0.795000 15262196
-0.005333 -0.095238 0.800000 13882873
-0.005360 -0.091120 0.804000 14014440
-0.005373 -0.086741 0.806000 14210020
-0.005413 -0.082747 0.812000 13680361
-0.005447 -0.078588 0.817000 15393269
-0.005473 -0.074281 0.821000 14147059
-0.005487 -0.069759 0.823000 14599412
-0.005513 -0.065372 0.827000 15063538
-0.005553 -0.061087 0.833000 14668788
-0.005580 -0.056597 0.837000 15191523
-0.005593 -0.051938 0.839000 14534133
-0.003957 -0.151163 0.831000 15130610
-0.003929 -0.145357 0.825000 14671603
-0.003910 -0.139961 0.821000 12423879
-0.003876 -0.134116 0.814000 13742023
-0.003838 -0.128192 0.806000 15654116
-0.003819 -0.122973 0.802000 15195888
-0.003795 -0.117652 0.797000 15788274
-0.003767 -0.112247 0.791000 15591668
-0.003767 -0.107727 0.791000 15262192
-0.003767 -0.103207 0.791000 14933489
-0.003795 -0.099435 0.797000 15393523
-0.003810 -0.095238 0.800000 15127539
-0.003829 -0.091120 0.804000 15128810
-0.003838 -0.086741 0.806000 13231596
-0.003867 -0.082747 0.812000 11702497
-0.003890 -0.078588 0.817000 15329784
-0.003910 -0.074281 0.821000 15787507
-0.003919 -0.069759 0.823000 15725301
-0.003938 -0.065372 0.827000 15195634
-0.003967 -0.061087 0.833000 14144240
-0.003976 -0.056462 0.835000 15055596
-0.003995 -0.051938 0.839000 15523573
-0.002369 -0.150799 0.829000 15196146
-0.002357 -0.145357 0.825000 14537463
-0.002346 -0.139961 0.821000 12226999
-0.002326 -0.134116 0.814000 13146816
-0.002303 -0.128192 0.806000 15590376
-0.002286 -0.122667 0.800000 15130351
-0.002277 -0.117652 0.797000 15920625
-0.002260 -0.112247 0.791000 15657716
-0.002260 -0.107727 0.791000 15393776
-0.002266 -0.103468 0.793000 14999025
-0.002277 -0.099435 0.797000 15591666
-0.002291 -0.095476 0.802000 14666989
-0.002297 -0.091120 0.804000 15459309
-0.002303 -0.086741 0.806000 13289971
-0.002320 -0.082747 0.812000 12345305
-0.002334 -0.078588 0.817000 15591418
-0.002346 -0.074281 0.821000 15656691
-0.002351 -0.069759 0.823000 15591414
-0.002363 -0.065372 0.827000 15261682
-0.002374 -0.060940 0.831000 13946604
-0.002391 -0.056597 0.837000 14988788
-0.000790 -0.150799 0.829000 15196145
-0.000786 -0.145357 0.825000 14409206
-0.000782 -0.139961 0.821000 11967185
-0.000775 -0.134116 0.814000 12616629
-0.000768 -0.128192 0.806000 15523302
-0.000762 -0.122667 0.800000 15130351
-0.000759 -0.117652 0.797000 15985650
-0.000753 -0.112247 0.791000 15789813
-0.000753 -0.107727 0.791000 15459825
-0.000755 -0.103468 0.793000 15130609
-0.000759 -0.099435 0.797000 15787762
-0.000762 -0.095238 0.800000 14271723
-0.000766 -0.091120 0.804000 15721455
-0.000770 -0.086956 0.808000 13423345
-0.000775 -0.082950 0.814000 12953572
-0.000778 -0.078588 0.817000 15854583
-0.000782 -0.074281 0.821000 15525363
-0.000784 -0.069759 0.823000 15459061
-0.000788 -0.065372 0.827000 15327475
-0.000791 -0.060940 0.831000 13750769
-0.000797 -0.056597 0.837000 14927089
-0.000799 -0.051938 0.839000 15126486
0.000790 -0.150799 0.829000 15196145
0.000784 -0.145005 0.823000 14801908
0.000780 -0.139620 0.819000 13418218
0.000775 -0.134116 0.814000 12554154
0.000768 -0.128192 0.806000 15592165
0.000762 -0.122667 0.800000 15064559
0.000759 -0.117652 0.797000 16249587
0.000753 -0.112247 0.791000 15920885
0.000753 -0.107727 0.791000 15591410
0.000757 -0.103729 0.795000 15327985
0.000759 -0.099435 0.797000 15985907
0.000762 -0.095238 0.800000 14404328
0.000766 -0.091120 0.804000 15920370
0.000770 -0.086956 0.808000 14604271
0.000775 -0.082950 0.814000 14534128
0.000778 -0.078588 0.817000 15854068
0.000782 -0.074281 0.821000 15656690
0.000784 -0.069759 0.823000 15460596
0.000788 -0.065372 0.827000 15131124
0.000791 -0.060940 0.831000 14670582
0.000797 -0.056597 0.837000 15262958
0.002369 -0.150799 0.829000 15130353
0.002357 -0.145357 0.825000 15196146
0.002340 -0.139620 0.819000 14800624
0.002320 -0.133787 0.812000 12560335
0.002303 -0.128192 0.806000 15656172
0.002286 -0.122667 0.800000 14999280
0.002271 -0.117357 0.795000 16445940
0.002260 -0.112247 0.791000 16052213
0.002260 -0.107727 0.791000 15657459
0.002271 -0.103729 0.795000 15592180
0.002277 -0.099435 0.797000 16116211
0.002291 -0.095476 0.802000 14536169
0.002303 -0.091347 0.806000 16117493
0.002309 -0.086956 0.808000 15722994
0.002326 -0.082950 0.814000 16050932
0.002334 -0.078588 0.817000 15919092
0.002346 -0.074281 0.821000 15788532
0.002357 -0.069929 0.825000 15528437
0.002369 -0.065530 0.829000 14866147
0.002380 -0.061087 0.833000 15526645
0.002391 -0.056597 0.837000 15522544
0.003948 -0.150799 0.829000 15196144
0.003919 -0.145005 0.823000 15195888
0.003900 -0.139620 0.819000 15066101
0.003867 -0.133787 0.812000 14078708
0.003838 -0.128192 0.806000 15524851
0.003810 -0.122667 0.800000 15064817
0.003786 -0.117357 0.795000 16580342
0.003767 -0.112247 0.791000 16052469
0.003767 -0.107727 0.791000 15723252
0.003795 -0.103990 0.797000 15657975
0.003800 -0.099560 0.798000 16052468
0.003819 -0.095476 0.802000 14932202
0.003838 -0.091347 0.806000 16118263
0.003848 -0.086956 0.808000 15920629
0.003876 -0.082950 0.814000 16053241
0.003890 -0.078588 0.817000 15920115
0.003910 -0.074281 0.821000 15919861
0.003929 -0.069929 0.825000 14929653
0.003948 -0.065530 0.829000 15059922
0.003967 -0.061087 0.833000 15789044
0.003986 -0.056597 0.837000 15324147
0.005527 -0.150799 0.829000 15261424
0.005487 -0.145005 0.823000 15195633
0.005447 -0.139279 0.817000 15327475
0.005413 -0.133787 0.812000 15591666
0.005360 -0.127874 0.804000 15327986
0.005333 -0.122667 0.800000 15196144
0.005300 -0.117357 0.795000 16710393
0.005273 -0.112247 0.791000 16052212
0.005273 -0.107727 0.791000 15788788
0.005313 -0.103990 0.797000 15789812
0.005320 -0.099560 0.798000 15920372
0.005360 -0.095714 0.804000 15390699
0.005373 -0.091347 0.806000 16052471
0.005400 -0.087171 0.810000 16117493
0.005427 -0.082950 0.814000 15986935
0.005447 -0.078588 0.817000 15985908
0.005473 -0.074281 0.821000 15986166
0.005500 -0.069929 0.825000 14334960
0.005527 -0.065530 0.829000 15192533
0.005567 -0.061233 0.835000 15985396
0.005580 -0.056597 0.837000 15061748
0.007106 -0.150799 0.829000 15195889
0.007054 -0.145005 0.823000 15195889
0.007003 -0.139279 0.817000 15261424
0.006943 -0.133457 0.810000 15393520
0.006891 -0.127874 0.804000 15458801
0.006857 -0.122667 0.800000 15327471
0.006814 -0.117357 0.795000 16711421
0.006780 -0.112247 0.791000 15920371
0.006797 -0.107999 0.793000 15854068
0.006831 -0.103990 0.797000 15722737
0.006840 -0.099560 0.798000 15789300
0.006891 -0.095714 0.804000 15392492
0.006926 -0.091573 0.808000 16117750
0.006960 -0.087387 0.812000 16183285
0.006977 -0.082950 0.814000 16183542
0.007020 -0.078780 0.819000 16051957
0.007037 -0.074281 0.821000 16117751
0.007071 -0.069929 0.825000 14005738
0.007106 -0.065530 0.829000 15652824
0.007157 -0.061233 0.835000 16051955
0.007174 -0.056597 0.837000 15592438
0.008685 -0.150799 0.829000 15130609
0.008622 -0.145005 0.823000 15196145
0.008559 -0.139279 0.817000 15130608
0.008486 -0.133457 0.810000 15261680
0.008423 -0.127874 0.804000 15589873
0.008381 -0.122667 0.800000 15458285
0.008329 -0.117357 0.795000 16709626
0.008287 -0.112247 0.791000 15854579
0.008308 -0.107999 0.793000 15920885
0.008350 -0.103990 0.797000 15655152
0.008360 -0.099560 0.798000 15591667
0.008444 -0.095952 0.806000 15457006
0.008465 -0.091573 0.808000 16117750
0.008528 -0.087602 0.814000 16183286
0.008538 -0.083052 0.815000 16381176
0.008580 -0.078780 0.819000 16183287
0.008601 -0.074281 0.821000 16183799
0.008664 -0.070098 0.827000 13739498
0.008685 -0.065530 0.829000 16112871
0.008748 -0.061233 0.835000 16117492
0.008769 -0.056597 0.837000 16051702
0.010264 -0.150799 0.829000 15130609
0.010190 -0.145005 0.823000 15196144
0.010115 -0.139279 0.817000 15130608
0.010029 -0.133457 0.810000 15261936
0.009954 -0.127874 0.804000 15459058
0.009905 -0.122667 0.800000 15524075
0.009843 -0.117357 0.795000 16380408
0.009793 -0.112247 0.791000 15723251
0.009843 -0.108271 0.795000 16118262
0.009868 -0.103990 0.797000 15590126
0.009905 -0.099810 0.800000 15261938
0.009979 -0.095952 0.806000 15524591
0.010004 -0.091573 0.808000 16117750
0.010078 -0.087602 0.814000 16183542
0.010115 -0.083256 0.817000 16251131
0.010140 -0.078780 0.819000 15986681
0.010165 -0.074281 0.821000 16117752
0.010239 -0.070098 0.827000 14732010
0.010289 -0.065689 0.831000 16381175
0.010338 -0.061233 0.835000 16117748
0.010388 -0.056732 0.839000 16051958
0.011843 -0.150799 0.829000 15064817
0.011757 -0.145005 0.823000 15261937
0.011671 -0.139279 0.817000 15130864
0.011600 -0.133787 0.812000 15262193
0.011486 -0.127874 0.804000 15327729
0.011429 -0.122667 0.800000 15653101
0.011357 -0.117357 0.795000 15986935
0.011300 -0.112247 0.791000 15657203
0.011357 -0.108271 0.795000 16248308
0.011386 -0.103990 0.797000 15589872
0.011429 -0.099810 0.800000 14867697
0.011514 -0.095952 0.806000 15656691
0.011543 -0.091573 0.808000 16052214
0.011629 -0.087602 0.814000 16183799
0.011671 -0.083256 0.817000 16113123
0.011729 -0.078972 0.821000 15856888
0.011786 -0.074643 0.825000 16051958
0.011814 -0.070098 0.827000 15719664
0.011871 -0.065689 0.831000 16643575
0.011957 -0.061380 0.837000 16117493
0.012014 -0.056868 0.841000 16051702
0.013422 -0.150799 0.829000 15130097
0.013325 -0.145005 0.823000 15261938
0.013228 -0.139279 0.817000 15262192
0.013147 -0.133787 0.812000 15262193
0.013017 -0.127874 0.804000 15262192
0.012952 -0.122667 0.800000 15722479
0.012904 -0.117652 0.797000 15854327
0.012839 -0.112530 0.793000 15591410
0.012871 -0.108271 0.795000 15919346
0.012920 -0.104120 0.798000 15525105
0.012985 -0.100059 0.802000 14800113
0.013082 -0.096190 0.808000 15328502
0.013114 -0.091800 0.810000 15986165
0.013179 -0.087602 0.814000 15986935
0.013260 -0.083460 0.819000 13675467
0.013292 -0.078972 0.821000 15524086
0.013357 -0.074643 0.825000 16051701
0.013422 -0.070268 0.829000 15854069
0.013487 -0.065847 0.833000 16314615
0.013551 -0.061380 0.837000 16183286
0.013616 -0.056868 0.841000 16116982
0.015001 -0.150799 0.829000 15130355
0.014892 -0.145005 0.823000 15261682
0.014784 -0.139279 0.817000 15393008
0.014693 -0.133787 0.812000 15327473
0.014549 -0.127874 0.804000 15195631
0.014440 -0.122360 0.798000 15855604
0.014422 -0.117652 0.797000 15723253
0.014350 -0.112530 0.793000 15591154
0.014422 -0.108544 0.797000 15525105
0.014440 -0.104120 0.798000 15394293
0.014549 -0.100309 0.804000 14734574
0.014621 -0.096190 0.808000 14999525
0.014693 -0.092027 0.812000 15847922
0.014748 -0.087710 0.815000 15791095
0.014820 -0.083460 0.819000 11183820
0.014856 -0.078972 0.821000 15201018
0.014929 -0.074643 0.825000 15985909
0.015037 -0.070437 0.831000 15986165
0.015110 -0.066005 0.835000 15986679
0.015146 -0.061380 0.837000 16314611
0.016580 -0.150799 0.829000 15130356
0.016460 -0.145005 0.823000 15196145
0.016340 -0.139279 0.817000 15327217
0.016240 -0.133787 0.812000 15196657
0.016080 -0.127874 0.804000 15063534
0.016000 -0.122667 0.800000 15921401
0.015940 -0.117652 0.797000 15657203
0.015900 -0.112814 0.795000 15525105
0.015940 -0.108544 0.797000 15458544
0.016000 -0.104381 0.800000 15395064
0.016120 -0.100558 0.806000 14601708
0.016160 -0.096190 0.808000 14927571
0.016240 -0.092027 0.812000 15122414
0.016300 -0.087710 0.815000 15855094
0.016380 -0.083460 0.819000 11184589
0.016460 -0.079165 0.823000 15656957
0.016540 -0.074824 0.827000 16051701
0.016660 -0.070607 0.833000 15985652
0.016700 -0.066005 0.835000 15855351
0.016780 -0.061527 0.839000 15389423
0.018115 -0.150435 0.827000 15064304
0.017984 -0.144652 0.821000 15195889
0.017896 -0.139279 0.817000 15196401
0.017787 -0.133787 0.812000 15131120
0.017611 -0.127874 0.804000 14868720
0.017480 -0.122360 0.798000 15987960
0.017458 -0.117652 0.797000 15525618
0.017458 -0.113098 0.797000 15458801
0.017480 -0.108680 0.798000 15327473
0.017524 -0.104381 0.800000 15397881
0.017699 -0.100808 0.808000 14404583
0.017743 -0.096429 0.810000 14918115
0.017830 -0.092253 0.814000 14337520
0.017896 -0.087925 0.817000 15986165
0.017940 -0.083460 0.819000 11187680
0.018071 -0.079357 0.825000 16186366
0.018159 -0.075005 0.829000 16050163
0.018247 -0.070607 0.833000 15985396
0.018334 -0.066163 0.837000 15718120
0.018466 -0.061820 0.843000 14457568
0.019690 -0.150435 0.827000 14997740
0.019548 -0.144652 0.821000 15064561
0.019452 -0.139279 0.817000 15131122
0.019333 -0.133787 0.812000 14932718
0.019143 -0.127874 0.804000 15527410
0.019048 -0.122667 0.800000 15920887
0.019000 -0.117800 0.798000 15459825
0.019000 -0.113240 0.798000 15393008
0.019000 -0.108680 0.798000 15327217
0.019143 -0.104903 0.804000 15131642
0.019286 -0.101057 0.810000 14730978
0.019333 -0.096667 0.812000 15388402
0.019405 -0.092367 0.815000 15131122
0.019500 -0.088140 0.819000 15854580
0.019548 -0.083664 0.821000 13685491
0.019690 -0.079550 0.827000 15856126
0.019786 -0.075186 0.831000 15128562
0.019881 -0.070776 0.835000 15920115
0.019976 -0.066321 0.839000 15050713
0.020071 -0.061820 0.843000 14859216
0.021266 -0.150435 0.827000 14865375
0.021111 -0.144652 0.821000 14998256
0.020957 -0.138938 0.815000 14998252
0.020880 -0.133787 0.812000 14800879
0.020674 -0.127874 0.804000 16116981
0.020571 -0.122667 0.800000 15854581
0.020520 -0.117800 0.798000 15393265
0.020571 -0.113524 0.800000 15327218
0.020623 -0.109225 0.802000 15327989
0.020726 -0.105164 0.806000 14871290
0.020829 -0.101057 0.810000 15061478
0.020880 -0.096667 0.812000 15920117
0.021009 -0.092593 0.817000 15920118
0.021060 -0.088140 0.819000 15788020
0.021111 -0.083664 0.821000 16115955
0.021317 -0.079742 0.829000 15591666
0.021420 -0.075367 0.833000 14141166
0.021523 -0.070946 0.837000 15854581
0.021626 -0.066479 0.841000 14405098
0.021729 -0.061967 0.845000 15260391
0.022675 -0.144652 0.821000 14997999
0.022565 -0.139279 0.817000 14797286
0.022427 -0.133787 0.812000 15328240
0.022206 -0.127874 0.804000 15920888
0.022095 -0.122667 0.800000 15525106
0.022095 -0.118095 0.800000 15261169
0.022095 -0.113524 0.800000 15458803
0.022206 -0.109497 0.804000 15656184
0.022316 -0.105425 0.808000 14600697
0.022427 -0.101307 0.812000 15394025
0.022510 -0.097024 0.815000 15854583
0.022620 -0.092820 0.819000 15723513
0.022675 -0.088355 0.821000 15788275
0.022730 -0.083868 0.823000 15853811
0.022951 -0.079934 0.831000 14993893
0.023007 -0.075367 0.833000 14723819
0.023117 -0.070946 0.837000 15920118
0.023228 -0.066479 0.841000 15265787
0.023338 -0.061967 0.845000 14797821
0.024180 -0.144300 0.819000 15064817
0.024062 -0.138938 0.815000 14539761
0.023914 -0.133457 0.810000 15853301
0.023737 -0.127874 0.804000 15722997
0.023619 -0.122667 0.800000 15196402
0.023619 -0.118095 0.800000 15129843
0.023678 -0.113808 0.802000 15589872
0.023796 -0.109770 0.806000 15916267
0.023973 -0.105947 0.812000 14395859
0.024032 -0.101556 0.814000 15717604
0.024121 -0.097262 0.817000 15854068
0.024239 -0.093047 0.821000 15521770
0.024298 -0.088570 0.823000 15788021
0.024357 -0.084071 0.825000 15590644
0.024534 -0.079934 0.831000 14400240
0.024652 -0.075548 0.835000 15254509
0.024770 -0.071115 0.839000 15984884
0.024889 -0.066637 0.843000 16116983
0.025740 -0.144300 0.819000 14866675
0.025583 -0.138768 0.814000 15201533
0.025520 -0.133787 0.812000 15525369
0.025269 -0.127874 0.804000 15393010
0.025206 -0.122973 0.802000 14998001
0.025206 -0.118390 0.802000 15195637
0.025269 -0.114091 0.804000 14404588
0.025394 -0.110042 0.808000 14468575
0.025520 -0.105947 0.812000 13538220
0.025583 -0.101556 0.814000 15256031
0.025740 -0.097500 0.819000 14732785
0.025866 -0.093273 0.823000 14395099
0.025866 -0.088570 0.823000 15721719
0.025991 -0.084275 0.827000 15654901
0.026243 -0.080319 0.835000 15065338
0.026306 -0.075729 0.837000 14603760
0.026431 -0.071285 0.841000 15655410
0.026494 -0.066637 0.843000 15984372
0.027300 -0.144300 0.819000 14665424
0.027133 -0.138768 0.814000 15785190
0.027067 -0.133787 0.812000 15195114
0.026867 -0.128192 0.806000 15061736
0.026733 -0.122973 0.802000 14735082
0.026800 -0.118686 0.804000 15258599
0.026800 -0.114091 0.804000 13213641
0.026933 -0.110042 0.808000 13014728
0.027133 -0.106208 0.814000 12683441
0.027300 -0.102180 0.819000 14733532
0.027300 -0.097500 0.819000 13680876
0.027433 -0.093273 0.823000 13220576
0.027500 -0.088786 0.825000 15721712
0.027633 -0.084479 0.829000 15655666
0.027900 -0.080511 0.837000 15721462
0.027900 -0.075729 0.837000 13941223
0.028100 -0.071454 0.843000 15328498
0.028267 -0.067032 0.848000 15852787
0.028613 -0.138427 0.812000 14861008
0.028613 -0.133787 0.812000 14469595
0.028472 -0.128510 0.808000 14335967
0.028331 -0.123280 0.804000 14272738
0.028402 -0.118981 0.806000 14467289
0.028402 -0.114375 0.806000 13407909
0.028613 -0.110587 0.812000 13274802
0.028684 -0.106208 0.814000 13147061
0.028860 -0.102180 0.819000 14340568
0.028930 -0.097738 0.821000 14010087
0.029001 -0.093273 0.823000 13749733
0.029212 -0.089216 0.829000 14864872
0.029353 -0.084887 0.833000 15065072
0.029565 -0.080704 0.839000 15061490
0.029565 -0.075910 0.839000 14267614
0.029776 -0.071624 0.845000 14865905
0.029952 -0.067190 0.850000 15327219
0.030160 -0.138427 0.812000 13939904
0.030160 -0.133787 0.812000 13810374
0.030086 -0.128829 0.810000 13611975
0.029863 -0.123280 0.804000 13811914
0.029937 -0.118981 0.806000 13676996
0.029937 -0.114375 0.806000 13605802
0.030160 -0.110587 0.812000 13541300
0.030234 -0.106208 0.814000 13607604
0.030420 -0.102180 0.819000 13940675
0.030494 -0.097738 0.821000 14332873
0.030717 -0.093727 0.827000 14203079
0.030866 -0.089431 0.831000 14069192
0.031014 -0.085090 0.835000 14467021
0.031237 -0.080896 0.841000 14404050
0.031311 -0.076271 0.843000 14596554
0.031497 -0.071878 0.848000 14399440
0.031571 -0.067190 0.850000 14729428
0.031707 -0.133787 0.812000 13872817
0.031629 -0.128829 0.810000 13740207
0.031394 -0.123280 0.804000 13873586
0.031472 -0.118981 0.806000 13739950
0.031472 -0.114375 0.806000 13673902
0.032058 -0.097738 0.821000 14002603
0.032292 -0.093727 0.827000 13869737
0.032449 -0.089431 0.831000 13870248
0.032605 -0.085090 0.835000 13868202
0.032917 -0.081089 0.843000 13807025
0.032995 -0.076452 0.845000 13936055
0.033112 -0.071878 0.848000 13870767
0.034605 -0.081281 0.845000 13214895
0.034605 -0.076452 0.845000 13280949
0.034728 -0.071878 0.848000 13281458
0.036214 -0.081281 0.845000 13412013
-0.042690 -0.128071 0.815000 12165040
-0.042429 -0.118029 0.810000 11832727
-0.042690 -0.114100 0.815000 12358557
-0.042690 -0.109443 0.815000 12490905
-0.041138 -0.137386 0.815000 13948905
-0.041138 -0.132729 0.815000 14208490
-0.041088 -0.127914 0.814000 11969235
-0.040987 -0.122960 0.812000 11244207
-0.040886 -0.118029 0.810000 10453400
-0.040987 -0.113680 0.812000 11375262
-0.041088 -0.109309 0.814000 11701913
-0.041088 -0.104657 0.814000 12555664
-0.042148 -0.093043 0.835000 12490129
-0.039683 -0.137723 0.817000 14804218
-0.039586 -0.132729 0.815000 14803448
-0.039537 -0.127914 0.814000 13288437
-0.039343 -0.122657 0.810000 12037315
-0.039246 -0.117737 0.808000 10717592
-0.039343 -0.113400 0.810000 11375263
-0.039537 -0.109309 0.814000 11373208
-0.039586 -0.104786 0.815000 11765903
-0.039537 -0.100006 0.814000 11832986
-0.040363 -0.097346 0.831000 11964562
-0.040557 -0.093043 0.835000 12030356
-0.040557 -0.088271 0.835000 12030088
-0.040654 -0.083700 0.837000 11963269
-0.038220 -0.138060 0.819000 15720693
-0.038033 -0.132729 0.815000 15327476
-0.037893 -0.127600 0.812000 14542325
-0.037707 -0.122354 0.808000 12824279
-0.037613 -0.117446 0.806000 10981025
-0.037707 -0.113120 0.808000 11375527
-0.037800 -0.108771 0.810000 11046555
-0.037987 -0.104657 0.814000 10914452
-0.037987 -0.100006 0.814000 11504791
-0.038500 -0.096643 0.825000 11374229
-0.038780 -0.092597 0.831000 11636887
-0.038967 -0.088271 0.835000 11897490
-0.039060 -0.083700 0.837000 11766156
-0.039853 -0.070760 0.854000 11766154
-0.036570 -0.137723 0.817000 15392495
-0.036436 -0.132566 0.814000 15195889
-0.036257 -0.127286 0.810000 14934517
-0.036168 -0.122354 0.808000 12890859
-0.035989 -0.117154 0.804000 11311529
-0.036078 -0.112840 0.806000 11245231
-0.036257 -0.108771 0.810000 11244189
-0.036347 -0.104400 0.812000 10980506
-0.036481 -0.100129 0.815000 11176596
-0.036839 -0.096409 0.823000 11307928
-0.037108 -0.092374 0.829000 11440282
-0.037197 -0.087849 0.831000 10844061
-0.037376 -0.083500 0.835000 11570834
-0.037466 -0.078917 0.837000 11502735
-0.038137 -0.070594 0.852000 11700110
-0.038316 -0.066034 0.856000 11437440
-0.035443 -0.144134 0.827000 15328244
-0.035100 -0.138060 0.819000 15064560
-0.034886 -0.132566 0.814000 15064817
-0.034629 -0.126971 0.808000 15260915
-0.034543 -0.122051 0.806000 12961774
-0.034371 -0.116863 0.802000 11706566
-0.034457 -0.112560 0.804000 11114161
-0.034629 -0.108503 0.808000 11441068
-0.034800 -0.104400 0.812000 10981796
-0.034929 -0.100129 0.815000 10849176
-0.035186 -0.096174 0.821000 11174552
-0.035443 -0.092151 0.827000 11243930
-0.035614 -0.087849 0.831000 9729945
-0.035614 -0.083100 0.831000 11309450
-0.035871 -0.078917 0.837000 11046302
-0.036343 -0.075109 0.848000 11702428
-0.036514 -0.070594 0.852000 11570326
-0.036686 -0.066034 0.856000 11240330
-0.033950 -0.149220 0.829000 15262973
-0.033868 -0.144134 0.827000 15261169
-0.033540 -0.138060 0.819000 15130352
-0.033335 -0.132566 0.814000 15130353
-0.033090 -0.126971 0.808000 15261425
-0.032926 -0.121749 0.804000 14210801
-0.032762 -0.116571 0.800000 12299490
-0.032844 -0.112280 0.802000 11638963
-0.033008 -0.108234 0.806000 11639482
-0.033171 -0.104143 0.810000 11639470
-0.033335 -0.100006 0.814000 10913947
-0.033540 -0.095940 0.819000 10910872
-0.033786 -0.091929 0.825000 11375001
-0.033950 -0.087637 0.829000 10714262
-0.034031 -0.083100 0.831000 11241345
-0.034277 -0.078917 0.837000 11441324
-0.034605 -0.074843 0.845000 11637153
-0.034810 -0.070429 0.850000 11702687
-0.034973 -0.065880 0.854000 11242388
-0.032449 -0.149580 0.831000 15659256
-0.032370 -0.144483 0.829000 15195632
-0.032058 -0.138397 0.821000 15261424
-0.031785 -0.132566 0.814000 15196401
-0.031550 -0.126971 0.808000 15196657
-0.031394 -0.121749 0.804000 15391731
-0.031238 -0.116571 0.800000 12828899
-0.031238 -0.112000 0.800000 12099259
-0.031394 -0.107966 0.804000 11903944
-0.031550 -0.103886 0.808000 12295605
-0.031785 -0.100006 0.814000 10912428
-0.031902 -0.095706 0.817000 10651815
-0.032136 -0.091706 0.823000 11442858
-0.032292 -0.087426 0.827000 11636904
-0.032370 -0.082900 0.829000 11177883
-0.032683 -0.078917 0.837000 11836080
-0.032917 -0.074666 0.843000 11637665
-0.032995 -0.070014 0.845000 11769511
-0.033347 -0.065880 0.854000 11309194
-0.030866 -0.149580 0.831000 15460083
-0.030717 -0.144134 0.827000 15195888
-0.030494 -0.138397 0.821000 15261679
-0.030234 -0.132566 0.814000 15196657
-0.030011 -0.126971 0.808000 15262193
-0.029789 -0.121446 0.802000 15394036
-0.029714 -0.116571 0.800000 13222883
-0.029714 -0.112000 0.800000 12165571
-0.029789 -0.107697 0.802000 12167637
-0.029937 -0.103629 0.806000 12297405
-0.030086 -0.099514 0.810000 11375548
-0.030346 -0.095706 0.817000 11576759
-0.030494 -0.091483 0.821000 11903674
-0.030643 -0.087214 0.825000 11969210
-0.030791 -0.082900 0.829000 11771316
-0.031014 -0.078729 0.835000 11968180
-0.031163 -0.074311 0.839000 11440288
-0.031311 -0.069849 0.843000 11836592
-0.031646 -0.065726 0.852000 10914432
-0.029283 -0.149580 0.831000 15326449
-0.029212 -0.144483 0.829000 15195888
-0.029001 -0.138734 0.823000 15261681
-0.028684 -0.132566 0.814000 15131121
-0.028402 -0.126657 0.806000 15327474
-0.028261 -0.121446 0.802000 15393779
-0.028120 -0.116280 0.798000 13682667
-0.028120 -0.111720 0.798000 12233166
-0.028190 -0.107429 0.800000 12367316
-0.028402 -0.103629 0.806000 12297922
-0.028543 -0.099514 0.810000 11839433
-0.028719 -0.095471 0.815000 12492728
-0.028860 -0.091260 0.819000 12429765
-0.029001 -0.087003 0.823000 12297920
-0.029142 -0.082700 0.827000 12362940
-0.029353 -0.078540 0.833000 12035258
-0.029565 -0.074311 0.839000 11175833
-0.029635 -0.069683 0.841000 11836332
-0.029776 -0.065186 0.845000 10519713
-0.027967 -0.155814 0.839000 15658214
-0.027700 -0.149580 0.831000 15195887
-0.027633 -0.144483 0.829000 15196145
-0.027367 -0.138397 0.821000 15261938
-0.027133 -0.132566 0.814000 15196400
-0.026933 -0.126971 0.808000 15327730
-0.026733 -0.121446 0.802000 15262194
-0.026600 -0.116280 0.798000 14209010
-0.026600 -0.111720 0.798000 12495833
-0.026667 -0.107429 0.800000 12563410
-0.026800 -0.103371 0.804000 12496072
-0.026933 -0.099269 0.808000 12366806
-0.027133 -0.095354 0.814000 12163514
-0.027300 -0.091260 0.819000 12758735
-0.027433 -0.087003 0.823000 12496583
-0.027500 -0.082500 0.825000 12626628
-0.027700 -0.078351 0.831000 12299456
-0.027900 -0.074134 0.837000 11177105
-0.027967 -0.069517 0.839000 12033961
-0.028100 -0.065031 0.843000 11640002
-0.028333 -0.060714 0.850000 12165557
-0.026306 -0.155443 0.837000 16049387
-0.026117 -0.149580 0.831000 15130095
-0.026054 -0.144483 0.829000 15195889
-0.025803 -0.138397 0.821000 15261937
-0.025583 -0.132566 0.814000 15261937
-0.025394 -0.126971 0.808000 15393522
-0.025206 -0.121446 0.802000 15065073
-0.025080 -0.116280 0.798000 14734581
-0.025080 -0.111720 0.798000 12695516
-0.025080 -0.107160 0.798000 12825303
-0.025269 -0.103371 0.804000 12693201
-0.025331 -0.099023 0.806000 12959708
-0.025520 -0.095120 0.812000 11829672
-0.025677 -0.091037 0.817000 13088213
-0.025803 -0.086791 0.821000 12692172
-0.025929 -0.082500 0.825000 12824237
-0.026117 -0.078351 0.831000 12562117
-0.026243 -0.073957 0.835000 11242419
-0.026306 -0.069351 0.837000 12229815
-0.026431 -0.064877 0.841000 12691909
-0.026651 -0.060571 0.848000 12298176
-0.024711 -0.155443 0.837000 15921136
-0.024593 -0.149940 0.833000 15064303
-0.024475 -0.144483 0.829000 15195632
-0.024298 -0.138734 0.823000 15327472
-0.024032 -0.132566 0.814000 15327217
-0.023855 -0.126971 0.808000 15327473
-0.023678 -0.121446 0.802000 14998256
-0.023560 -0.116280 0.798000 15065335
-0.023530 -0.111580 0.797000 12958175
-0.023560 -0.107160 0.798000 13023451
-0.023678 -0.103114 0.802000 12824282
-0.023796 -0.099023 0.806000 12892641
-0.023914 -0.094886 0.810000 11685783
-0.024062 -0.090814 0.815000 13351130
-0.024180 -0.086580 0.819000 12428241
-0.024298 -0.082300 0.823000 12487573
-0.024475 -0.078163 0.829000 12890570
-0.024593 -0.073780 0.833000 12165844
-0.024711 -0.069351 0.837000 12756934
-0.024830 -0.064877 0.841000 12759239
-0.024889 -0.060214 0.843000 12627403
-0.023117 -0.155443 0.837000 15722739
-0.023007 -0.149940 0.833000 14999024
-0.022896 -0.144483 0.829000 15130866
-0.022620 -0.138060 0.819000 15393268
-0.022427 -0.132240 0.812000 15327731
-0.022261 -0.126657 0.806000 15261681
-0.022095 -0.121143 0.800000 14867695
-0.021957 -0.115843 0.795000 15461367
-0.021902 -0.111020 0.793000 13157350
-0.022012 -0.107026 0.797000 13221599
-0.022040 -0.102600 0.798000 12891610
-0.022150 -0.098531 0.802000 12892378
-0.022316 -0.094651 0.808000 11564186
-0.022427 -0.090480 0.812000 13614288
-0.022510 -0.086157 0.815000 12103128
-0.022620 -0.081900 0.819000 12209307
-0.022896 -0.078163 0.829000 13219787
-0.022951 -0.073603 0.831000 13153752
-0.023062 -0.069186 0.835000 13218771
-0.023172 -0.064723 0.839000 12826824
-0.023228 -0.060071 0.841000 12956362
-0.021523 -0.155443 0.837000 15459063
-0.021369 -0.149580 0.831000 15130097
-0.021266 -0.144134 0.827000 15066357
-0.021009 -0.137723 0.817000 15065336
-0.020880 -0.132240 0.812000 15394036
-0.020726 -0.126657 0.806000 15261936
-0.020571 -0.121143 0.800000 15064559
-0.020443 -0.115843 0.795000 15329526
-0.020391 -0.111020 0.793000 13813485
-0.020443 -0.106757 0.795000 13484771
-0.020520 -0.102600 0.798000 13088218
-0.020623 -0.098531 0.802000 12496338
-0.020726 -0.094417 0.806000 11692700
-0.020880 -0.090480 0.812000 12758981
-0.020931 -0.086051 0.814000 13157087
-0.021009 -0.081700 0.817000 12148897
-0.021163 -0.077597 0.823000 13549772
-0.021266 -0.073249 0.827000 13417436
-0.021369 -0.068854 0.831000 13351649
-0.021523 -0.064569 0.837000 12690888
-0.021574 -0.059929 0.839000 13284809
-0.021729 -0.055529 0.845000 12299753
-0.019881 -0.155071 0.835000 15197430
-0.019786 -0.149580 0.831000 15261425
-0.019643 -0.143786 0.825000 14995435
-0.019500 -0.138060 0.819000 14799318
-0.019333 -0.132240 0.812000 15393002
-0.019238 -0.126971 0.808000 15327472
-0.019048 -0.121143 0.800000 15195630
-0.018929 -0.115843 0.795000 15265784
-0.018833 -0.110740 0.791000 14470636
-0.018929 -0.106757 0.795000 13747942
-0.018976 -0.102471 0.797000 13220576
-0.019048 -0.098286 0.800000 12107733
-0.019190 -0.094417 0.806000 11826591
-0.019286 -0.090257 0.810000 11967397
-0.019381 -0.086051 0.814000 14206690
-0.019452 -0.081700 0.817000 12150199
-0.019595 -0.077597 0.823000 13877467
-0.019690 -0.073249 0.827000 13614046
-0.019738 -0.068689 0.829000 13483744
-0.019881 -0.064414 0.835000 12492482
-0.019929 -0.059786 0.837000 13541064
-0.020071 -0.055397 0.843000 12892898
-0.018290 -0.155071 0.835000 15195381
-0.018203 -0.149580 0.831000 15327473
-0.018115 -0.144134 0.827000 14527458
-0.017896 -0.137723 0.817000 13410228
-0.017787 -0.132240 0.812000 15325409
-0.017699 -0.126971 0.808000 15327728
-0.017524 -0.121143 0.800000 15130094
-0.017414 -0.115843 0.795000 15330297
-0.017327 -0.110740 0.791000 14602732
-0.017414 -0.106757 0.795000 14011368
-0.017458 -0.102471 0.797000 13351911
-0.017524 -0.098286 0.800000 12623320
-0.017655 -0.094417 0.806000 12289185
-0.017743 -0.090257 0.810000 11892357
-0.017830 -0.086051 0.814000 14472165
-0.017852 -0.081500 0.815000 13214157
-0.017984 -0.077409 0.821000 14075883
-0.018071 -0.073071 0.825000 13812448
-0.018159 -0.068689 0.829000 13747167
-0.018290 -0.064414 0.835000 12488635
-0.018334 -0.059786 0.837000 13606087
-0.018466 -0.055397 0.843000 13418715
-0.016700 -0.155071 0.835000 15130868
-0.016620 -0.149580 0.831000 15393266
-0.016540 -0.144134 0.827000 14007525
-0.016340 -0.137723 0.817000 12032970
-0.016240 -0.132240 0.812000 15192033
-0.016160 -0.126971 0.808000 15327729
-0.016000 -0.121143 0.800000 15064815
-0.015900 -0.115843 0.795000 15463417
-0.015820 -0.110740 0.791000 14669550
-0.015860 -0.106489 0.793000 14208748
-0.015940 -0.102471 0.797000 13484776
-0.015960 -0.098040 0.798000 13141973
-0.016120 -0.094417 0.806000 12682406
-0.016160 -0.090034 0.808000 11818889
-0.016280 -0.086051 0.814000 14669032
-0.016300 -0.081500 0.815000 14339552
-0.016420 -0.077409 0.821000 14274029
-0.016460 -0.072894 0.823000 13944551
-0.016580 -0.068689 0.829000 13945062
-0.016660 -0.064260 0.833000 12494299
-0.016740 -0.059786 0.837000 13673942
-0.016820 -0.055266 0.841000 14010591
-0.015110 -0.155071 0.835000 15196148
-0.015001 -0.149220 0.829000 14934514
-0.014929 -0.143786 0.825000 14211049
-0.014784 -0.137723 0.817000 13017312
-0.014693 -0.132240 0.812000 15262177
-0.014585 -0.126657 0.806000 15393265
-0.014476 -0.121143 0.800000 15195887
-0.014386 -0.115843 0.795000 15526648
-0.014313 -0.110740 0.791000 14866928
-0.014350 -0.106489 0.793000 14340592
-0.014386 -0.102214 0.795000 13812713
-0.014440 -0.098040 0.798000 13344722
-0.014585 -0.094417 0.806000 12812970
-0.014621 -0.090034 0.808000 12087437
-0.014693 -0.085840 0.812000 14800364
-0.014730 -0.081400 0.814000 14537203
-0.014820 -0.077220 0.819000 14472174
-0.014892 -0.072894 0.823000 14274285
-0.014965 -0.068523 0.827000 14274798
-0.015073 -0.064260 0.833000 13416955
-0.015110 -0.059643 0.835000 14074086
-0.015182 -0.055134 0.839000 13813219
-0.013487 -0.154700 0.833000 15196403
-0.013422 -0.149220 0.829000 14540788
-0.013357 -0.143786 0.825000 14333391
-0.013228 -0.137723 0.817000 14067155
-0.013147 -0.132240 0.812000 15323359
-0.013050 -0.126657 0.806000 15458802
-0.012952 -0.121143 0.800000 15261680
-0.012871 -0.115843 0.795000 15593976
-0.012807 -0.110740 0.791000 14998769
-0.012839 -0.106489 0.793000 14471920
-0.012871 -0.102214 0.795000 14076909
-0.012920 -0.098040 0.798000 13548502
-0.013017 -0.094183 0.804000 12878766
-0.013082 -0.090034 0.808000 12280224
-0.013147 -0.085840 0.812000 14932458
-0.013179 -0.081400 0.814000 14735090
-0.013260 -0.077220 0.819000 14669297
-0.013292 -0.072717 0.821000 14603482
-0.013390 -0.068523 0.827000 14537455
