# .PCD v.7 - Point Cloud Data file format
VERSION .7
FIELDS x y z rgb
SIZE 4 4 4 4
TYPE F F F I
COUNT 1 1 1 1
WIDTH 1266
HEIGHT 1
POINTS 1266
DATA ascii
0.002514 -0.106438 0.880000 12892095
0.002514 -0.101410 0.880000 13484741
0.002540 -0.097367 0.889000 12555714
0.002560 -0.093013 0.896000 11440575
0.002560 -0.087893 0.896000 10724033
0.002566 -0.082958 0.898000 14740471
0.002574 -0.078087 0.901000 12500968
0.002580 -0.073100 0.903000 14010597
0.002594 -0.068316 0.908000 14736368
0.002600 -0.063267 0.910000 13949427
0.002609 -0.058258 0.913000 11910363
0.002620 -0.053273 0.917000 15130610
0.002634 -0.048295 0.922000 12832239
0.002643 -0.043167 0.925000 14349026
0.004190 -0.101410 0.880000 12887459
0.004267 -0.098133 0.896000 12357542
0.004267 -0.093013 0.896000 12097984
0.004290 -0.088384 0.901000 12630474
0.004300 -0.083420 0.903000 14605561
0.004310 -0.078433 0.905000 12759519
0.004310 -0.073262 0.905000 14207449
0.004324 -0.068316 0.908000 14670064
0.004348 -0.063475 0.913000 14143987
0.004357 -0.058386 0.915000 13556708
0.004367 -0.053273 0.917000 15130608
0.004405 -0.048452 0.925000 14019572
0.004414 -0.043260 0.927000 14607610
0.005960 -0.097914 0.894000 12098214
0.005973 -0.093013 0.896000 12820153
0.006007 -0.088384 0.901000 14467267
0.006033 -0.083605 0.905000 14538479
0.006033 -0.078433 0.905000 12958437
0.006033 -0.073262 0.905000 14409191
0.006053 -0.068316 0.908000 14538993
0.006087 -0.063475 0.913000 14409202
0.006113 -0.058513 0.917000 15126753
0.006133 -0.053448 0.920000 15064562
0.006180 -0.048557 0.927000 15194858
0.007663 -0.097914 0.894000 12361383
0.007680 -0.093013 0.896000 12689585
0.007740 -0.088580 0.903000 13546685
0.007783 -0.083882 0.908000 13813988
0.007783 -0.078693 0.908000 13025771
0.007783 -0.073505 0.908000 14341620
0.007826 -0.068692 0.913000 14604530
0.007826 -0.063475 0.913000 14077169
0.007886 -0.058705 0.920000 13941983
0.007903 -0.053564 0.922000 14999283
0.007971 -0.048714 0.930000 14137312
0.009460 -0.088580 0.903000 12560558
0.009512 -0.083882 0.908000 13155011
0.009512 -0.078693 0.908000 13021898
0.009512 -0.073505 0.908000 14340831
0.009586 -0.068843 0.915000 14604009
0.009638 -0.063962 0.920000 13744619
0.009690 -0.059024 0.925000 12698084
0.009743 -0.054029 0.930000 14933748
0.011242 -0.083882 0.908000 12821665
0.011242 -0.078693 0.908000 12689321
0.011242 -0.073505 0.908000 13549257
0.011353 -0.068993 0.917000 14078176
0.011452 -0.064310 0.925000 13944549
0.011514 -0.059343 0.930000 13094633
0.011539 -0.054145 0.932000 14867700
0.013100 -0.068993 0.917000 13480126
0.013243 -0.064449 0.927000 14079190
0.013314 -0.059470 0.932000 13483732
0.015009 -0.064449 0.927000 13416134
0.015138 -0.059662 0.935000 12686270
0.016774 -0.064449 0.927000 12821945
0.016919 -0.059662 0.935000 11904958
0.018540 -0.064449 0.927000 13084332
-0.077133 -0.113533 0.910000 12690087
-0.074986 -0.118081 0.905000 12821927
-0.075234 -0.113284 0.908000 12624551
-0.073262 -0.118081 0.905000 12821928
-0.073262 -0.112910 0.905000 12558767
-0.072938 -0.107262 0.901000 12032950
-0.072129 -0.095889 0.891000 12361119
-0.071775 -0.118472 0.908000 12493224
-0.071538 -0.112910 0.905000 12559288
-0.070669 -0.106429 0.894000 12429770
-0.070431 -0.100980 0.891000 11966135
-0.070273 -0.095673 0.889000 11243170
-0.070046 -0.123661 0.908000 12689573
-0.070046 -0.118472 0.908000 12165568
-0.069660 -0.112660 0.903000 12566744
-0.068966 -0.106429 0.894000 12767201
-0.068734 -0.100980 0.891000 11777493
-0.068580 -0.095673 0.889000 10061242
-0.068734 -0.090797 0.891000 10190477
-0.068090 -0.123252 0.905000 12492194
-0.068090 -0.118081 0.905000 13287640
-0.067790 -0.112410 0.901000 13689848
-0.067263 -0.106429 0.894000 13753591
-0.067037 -0.100980 0.891000 13292788
-0.066887 -0.095673 0.889000 10985938
-0.066887 -0.090593 0.889000 9984385
-0.066887 -0.085513 0.889000 11570321
-0.066887 -0.080433 0.889000 11966097
-0.066733 -0.129133 0.910000 12624286
-0.066587 -0.123661 0.908000 12298939
-0.066367 -0.118081 0.905000 14412518
-0.065853 -0.112036 0.898000 14736883
-0.065340 -0.106071 0.891000 14735347
-0.065193 -0.100753 0.889000 14801651
-0.065047 -0.095458 0.887000 11911653
-0.065047 -0.090390 0.887000 9798557
-0.065193 -0.085513 0.889000 10583694
-0.065193 -0.080433 0.889000 11965325
-0.065000 -0.129133 0.910000 12623513
-0.064857 -0.123661 0.908000 13420244
-0.064857 -0.118472 0.908000 14277876
-0.064143 -0.112036 0.898000 14406638
-0.063643 -0.106071 0.891000 14472686
-0.063500 -0.100753 0.889000 14538737
-0.063357 -0.095458 0.887000 13028856
-0.063357 -0.090390 0.887000 10001593
-0.063500 -0.085513 0.889000 9992331
-0.063500 -0.080433 0.889000 11044744
-0.063857 -0.075777 0.894000 11308683
-0.063475 -0.129559 0.913000 12623520
-0.063128 -0.123661 0.908000 14472162
-0.062919 -0.118081 0.905000 14209008
-0.062432 -0.112036 0.898000 14078700
-0.061946 -0.106071 0.891000 14210287
-0.061807 -0.100753 0.889000 14210544
-0.061459 -0.095135 0.884000 14146037
-0.061320 -0.089880 0.882000 10133707
-0.061668 -0.085321 0.887000 9467530
-0.061807 -0.080433 0.889000 10126218
-0.062154 -0.075777 0.894000 11243141
-0.062641 -0.071222 0.901000 11438979
-0.061533 -0.129133 0.910000 13021094
-0.061398 -0.123661 0.908000 14276335
-0.061195 -0.118081 0.905000 14078187
-0.060722 -0.112036 0.898000 14144235
-0.060249 -0.106071 0.891000 14210031
-0.059978 -0.100527 0.887000 14275823
-0.059640 -0.094920 0.882000 14276593
-0.059640 -0.089880 0.882000 10920670
-0.059640 -0.084840 0.882000 9732744
-0.060113 -0.080433 0.889000 9995148
-0.060451 -0.075777 0.894000 10321279
-0.060925 -0.071222 0.901000 10716294
-0.059800 -0.129133 0.910000 13417168
-0.059669 -0.123661 0.908000 14013677
-0.059340 -0.117820 0.903000 13947116
-0.059011 -0.112036 0.898000 14144236
-0.058551 -0.106071 0.891000 14275566
-0.058289 -0.100527 0.887000 14276079
-0.057960 -0.094920 0.882000 14472432
-0.057829 -0.089676 0.880000 11713506
-0.057829 -0.084648 0.880000 9996962
-0.058289 -0.080252 0.887000 9863569
-0.058749 -0.075777 0.894000 9468547
-0.059209 -0.071222 0.901000 9926011
-0.059471 -0.066367 0.905000 11044990
-0.058067 -0.129133 0.910000 13815545
-0.057939 -0.123661 0.908000 14012906
-0.057492 -0.117559 0.901000 14012909
-0.057173 -0.111787 0.896000 14078702
-0.056854 -0.106071 0.891000 14275821
-0.056599 -0.100527 0.887000 14276079
-0.056280 -0.094920 0.882000 14275823
-0.056025 -0.089472 0.878000 12897254
-0.056025 -0.084455 0.878000 10195388
-0.056408 -0.079981 0.884000 9930133
-0.056854 -0.075523 0.891000 9338246
-0.057492 -0.071222 0.901000 9656175
-0.057748 -0.066367 0.905000 10125182
-0.058258 -0.061736 0.913000 10454394
-0.056333 -0.129133 0.910000 14282486
-0.056210 -0.123661 0.908000 14012395
-0.055776 -0.117559 0.901000 14012909
-0.055467 -0.111787 0.896000 13947886
-0.055157 -0.106071 0.891000 14275821
-0.054724 -0.100187 0.884000 14276079
-0.054600 -0.094920 0.882000 14144495
-0.054352 -0.089472 0.878000 14011114
-0.054167 -0.084167 0.875000 10394555
-0.054600 -0.079800 0.882000 9996185
-0.055033 -0.075353 0.889000 9274764
-0.055776 -0.071222 0.901000 9399162
-0.056024 -0.066367 0.905000 9207939
-0.056333 -0.061533 0.910000 9729145
-0.054600 -0.129133 0.910000 14212082
-0.054480 -0.123661 0.908000 14012395
-0.054060 -0.117559 0.901000 14078701
-0.053760 -0.111787 0.896000 14210799
-0.053340 -0.105833 0.889000 14341869
-0.053040 -0.100187 0.884000 14341871
-0.052920 -0.094920 0.882000 14144495
-0.052680 -0.089472 0.878000 14079214
-0.052500 -0.084167 0.875000 10853817
-0.052800 -0.079619 0.880000 10128541
-0.053220 -0.075184 0.887000 9733778
-0.053880 -0.070985 0.898000 9667205
-0.054180 -0.066220 0.903000 9602184
-0.054600 -0.061533 0.910000 9788536
-0.055020 -0.056767 0.917000 10388096
-0.052867 -0.134333 0.910000 12695746
-0.052750 -0.128850 0.908000 14143727
-0.052576 -0.123252 0.905000 14012395
-0.052170 -0.117168 0.898000 14210285
-0.051937 -0.111537 0.894000 14406113
-0.051647 -0.105833 0.889000 14472940
-0.051356 -0.100187 0.884000 14341870
-0.051124 -0.094705 0.880000 14210031
-0.050833 -0.089167 0.875000 14078446
-0.050717 -0.083974 0.873000 11247565
-0.051008 -0.079438 0.878000 10259622
-0.051356 -0.074930 0.884000 10126999
-0.051937 -0.070669 0.894000 9927042
-0.052170 -0.065853 0.898000 10061965
-0.052867 -0.061533 0.910000 9794694
-0.053273 -0.056767 0.917000 10192009
-0.053564 -0.051808 0.922000 10125441
-0.051133 -0.134333 0.910000 13552072
-0.051021 -0.128850 0.908000 14012907
-0.050740 -0.122980 0.903000 14012395
-0.050459 -0.117168 0.898000 14144749
-0.050234 -0.111537 0.894000 13221844
-0.049953 -0.105833 0.889000 13946859
-0.049672 -0.100187 0.884000 14276077
-0.049448 -0.094705 0.880000 14210031
-0.049167 -0.089167 0.875000 14078958
-0.049054 -0.083974 0.873000 11511777
-0.049335 -0.079438 0.878000 10390702
-0.049672 -0.074930 0.884000 10129052
-0.050066 -0.070431 0.891000 8935295
-0.050459 -0.065853 0.898000 10192785
-0.051133 -0.061533 0.910000 9930131
-0.051527 -0.056767 0.917000 10192274
-0.051808 -0.051808 0.922000 10061188
-0.052257 -0.046943 0.930000 9993854
-0.049400 -0.134333 0.910000 14404562
-0.049291 -0.128850 0.908000 13947115
-0.048911 -0.122708 0.901000 14012395
-0.048749 -0.117168 0.898000 14079215
-0.048369 -0.111163 0.891000 11967169
-0.048260 -0.105833 0.889000 13423858
-0.047989 -0.100187 0.884000 14210798
-0.047771 -0.094705 0.880000 14144239
-0.047500 -0.089167 0.875000 14078959
-0.047391 -0.083974 0.873000 11710429
-0.047663 -0.079438 0.878000 10524087
-0.047989 -0.074930 0.884000 10129315
-0.048369 -0.070431 0.891000 7954809
-0.048749 -0.065853 0.898000 10324877
-0.049129 -0.061195 0.905000 10061971
-0.049671 -0.056643 0.915000 10192784
-0.050051 -0.051808 0.922000 9928317
-0.050486 -0.046943 0.930000 9863300
-0.047562 -0.134038 0.908000 14539996
-0.047562 -0.128850 0.908000 13946859
-0.047195 -0.122708 0.901000 14012139
-0.047038 -0.117168 0.898000 13816049
-0.046829 -0.111537 0.894000 12027566
-0.046462 -0.105595 0.887000 13619192
-0.046200 -0.099960 0.882000 14276591
-0.046095 -0.094705 0.880000 14144751
-0.045729 -0.088963 0.873000 14144496
-0.045729 -0.083974 0.873000 11974105
-0.045990 -0.079438 0.878000 10786751
-0.046200 -0.074760 0.882000 9338537
-0.046671 -0.070431 0.891000 8940915
-0.046933 -0.065707 0.896000 9995144
-0.047300 -0.061060 0.903000 10128019
-0.047667 -0.056333 0.910000 10193037
-0.048295 -0.051808 0.922000 9464438
-0.048714 -0.046943 0.930000 9863049
-0.049343 -0.042166 0.942000 9138553
-0.045832 -0.134038 0.908000 14603748
-0.045681 -0.128424 0.905000 14012395
-0.045479 -0.122708 0.901000 13947116
-0.045328 -0.117168 0.898000 13555931
-0.044974 -0.111163 0.891000 12032714
-0.044772 -0.105595 0.887000 13814231
-0.044520 -0.099960 0.882000 14276591
-0.044419 -0.094705 0.880000 14145007
-0.044066 -0.088963 0.873000 14210288
-0.044066 -0.083974 0.873000 12238043
-0.044167 -0.079167 0.875000 10984128
-0.044520 -0.074760 0.882000 8554677
-0.044873 -0.070273 0.889000 9856112
-0.045227 -0.065707 0.896000 9666160
-0.045580 -0.061060 0.903000 10192266
-0.045832 -0.056210 0.908000 10193283
-0.046287 -0.051527 0.917000 9011591
-0.046791 -0.046791 0.927000 9863056
-0.047296 -0.041942 0.937000 8681093
-0.044103 -0.134038 0.908000 14341100
-0.043957 -0.128424 0.905000 14012395
-0.043763 -0.122708 0.901000 14078445
-0.043617 -0.117168 0.898000 13350341
-0.043277 -0.111163 0.891000 11775463
-0.043083 -0.105595 0.887000 13475766
-0.042840 -0.099960 0.882000 14407663
-0.042646 -0.094490 0.878000 14145006
-0.042403 -0.088963 0.873000 14275824
-0.042403 -0.083974 0.873000 12434909
-0.042500 -0.079167 0.875000 11312322
-0.042743 -0.074590 0.880000 9801920
-0.043180 -0.070273 0.889000 9722989
-0.043520 -0.065707 0.896000 9461847
-0.043763 -0.060925 0.901000 10189698
-0.044103 -0.056210 0.908000 9862776
-0.044540 -0.051527 0.917000 9866392
-0.044929 -0.046690 0.925000 10126487
-0.045414 -0.041852 0.935000 9536146
-0.042373 -0.134038 0.908000 14013675
-0.042233 -0.128424 0.905000 14012139
-0.042047 -0.122708 0.901000 14210023
-0.041813 -0.116907 0.896000 13067685
-0.041580 -0.111163 0.891000 11442373
-0.041393 -0.105595 0.887000 13203638
-0.041160 -0.099960 0.882000 14474224
-0.040973 -0.094490 0.878000 14144750
-0.040740 -0.088963 0.873000 14341616
-0.040647 -0.083782 0.871000 12632543
-0.040833 -0.079167 0.875000 11642052
-0.041067 -0.074590 0.880000 10985153
-0.041487 -0.070273 0.889000 9592444
-0.041813 -0.065707 0.896000 9263722
-0.042047 -0.060925 0.901000 10193559
-0.042373 -0.056210 0.908000 9528725
-0.042700 -0.051414 0.915000 10719649
-0.043027 -0.046539 0.922000 10456221
-0.043400 -0.041629 0.930000 10324628
-0.040644 -0.134038 0.908000 13947115
-0.040510 -0.128424 0.905000 13946603
-0.040330 -0.122708 0.901000 14144994
-0.040107 -0.116907 0.896000 12286085
-0.039883 -0.111163 0.891000 11623587
-0.039704 -0.105595 0.887000 13015733
-0.039480 -0.099960 0.882000 14472945
-0.039301 -0.094490 0.878000 14144494
-0.039077 -0.088963 0.873000 14341617
-0.038988 -0.083782 0.871000 12829664
-0.039167 -0.079167 0.875000 11971014
-0.039390 -0.074590 0.880000 11510722
-0.039793 -0.070273 0.889000 9720972
-0.040017 -0.065560 0.894000 9661309
-0.040330 -0.060925 0.901000 10723500
-0.040420 -0.055900 0.903000 10256305
-0.040957 -0.051414 0.915000 10852010
-0.041181 -0.046438 0.920000 10653858
-0.041494 -0.041494 0.927000 10194583
-0.041942 -0.036588 0.937000 9994380
-0.038914 -0.134038 0.908000 13882092
-0.038700 -0.128140 0.903000 13946347
-0.038614 -0.122708 0.901000 14077156
-0.038400 -0.116907 0.896000 11502235
-0.038100 -0.110913 0.889000 11829940
-0.037886 -0.105238 0.884000 12823747
-0.037714 -0.099733 0.880000 14473201
-0.037629 -0.094490 0.878000 14078702
-0.037414 -0.088963 0.873000 14342128
-0.037329 -0.083782 0.871000 13027810
-0.037414 -0.078986 0.873000 12234448
-0.037714 -0.074590 0.880000 11969480
-0.037886 -0.069878 0.884000 9788557
-0.038314 -0.065560 0.894000 10122878
-0.038486 -0.060722 0.898000 11242394
-0.038700 -0.055900 0.903000 10983610
-0.039129 -0.051302 0.913000 10918319
-0.039429 -0.046438 0.920000 10850986
-0.039729 -0.041494 0.927000 9992584
-0.037185 -0.134038 0.908000 13947116
-0.036980 -0.128140 0.903000 14012395
-0.036898 -0.122708 0.901000 14012135
-0.036693 -0.116907 0.896000 11768240
-0.036407 -0.110913 0.889000 12295109
-0.036202 -0.105238 0.884000 12563665
-0.036038 -0.099733 0.880000 14407410
-0.035833 -0.094167 0.875000 14078701
-0.035751 -0.088963 0.873000 14605551
-0.035670 -0.083782 0.871000 13092067
-0.035751 -0.078986 0.873000 12498651
-0.036038 -0.074590 0.880000 12167374
-0.036202 -0.069878 0.884000 10113166
-0.036489 -0.065340 0.891000 9792382
-0.036775 -0.060722 0.898000 11303305
-0.036980 -0.055900 0.903000 11378882
-0.037390 -0.051302 0.913000 11247284
-0.037676 -0.046438 0.920000 11114162
-0.037963 -0.041494 0.927000 9257594
-0.038168 -0.036392 0.932000 10456995
-0.035455 -0.134038 0.908000 13947630
-0.035338 -0.128424 0.905000 14077931
-0.035065 -0.122299 0.898000 13877721
-0.034909 -0.116646 0.894000 11961775
-0.034713 -0.110913 0.889000 12686514
-0.034518 -0.105238 0.884000 12366027
-0.034362 -0.099733 0.880000 14276593
-0.034167 -0.094167 0.875000 14144238
-0.034089 -0.088963 0.873000 14802414
-0.034010 -0.083782 0.871000 13223653
-0.034089 -0.078986 0.873000 12695518
-0.034362 -0.074590 0.880000 12364249
-0.034518 -0.069878 0.884000 10450345
-0.034791 -0.065340 0.891000 9399165
-0.035065 -0.060722 0.898000 11375269
-0.035260 -0.055900 0.903000 11839941
-0.035533 -0.051133 0.910000 11575993
-0.035807 -0.046287 0.917000 11377840
-0.036119 -0.041405 0.925000 8480397
-0.036392 -0.036392 0.932000 10787241
-0.033726 -0.139227 0.908000 13352899
-0.033726 -0.134038 0.908000 13947119
-0.033540 -0.128140 0.903000 14078187
-0.033354 -0.122299 0.898000 12168650
-0.033206 -0.116646 0.894000 12224685
-0.033020 -0.110913 0.889000 12286112
-0.032760 -0.105000 0.882000 12630725
-0.032686 -0.099733 0.880000 14276080
-0.032500 -0.094167 0.875000 14013166
-0.032351 -0.088759 0.871000 15131886
-0.032351 -0.083782 0.871000 13355239
-0.032426 -0.078986 0.873000 12957409
-0.032686 -0.074590 0.880000 12496867
-0.032834 -0.069878 0.884000 11047364
-0.033094 -0.065340 0.891000 9464188
-0.033354 -0.060722 0.898000 12301761
-0.033540 -0.055900 0.903000 12037831
-0.033800 -0.051133 0.910000 11643327
-0.034060 -0.046287 0.917000 11181998
-0.034357 -0.041405 0.925000 9658529
-0.034543 -0.036314 0.930000 11049135
-0.031996 -0.139227 0.908000 13354182
-0.031890 -0.133595 0.905000 13947117
-0.031750 -0.127856 0.901000 14143211
-0.031644 -0.122299 0.898000 10395601
-0.031397 -0.116254 0.891000 12492734
-0.031256 -0.110664 0.887000 11895480
-0.031080 -0.105000 0.882000 12901339
-0.031010 -0.099733 0.880000 14210543
-0.030833 -0.094167 0.875000 13882094
-0.030763 -0.088963 0.873000 15392751
-0.030763 -0.083974 0.873000 13487333
-0.030763 -0.078986 0.873000 13222881
-0.031010 -0.074590 0.880000 12696804
-0.031150 -0.069878 0.884000 11577545
-0.031397 -0.065340 0.891000 9592719
-0.031573 -0.060587 0.896000 13219788
-0.031750 -0.055776 0.901000 12300494
-0.032067 -0.051133 0.910000 11703489
-0.032313 -0.046287 0.917000 10986672
-0.032595 -0.041405 0.925000 10850998
-0.032771 -0.036314 0.930000 11311285
-0.030267 -0.139227 0.908000 13418952
-0.030167 -0.133595 0.905000 14012395
-0.030033 -0.127856 0.901000 14077931
-0.029867 -0.122027 0.896000 10986712
-0.029700 -0.116254 0.891000 12357327
-0.029633 -0.110913 0.889000 13215952
-0.029400 -0.105000 0.882000 13686256
-0.029333 -0.099733 0.880000 14341358
-0.029100 -0.093951 0.873000 14078958
-0.029033 -0.088759 0.871000 15197425
-0.029100 -0.083974 0.873000 13618147
-0.029100 -0.078986 0.873000 13290209
-0.029400 -0.074760 0.882000 13026532
-0.029467 -0.069878 0.884000 11578319
-0.029633 -0.065193 0.889000 10258594
-0.029867 -0.060587 0.896000 12039638
-0.030033 -0.055776 0.901000 12563925
-0.030267 -0.051021 0.908000 11301828
-0.030433 -0.046085 0.913000 10786737
-0.030733 -0.041270 0.922000 11578316
-0.030900 -0.036197 0.927000 11510458
-0.028537 -0.139227 0.908000 13419720
-0.028443 -0.133595 0.905000 14078443
-0.028317 -0.127856 0.901000 14077673
-0.028160 -0.122027 0.896000 11505870
-0.028003 -0.116254 0.891000 12220364
-0.027877 -0.110664 0.887000 14535393
-0.027720 -0.105000 0.882000 14473455
-0.027594 -0.099507 0.878000 14472942
-0.027437 -0.093951 0.873000 14276075
-0.027437 -0.088963 0.873000 14934000
-0.027437 -0.083974 0.873000 13749481
-0.027437 -0.078986 0.873000 13354724
-0.027657 -0.074590 0.880000 13420006
-0.027783 -0.069878 0.884000 11578063
-0.027940 -0.065193 0.889000 10926024
-0.028160 -0.060587 0.896000 10788809
-0.028317 -0.055776 0.901000 12762072
-0.028537 -0.051021 0.908000 10850245
-0.028694 -0.046085 0.913000 10653117
-0.028914 -0.041181 0.920000 12234444
-0.029134 -0.036197 0.927000 11708611
-0.026808 -0.139227 0.908000 13418696
-0.026719 -0.133595 0.905000 14078187
-0.026601 -0.127856 0.901000 14012647
-0.026453 -0.122027 0.896000 11628227
-0.026306 -0.116254 0.891000 12687048
-0.026188 -0.110664 0.887000 14540274
-0.026040 -0.105000 0.882000 14342126
-0.025922 -0.099507 0.878000 14407406
-0.025774 -0.093951 0.873000 14406887
-0.025715 -0.088759 0.871000 14803184
-0.025774 -0.083974 0.873000 13815023
-0.025774 -0.078986 0.873000 13484007
-0.026040 -0.074760 0.882000 13288935
-0.026099 -0.069878 0.884000 12036304
-0.026306 -0.065340 0.891000 12239086
-0.026453 -0.060587 0.896000 10192573
-0.026601 -0.055776 0.901000 12893402
-0.026808 -0.051021 0.908000 11702214
-0.026955 -0.046085 0.913000 11642056
-0.027162 -0.041181 0.920000 12104652
-0.027369 -0.036197 0.927000 11707339
-0.024940 -0.138460 0.903000 13418692
-0.024995 -0.133595 0.905000 14012652
-0.024885 -0.127856 0.901000 14012652
-0.024747 -0.122027 0.896000 11776219
-0.024609 -0.116254 0.891000 13156574
-0.024498 -0.110664 0.887000 14474481
-0.024305 -0.104762 0.880000 14210543
-0.024250 -0.099507 0.878000 14342127
-0.024056 -0.093736 0.871000 14536425
-0.024056 -0.088759 0.871000 14606064
-0.024056 -0.083782 0.871000 13880048
-0.024111 -0.078986 0.873000 13551849
-0.024360 -0.074760 0.882000 13225193
-0.024415 -0.069878 0.884000 12499415
-0.024609 -0.065340 0.891000 13487597
-0.024747 -0.060587 0.896000 9600965
-0.024885 -0.055776 0.901000 13028570
-0.025078 -0.051021 0.908000 12563156
-0.025216 -0.046085 0.913000 12700120
-0.025410 -0.041181 0.920000 11967399
-0.025603 -0.036197 0.927000 11711184
-0.023220 -0.138460 0.903000 13352384
-0.023220 -0.133300 0.903000 13946860
-0.023169 -0.127856 0.901000 14012912
-0.023040 -0.122027 0.896000 13096690
-0.022911 -0.116254 0.891000 13751284
-0.022809 -0.110664 0.887000 14341617
-0.022629 -0.104762 0.880000 14276079
-0.022500 -0.099167 0.875000 14342383
-0.022397 -0.093736 0.871000 14538474
-0.022346 -0.088555 0.869000 14604529
-0.022397 -0.083782 0.871000 13946608
-0.022500 -0.079167 0.875000 13683691
-0.022680 -0.074760 0.882000 13289451
-0.022731 -0.069878 0.884000 13025758
-0.022911 -0.065340 0.891000 13749739
-0.023091 -0.060722 0.898000 10971854
-0.023169 -0.055776 0.901000 13157594
-0.023349 -0.051021 0.908000 13091555
-0.023477 -0.046085 0.913000 12960999
-0.023657 -0.041181 0.920000 11819138
-0.023837 -0.036197 0.927000 12169684
-0.021452 -0.138153 0.901000 13287606
-0.021452 -0.133005 0.901000 13881579
-0.021333 -0.127147 0.896000 14078446
-0.021286 -0.121754 0.894000 14406638
-0.021167 -0.115993 0.889000 14342385
-0.021048 -0.110290 0.884000 14144751
-0.020905 -0.104524 0.878000 14276079
-0.020833 -0.099167 0.875000 14341611
-0.020690 -0.093521 0.869000 14604272
-0.020690 -0.088555 0.869000 14605552
-0.020738 -0.083782 0.871000 14079472
-0.020833 -0.079167 0.875000 13749228
-0.020952 -0.074590 0.880000 13421802
-0.021048 -0.069878 0.884000 13486052
-0.021214 -0.065340 0.891000 14012397
-0.021333 -0.060587 0.896000 12365281
-0.021381 -0.055590 0.898000 13290467
-0.021548 -0.050852 0.905000 13616868
-0.021667 -0.045933 0.910000 13222630
-0.021786 -0.040957 0.915000 11633807
-0.021952 -0.036002 0.922000 12631263
-0.019736 -0.138153 0.901000 13219755
-0.019736 -0.133005 0.901000 13881323
-0.019627 -0.127147 0.896000 14078444
-0.019517 -0.121346 0.891000 14209003
-0.019473 -0.115993 0.889000 14276078
-0.019364 -0.110290 0.884000 14144750
-0.019232 -0.104524 0.878000 14210543
-0.019123 -0.098940 0.873000 14079207
-0.019035 -0.093521 0.869000 15001077
-0.019035 -0.088555 0.869000 14604783
-0.019079 -0.083782 0.871000 14144495
-0.019167 -0.079167 0.875000 14012398
-0.019276 -0.074590 0.880000 13487336
-0.019364 -0.069878 0.884000 14012907
-0.019473 -0.065193 0.889000 14144239
-0.019627 -0.060587 0.896000 13356019
-0.019670 -0.055590 0.898000 13684459
-0.019824 -0.050852 0.905000 13814245
-0.019933 -0.045933 0.910000 13486309
-0.020087 -0.041047 0.917000 11758492
-0.020196 -0.036002 0.922000 12961257
-0.018020 -0.133005 0.901000 13881577
-0.017880 -0.126863 0.894000 14143979
-0.017820 -0.121346 0.891000 14012651
-0.017780 -0.115993 0.889000 14210286
-0.017640 -0.110040 0.882000 14144750
-0.017560 -0.104524 0.878000 14210542
-0.017460 -0.098940 0.873000 13749993
-0.017380 -0.093521 0.869000 15334904
-0.017380 -0.088555 0.869000 14605038
-0.017460 -0.083974 0.873000 14276079
-0.017500 -0.079167 0.875000 14209775
-0.017600 -0.074590 0.880000 13553643
-0.017680 -0.069878 0.884000 14537197
-0.017820 -0.065340 0.891000 14275824
-0.017920 -0.060587 0.896000 14341105
-0.018020 -0.055776 0.901000 14143469
-0.018160 -0.051021 0.908000 13946860
-0.018260 -0.046085 0.913000 13814741
-0.018340 -0.041047 0.917000 11904968
-0.018500 -0.036119 0.925000 13358563
-0.016304 -0.133005 0.901000 13946600
-0.016177 -0.126863 0.894000 14078442
-0.016123 -0.121346 0.891000 14012907
-0.016087 -0.115993 0.889000 14144494
-0.015924 -0.109790 0.880000 14144495
-0.015833 -0.104167 0.875000 14144749
-0.015761 -0.098713 0.871000 14140652
-0.015725 -0.093521 0.869000 15396858
-0.015725 -0.088555 0.869000 14670830
-0.015797 -0.083974 0.873000 14473199
-0.015888 -0.079438 0.878000 14473200
-0.015960 -0.074760 0.882000 13880814
-0.016050 -0.070115 0.887000 14538736
-0.016177 -0.065560 0.894000 14341616
-0.016250 -0.060722 0.898000 14341359
-0.016304 -0.055776 0.901000 14209519
-0.016430 -0.051021 0.908000 13882610
-0.016521 -0.046085 0.913000 13414852
-0.016557 -0.040957 0.915000 13094387
-0.016684 -0.036002 0.922000 12761564
-0.014539 -0.132562 0.898000 13947106
-0.014426 -0.126437 0.891000 13947370
-0.014393 -0.121073 0.889000 13947372
-0.014361 -0.115732 0.887000 14078702
-0.014280 -0.110040 0.882000 14144494
-0.014167 -0.104167 0.875000 14079466
-0.014102 -0.098713 0.871000 14475761
-0.014070 -0.093521 0.869000 15460853
-0.014070 -0.088555 0.869000 14737135
-0.014167 -0.084167 0.875000 14671345
-0.014215 -0.079438 0.878000 14670321
-0.014280 -0.074760 0.882000 14142191
-0.014393 -0.070273 0.889000 14538994
-0.014474 -0.065560 0.894000 14472688
-0.014539 -0.060722 0.898000 14276337
-0.014588 -0.055776 0.901000 14276080
-0.014701 -0.051021 0.908000 13810145
-0.014782 -0.046085 0.913000 13083325
-0.014814 -0.040957 0.915000 14275058
-0.014928 -0.036002 0.922000 12165827
-0.012800 -0.132267 0.896000 13881053
-0.012729 -0.126437 0.891000 13881833
-0.012700 -0.121073 0.889000 14078702
-0.012671 -0.115732 0.887000 14144494
-0.012571 -0.109790 0.880000 14078702
-0.012500 -0.104167 0.875000 14143462
-0.012443 -0.098713 0.871000 15333622
-0.012443 -0.093736 0.871000 15197423
-0.012443 -0.088759 0.871000 14802672
-0.012500 -0.084167 0.875000 14802931
-0.012571 -0.079619 0.880000 14671346
-0.012629 -0.074930 0.884000 14275567
-0.012700 -0.070273 0.889000 14670580
-0.012771 -0.065560 0.894000 14670064
-0.012829 -0.060722 0.898000 14473971
-0.012929 -0.056024 0.905000 14473200
-0.012971 -0.051021 0.908000 13214672
-0.013071 -0.046186 0.915000 13217206
-0.013100 -0.041047 0.917000 14340849
-0.013214 -0.036119 0.925000 12097961
-0.011093 -0.132267 0.896000 13814479
-0.011031 -0.126437 0.891000 13881320
-0.011007 -0.121073 0.889000 14144234
-0.010945 -0.115341 0.884000 14144492
-0.010895 -0.109790 0.880000 13946343
-0.010833 -0.104167 0.875000 14207214
-0.010784 -0.098713 0.871000 16117492
-0.010759 -0.093521 0.869000 14999790
-0.010784 -0.088759 0.871000 14801902
-0.010870 -0.084455 0.878000 14999793
-0.010920 -0.079800 0.882000 14670320
-0.010982 -0.075184 0.887000 14406130
-0.011007 -0.070273 0.889000 14736096
-0.011093 -0.065707 0.896000 14867186
-0.011118 -0.060722 0.898000 14668523
-0.011205 -0.056024 0.905000 14735857
-0.011304 -0.051302 0.913000 12562908
-0.011329 -0.046186 0.915000 13420246
-0.011353 -0.041047 0.917000 14406897
-0.011452 -0.036119 0.925000 12093640
-0.009334 -0.126437 0.891000 13617639
-0.009313 -0.121073 0.889000 13947366
-0.009261 -0.115341 0.884000 13815530
-0.009219 -0.109790 0.880000 13746145
-0.009167 -0.104167 0.875000 15001077
-0.009125 -0.098713 0.871000 15459059
-0.009125 -0.093736 0.871000 14801388
-0.009125 -0.088759 0.871000 14735853
-0.009198 -0.084455 0.878000 14933743
-0.009240 -0.079800 0.882000 14011885
-0.009313 -0.075353 0.889000 13614324
-0.009334 -0.070431 0.891000 14866380
-0.009387 -0.065707 0.896000 14409203
-0.009460 -0.061060 0.903000 13479140
-0.009481 -0.056024 0.905000 14802162
-0.009565 -0.051302 0.913000 13419752
-0.009586 -0.046186 0.915000 14078966
-0.009607 -0.041047 0.917000 14407153
-0.009690 -0.036119 0.925000 13285351
-0.007620 -0.126153 0.889000 13421038
-0.007603 -0.120801 0.887000 13749225
-0.007577 -0.115341 0.884000 13421802
-0.007543 -0.109790 0.880000 13554925
-0.007500 -0.104167 0.875000 15793910
-0.007483 -0.098940 0.873000 14737136
-0.007483 -0.093951 0.873000 14604014
-0.007483 -0.088963 0.873000 14604782
-0.007543 -0.084648 0.880000 14867442
-0.007577 -0.079981 0.884000 13355241
-0.007620 -0.075353 0.889000 12894194
-0.007663 -0.070669 0.894000 14997710
-0.007680 -0.065707 0.896000 14018548
-0.007740 -0.061060 0.903000 12231911
-0.007783 -0.056210 0.908000 14868722
-0.007826 -0.051302 0.913000 14210028
-0.007860 -0.046287 0.917000 14802419
-0.007886 -0.041181 0.920000 14407152
-0.007929 -0.036119 0.925000 14471659
-0.005927 -0.126153 0.889000 13947893
-0.005913 -0.120801 0.887000 14142701
-0.005880 -0.115080 0.882000 14276585
-0.005853 -0.109541 0.878000 15138554
-0.005833 -0.104167 0.875000 15330551
-0.005820 -0.098940 0.873000 14538733
-0.005833 -0.094167 0.875000 14538223
-0.005853 -0.089472 0.878000 14604783
-0.005880 -0.084840 0.882000 14671604
-0.005913 -0.080252 0.887000 13612517
-0.005940 -0.075523 0.891000 13220336
-0.005960 -0.070669 0.894000 15065808
-0.005987 -0.065853 0.898000 13818869
-0.006033 -0.061195 0.905000 13541610
-0.006053 -0.056210 0.908000 14934001
-0.006100 -0.051414 0.915000 14539760
-0.006113 -0.046287 0.917000 14736880
-0.006133 -0.041181 0.920000 14537966
-0.004233 -0.126153 0.889000 14537684
-0.004224 -0.120801 0.887000 14539757
-0.004200 -0.115080 0.882000 15067633
-0.004190 -0.109790 0.880000 16643575
-0.004167 -0.104167 0.875000 14867187
-0.004167 -0.099167 0.875000 14341358
-0.004167 -0.094167 0.875000 14472434
-0.004190 -0.089676 0.880000 14605555
-0.004210 -0.085032 0.884000 14477292
-0.004233 -0.080433 0.889000 13879017
-0.004243 -0.075523 0.891000 13620467
-0.004267 -0.070827 0.896000 15129825
-0.004276 -0.065853 0.898000 13623539
-0.004310 -0.061195 0.905000 14859503
-0.004324 -0.056210 0.908000 15064818
-0.004357 -0.051414 0.915000 14867952
-0.004367 -0.046287 0.917000 14736884
-0.004390 -0.041270 0.922000 14604784
-0.002540 -0.126153 0.889000 13613234
-0.002520 -0.120120 0.882000 14409709
-0.002514 -0.114819 0.880000 15000825
-0.002514 -0.109790 0.880000 15591925
-0.002509 -0.104524 0.878000 14604783
-0.002509 -0.099507 0.878000 14274287
-0.002514 -0.094705 0.880000 14539253
-0.002526 -0.090084 0.884000 14607096
-0.002534 -0.085321 0.887000 14074596
-0.002540 -0.080433 0.889000 14409197
-0.002546 -0.075523 0.891000 14541557
-0.002566 -0.070985 0.898000 14999795
-0.002580 -0.066220 0.903000 14342897
-0.002594 -0.061398 0.908000 15067381
-0.002600 -0.056333 0.910000 14999795
-0.002614 -0.051414 0.915000 14933745
-0.002629 -0.046438 0.920000 14671863
-0.002634 -0.041270 0.922000 14802931
-0.000840 -0.120120 0.882000 14205897
-0.000836 -0.114558 0.878000 14933730
-0.000838 -0.109790 0.880000 14471652
-0.000836 -0.104524 0.878000 14342892
-0.000836 -0.099507 0.878000 14210539
-0.000840 -0.094920 0.882000 14671587
-0.000845 -0.090390 0.887000 14599642
-0.000849 -0.085706 0.891000 13668812
-0.000849 -0.080614 0.891000 14932976
-0.000853 -0.075947 0.896000 15460081
-0.000855 -0.070985 0.898000 14802929
-0.000862 -0.066367 0.905000 15064561
-0.000865 -0.061398 0.908000 15195885
-0.000867 -0.056333 0.910000 14933215
-0.000871 -0.051414 0.915000 14934000
-0.000876 -0.046438 0.920000 14604783
-0.000881 -0.041405 0.925000 14933225
0.000836 -0.114558 0.878000 13612746
0.000838 -0.109790 0.880000 13480403
0.000836 -0.104524 0.878000 13748712
0.000838 -0.099733 0.880000 13884904
0.000845 -0.095458 0.887000 13611473
0.000851 -0.091103 0.894000 12485053
0.000851 -0.085994 0.894000 13083315
0.000853 -0.081067 0.896000 15000820
0.000855 -0.076116 0.898000 14143469
0.000860 -0.071380 0.903000 14802672
0.000862 -0.066367 0.905000 14933488
0.000865 -0.061398 0.908000 14076646
0.000867 -0.056333 0.910000 14206923
0.000873 -0.051527 0.917000 15065072
0.000878 -0.046539 0.922000 13743334
0.000881 -0.041405 0.925000 15261920
0.002509 -0.104524 0.878000 13152965
0.002520 -0.099960 0.882000 13480133
0.002540 -0.095673 0.889000 12550590
0.002560 -0.091307 0.896000 10326973
0.002560 -0.086187 0.896000 12563398
0.002566 -0.081248 0.898000 14999537
0.002574 -0.076370 0.901000 12884708
0.002586 -0.071538 0.905000 14801131
0.002594 -0.066587 0.908000 14867440
0.002600 -0.061533 0.910000 12960483
0.002614 -0.056643 0.915000 13552610
0.002629 -0.051695 0.920000 15130354
0.002634 -0.046539 0.922000 12965356
0.002649 -0.041494 0.927000 15591146
0.004200 -0.099960 0.882000 12882594
0.004267 -0.096427 0.896000 12423338
0.004276 -0.091510 0.898000 11640766
0.004290 -0.086668 0.901000 13551320
0.004300 -0.081700 0.903000 14801646
0.004310 -0.076710 0.905000 13216219
0.004310 -0.071538 0.905000 14737125
0.004324 -0.066587 0.908000 14801647
0.004348 -0.061736 0.913000 13415393
0.004367 -0.056767 0.917000 14277368
0.004381 -0.051695 0.920000 15130355
0.004405 -0.046690 0.925000 13886194
0.005973 -0.096427 0.896000 12361130
0.005987 -0.091510 0.898000 12953270
0.006020 -0.086860 0.903000 14473684
0.006033 -0.081881 0.905000 14536684
0.006033 -0.076710 0.905000 13548001
0.006053 -0.071775 0.908000 14670572
0.006067 -0.066733 0.910000 14735601
0.006100 -0.061871 0.915000 13878756
0.006133 -0.056952 0.920000 15066092
0.006147 -0.051808 0.922000 15131123
0.006180 -0.046791 0.927000 14867423
0.007680 -0.096427 0.896000 12492714
0.007697 -0.091510 0.898000 12689837
0.007757 -0.087052 0.905000 13615056
0.007757 -0.081881 0.905000 14011882
0.007783 -0.076964 0.908000 13549287
0.007783 -0.071775 0.908000 14603507
0.007843 -0.067100 0.915000 14604786
0.007860 -0.062007 0.917000 13548776
0.007903 -0.057076 0.922000 14405599
0.007929 -0.051976 0.925000 15065076
0.007971 -0.046943 0.930000 13875660
0.009512 -0.087341 0.908000 12758201
0.009512 -0.082152 0.908000 13416647
0.009512 -0.076964 0.908000 13611209
0.009533 -0.071933 0.910000 14471651
0.009607 -0.067247 0.917000 14473451
0.009638 -0.062210 0.920000 13155557
0.009711 -0.057386 0.927000 13811945
0.009743 -0.052257 0.930000 14933491
0.011242 -0.087341 0.908000 12689570
0.011242 -0.082152 0.908000 12885668
0.011242 -0.076964 0.908000 13019563
0.011329 -0.072329 0.915000 13682643
0.011452 -0.067833 0.925000 14142435
0.011390 -0.062210 0.920000 13615586
0.011514 -0.057571 0.930000 13945843
0.011539 -0.052370 0.932000 14933235
0.013071 -0.072329 0.915000 12823479
0.013214 -0.067833 0.925000 13810372
0.013314 -0.063021 0.932000 14075859
0.013314 -0.057695 0.932000 14140886
0.014976 -0.067833 0.925000 13214885
0.015138 -0.063224 0.935000 13480901
0.016919 -0.063224 0.935000 12889276
-0.074986 -0.116357 0.905000 12821928
-0.073262 -0.121529 0.905000 12821668
-0.073262 -0.116357 0.905000 12755881
-0.072938 -0.110694 0.901000 12229555
-0.071775 -0.121931 0.908000 12690088
-0.071538 -0.116357 0.905000 12361131
-0.071222 -0.110694 0.901000 12560833
-0.070431 -0.104374 0.891000 12295371
-0.070431 -0.099283 0.891000 11574434
-0.070431 -0.094191 0.891000 11239583
-0.070046 -0.121931 0.908000 12492707
-0.069660 -0.116100 0.903000 11973066
-0.069506 -0.110694 0.901000 12831196
-0.068734 -0.104374 0.891000 12436705
-0.068580 -0.099060 0.889000 10922186
-0.068580 -0.093980 0.889000 10126508
-0.068734 -0.089100 0.891000 11372924
-0.068316 -0.121931 0.908000 12755102
-0.067940 -0.116100 0.903000 13555432
-0.067413 -0.110080 0.896000 13753591
-0.067037 -0.104374 0.891000 13690103
-0.066887 -0.099060 0.889000 12501745
-0.066887 -0.093980 0.889000 10259898
-0.066887 -0.088900 0.889000 10384992
-0.066887 -0.083820 0.889000 12294547
-0.066587 -0.127120 0.908000 12689317
-0.066587 -0.121931 0.908000 13019082
-0.066073 -0.115843 0.901000 15064556
-0.065707 -0.110080 0.896000 14671603
-0.065340 -0.104374 0.891000 14867699
-0.065193 -0.099060 0.889000 14146802
-0.065047 -0.093769 0.887000 10333133
-0.065047 -0.088700 0.887000 9467781
-0.065193 -0.083820 0.889000 12028558
-0.065340 -0.078917 0.891000 11703947
-0.065000 -0.127400 0.910000 12622502
-0.064857 -0.121931 0.908000 13750261
-0.064357 -0.115843 0.901000 14537713
-0.064000 -0.110080 0.896000 14407406
-0.063643 -0.104374 0.891000 14538223
-0.063500 -0.099060 0.889000 14211314
-0.063357 -0.093769 0.887000 12042720
-0.063357 -0.088700 0.887000 9668009
-0.063500 -0.083820 0.889000 10713225
-0.063643 -0.078917 0.891000 11111817
-0.064000 -0.074240 0.896000 11439750
-0.063267 -0.127400 0.910000 12562873
-0.063128 -0.121931 0.908000 14478320
-0.062641 -0.115843 0.901000 13947117
-0.062293 -0.110080 0.896000 14144237
-0.061807 -0.104140 0.889000 14144751
-0.061668 -0.098837 0.887000 14341361
-0.061320 -0.093240 0.882000 13748970
-0.061459 -0.088400 0.884000 9866935
-0.061807 -0.083820 0.889000 9336970
-0.061946 -0.078917 0.891000 10585995
-0.062293 -0.074240 0.896000 11438724
-0.061533 -0.127400 0.910000 13486797
-0.061398 -0.121931 0.908000 14211307
-0.060925 -0.115843 0.901000 14012650
-0.060587 -0.110080 0.896000 14209772
-0.060113 -0.104140 0.889000 14144495
-0.059775 -0.098503 0.884000 14341359
-0.059640 -0.093240 0.882000 14146292
-0.059640 -0.088200 0.882000 10590917
-0.059978 -0.083631 0.887000 9205898
-0.060113 -0.078740 0.889000 10125196
-0.060451 -0.074074 0.894000 10451841
-0.061060 -0.069660 0.903000 10848137
-0.059800 -0.127400 0.910000 14339551
-0.059669 -0.121931 0.908000 13946603
-0.059209 -0.115843 0.901000 14012652
-0.058880 -0.110080 0.896000 14275565
-0.058420 -0.104140 0.889000 14079215
-0.058091 -0.098503 0.884000 14341615
-0.057960 -0.093240 0.882000 14538482
-0.057960 -0.088200 0.882000 11380944
-0.058091 -0.083349 0.884000 9011352
-0.058420 -0.078740 0.889000 9666451
-0.058749 -0.074074 0.894000 9468033
-0.059340 -0.069660 0.903000 10388342
-0.059669 -0.064857 0.908000 11175549
-0.058258 -0.133037 0.913000 12952987
-0.058067 -0.127400 0.910000 14276338
-0.057748 -0.121529 0.905000 14012650
-0.057301 -0.115457 0.898000 14012653
-0.057046 -0.109834 0.894000 14209774
-0.056727 -0.104140 0.889000 14210542
-0.056408 -0.098503 0.884000 14276078
-0.056152 -0.093029 0.880000 14275824
-0.056025 -0.087800 0.878000 11907547
-0.056152 -0.082971 0.880000 9404839
-0.056599 -0.078563 0.887000 9733017
-0.057046 -0.074074 0.894000 9205377
-0.057492 -0.069506 0.901000 9923938
-0.057939 -0.064857 0.908000 10123902
-0.056519 -0.133037 0.913000 13280185
-0.056333 -0.127400 0.910000 14145776
-0.056024 -0.121529 0.905000 14012651
-0.055590 -0.115457 0.898000 14012909
-0.055343 -0.109834 0.894000 14078448
-0.055033 -0.104140 0.889000 14276078
-0.054600 -0.098280 0.882000 14275823
-0.054476 -0.093029 0.880000 14013423
-0.054352 -0.087800 0.878000 12498406
-0.054352 -0.082783 0.878000 9800360
-0.054724 -0.078297 0.884000 9800093
-0.055157 -0.073826 0.891000 8945031
-0.055776 -0.069506 0.901000 9396338
-0.056210 -0.064857 0.908000 9010307
-0.056519 -0.059997 0.913000 10190959
-0.054780 -0.133037 0.913000 13418199
-0.054480 -0.127120 0.908000 14012654
-0.054180 -0.121260 0.903000 14078188
-0.053880 -0.115457 0.898000 14078701
-0.053460 -0.109466 0.891000 14276337
-0.053340 -0.104140 0.889000 14407150
-0.053040 -0.098503 0.884000 14276079
-0.052800 -0.093029 0.880000 14078701
-0.052500 -0.087500 0.875000 12894961
-0.052680 -0.082783 0.878000 9996457
-0.052920 -0.078120 0.882000 9997217
-0.053340 -0.073660 0.889000 9536653
-0.053880 -0.069274 0.898000 9730690
-0.054480 -0.064857 0.908000 9471113
-0.054780 -0.059997 0.913000 10056039
-0.055200 -0.055200 0.920000 10387839
-0.052867 -0.132600 0.910000 13557988
-0.052750 -0.127120 0.908000 13881580
-0.052460 -0.121260 0.903000 14143724
-0.052053 -0.115200 0.896000 14145007
-0.051763 -0.109466 0.891000 14473682
-0.051647 -0.104140 0.889000 14473197
-0.051240 -0.098280 0.882000 14341615
-0.051008 -0.092817 0.878000 14078701
-0.050833 -0.087500 0.875000 13225968
-0.050833 -0.082500 0.875000 10129847
-0.051124 -0.077943 0.880000 10260907
-0.051647 -0.073660 0.889000 10062482
-0.052053 -0.069120 0.896000 10059894
-0.052576 -0.064643 0.905000 9930382
-0.053041 -0.059997 0.913000 9988221
-0.053448 -0.055200 0.920000 10191751
-0.053738 -0.050214 0.925000 10190205
-0.051133 -0.132600 0.910000 13882865
-0.051021 -0.127120 0.908000 13881579
-0.050628 -0.120991 0.901000 14077931
-0.050347 -0.115200 0.896000 14145265
-0.050066 -0.109466 0.891000 13347763
-0.049841 -0.103906 0.887000 14473707
-0.049560 -0.098280 0.882000 14276078
-0.049335 -0.092817 0.878000 14078702
-0.049054 -0.087300 0.873000 13290479
-0.049167 -0.082500 0.875000 10458564
-0.049448 -0.077943 0.880000 10392245
-0.049841 -0.073494 0.887000 9933464
-0.050234 -0.068966 0.894000 9595498
-0.050628 -0.064357 0.901000 10127251
-0.051302 -0.059997 0.913000 10059666
-0.051527 -0.055020 0.917000 10192270
-0.051976 -0.050214 0.925000 10060158
-0.049400 -0.132600 0.910000 14211310
-0.049129 -0.126700 0.905000 13881579
-0.048911 -0.120991 0.901000 14011883
-0.048640 -0.115200 0.896000 14142694
-0.048369 -0.109466 0.891000 12212901
-0.048151 -0.103906 0.887000 14407407
-0.047880 -0.098280 0.882000 14210543
-0.047771 -0.093029 0.880000 14078958
-0.047391 -0.087300 0.873000 13357552
-0.047391 -0.082311 0.873000 10789320
-0.047771 -0.077943 0.880000 10525882
-0.047989 -0.073246 0.884000 9729426
-0.048531 -0.068966 0.894000 9129840
-0.048911 -0.064357 0.901000 10324882
-0.049291 -0.059669 0.908000 10127503
-0.049780 -0.055020 0.917000 10192784
-0.050214 -0.050214 0.925000 9928809
-0.050594 -0.045269 0.932000 9862524
-0.047562 -0.132309 0.908000 14210539
-0.047300 -0.126420 0.903000 13946859
-0.047195 -0.120991 0.901000 14078187
-0.046933 -0.115200 0.896000 13549787
-0.046671 -0.109466 0.891000 12553622
-0.046462 -0.103906 0.887000 14145011
-0.046200 -0.098280 0.882000 14210800
-0.045833 -0.092500 0.875000 14144751
-0.045729 -0.087300 0.873000 13487857
-0.045729 -0.082311 0.873000 11119821
-0.045990 -0.077766 0.878000 10853566
-0.046305 -0.073246 0.884000 7683980
-0.046829 -0.068966 0.894000 9135990
-0.047038 -0.064143 0.898000 10653585
-0.047405 -0.059471 0.905000 10126732
-0.047929 -0.054900 0.915000 10193298
-0.048452 -0.050214 0.925000 9665364
-0.048819 -0.045269 0.932000 9862270
-0.045832 -0.137497 0.908000 12955838
-0.045832 -0.132309 0.908000 14275050
-0.045580 -0.126420 0.903000 14012395
-0.045479 -0.120991 0.901000 14078445
-0.045227 -0.115200 0.896000 12895706
-0.044974 -0.109466 0.891000 12880572
-0.044621 -0.103554 0.884000 13879779
-0.044520 -0.098280 0.882000 14210799
-0.044167 -0.092500 0.875000 14144751
-0.044066 -0.087300 0.873000 13620978
-0.044066 -0.082311 0.873000 11447759
-0.044318 -0.077766 0.878000 11246782
-0.044520 -0.073080 0.882000 5662097
-0.044974 -0.068734 0.891000 9137523
-0.045328 -0.064143 0.898000 10914182
-0.045681 -0.059471 0.905000 10189432
-0.045933 -0.054600 0.910000 10193807
-0.046438 -0.049943 0.920000 9470066
-0.046943 -0.045171 0.930000 9797003
-0.047448 -0.040286 0.940000 9139333
-0.044103 -0.137497 0.908000 13351624
-0.044103 -0.132309 0.908000 14143720
-0.043860 -0.126420 0.903000 14012396
-0.043617 -0.120589 0.898000 13750510
-0.043520 -0.115200 0.896000 13225944
-0.043180 -0.109220 0.889000 12426722
-0.042937 -0.103554 0.884000 13872595
-0.042840 -0.098280 0.882000 14276334
-0.042646 -0.092817 0.878000 14145006
-0.042403 -0.087300 0.873000 13751026
-0.042403 -0.082311 0.873000 11711442
-0.042646 -0.077766 0.878000 11509949
-0.042840 -0.073080 0.882000 7893909
-0.043277 -0.068734 0.891000 8999280
-0.043617 -0.064143 0.898000 10715516
-0.043860 -0.059340 0.903000 9730404
-0.044200 -0.054600 0.910000 10456461
-0.044686 -0.049943 0.920000 9995663
-0.045026 -0.045026 0.927000 10193048
-0.045511 -0.040157 0.937000 9732747
-0.042373 -0.137497 0.908000 13746377
-0.042373 -0.132309 0.908000 14011881
-0.042140 -0.126420 0.903000 14012396
-0.041907 -0.120589 0.898000 13489378
-0.041813 -0.115200 0.896000 13473463
-0.041487 -0.109220 0.889000 12038593
-0.041253 -0.103554 0.884000 13875156
-0.041067 -0.098057 0.880000 14341613
-0.040833 -0.092500 0.875000 14144494
-0.040647 -0.087100 0.871000 13818099
-0.040740 -0.082311 0.873000 11973844
-0.040973 -0.077766 0.878000 11773118
-0.041160 -0.073080 0.882000 10127782
-0.041580 -0.068734 0.891000 8803951
-0.041813 -0.064000 0.896000 10452613
-0.042140 -0.059340 0.903000 9269902
-0.042373 -0.054480 0.908000 10717341
-0.042793 -0.049780 0.917000 10521757
-0.043260 -0.045026 0.927000 10522010
-0.043493 -0.039943 0.932000 10259345
-0.040644 -0.137497 0.908000 13880267
-0.040644 -0.132309 0.908000 13946857
-0.040420 -0.126420 0.903000 13946605
-0.040196 -0.120589 0.898000 12957653
-0.040017 -0.114943 0.894000 12877717
-0.039793 -0.109220 0.889000 11699616
-0.039570 -0.103554 0.884000 14208725
-0.039390 -0.098057 0.880000 14276076
-0.039167 -0.092500 0.875000 14144238
-0.038988 -0.087100 0.871000 13948147
-0.039077 -0.082311 0.873000 12171223
-0.039301 -0.077766 0.878000 11970751
-0.039480 -0.073080 0.882000 11051446
-0.039883 -0.068734 0.891000 9459309
-0.040107 -0.064000 0.896000 10190735
-0.040330 -0.059209 0.901000 10127032
-0.040644 -0.054480 0.908000 10918061
-0.041047 -0.049780 0.917000 10719915
-0.041405 -0.044929 0.925000 10654109
-0.041629 -0.039857 0.930000 10259094
-0.038786 -0.137043 0.905000 14010320
-0.038914 -0.132309 0.908000 13946858
-0.038700 -0.126420 0.903000 13881325
-0.038486 -0.120589 0.898000 12434139
-0.038314 -0.114943 0.894000 12224937
-0.038100 -0.109220 0.889000 11440304
-0.037800 -0.103320 0.882000 14535644
-0.037714 -0.098057 0.880000 14276078
-0.037500 -0.092500 0.875000 14143980
-0.037414 -0.087300 0.873000 14015220
-0.037414 -0.082311 0.873000 12302809
-0.037629 -0.077766 0.878000 12167888
-0.037800 -0.073080 0.882000 11901112
-0.038100 -0.068580 0.889000 10113137
-0.038400 -0.064000 0.896000 9860223
-0.038614 -0.059209 0.901000 11050677
-0.038914 -0.054480 0.908000 11115189
-0.039300 -0.049780 0.917000 10917293
-0.039643 -0.044929 0.925000 10784927
-0.039857 -0.039857 0.930000 10257533
-0.037185 -0.137497 0.908000 14143446
-0.037185 -0.132309 0.908000 14012651
-0.036898 -0.126140 0.901000 13946605
-0.036775 -0.120589 0.898000 12432864
-0.036611 -0.114943 0.894000 12624573
-0.036407 -0.109220 0.889000 11443392
-0.036120 -0.103320 0.882000 14538723
-0.036038 -0.098057 0.880000 14276079
-0.035751 -0.092289 0.873000 14078187
-0.035670 -0.087100 0.871000 14146037
-0.035751 -0.082311 0.873000 12499164
-0.035833 -0.077500 0.875000 12432608
-0.036120 -0.073080 0.882000 11967930
-0.036407 -0.068580 0.889000 10182773
-0.036693 -0.064000 0.896000 9266287
-0.036898 -0.059209 0.901000 11377842
-0.037062 -0.054300 0.905000 11378365
-0.037471 -0.049671 0.915000 11181231
-0.037758 -0.044783 0.922000 11046817
-0.037963 -0.039729 0.927000 9991780
-0.035455 -0.137497 0.908000 14208727
-0.035455 -0.132309 0.908000 14078446
-0.035260 -0.126420 0.903000 13947373
-0.035065 -0.120589 0.898000 12432067
-0.034909 -0.114943 0.894000 12947634
-0.034635 -0.108974 0.887000 11445680
-0.034440 -0.103320 0.882000 14536671
-0.034362 -0.098057 0.880000 14276079
-0.034089 -0.092289 0.873000 14012394
-0.034010 -0.087100 0.871000 14280438
-0.034089 -0.082311 0.873000 12696800
-0.034167 -0.077500 0.875000 12695777
-0.034440 -0.073080 0.882000 12032197
-0.034635 -0.068426 0.887000 10320289
-0.034909 -0.063857 0.894000 8675971
-0.035182 -0.059209 0.901000 11712704
-0.035338 -0.054300 0.905000 11642050
-0.035650 -0.049563 0.913000 11510451
-0.035924 -0.044686 0.920000 11310252
-0.036197 -0.039729 0.927000 9795954
-0.033726 -0.137497 0.908000 14210521
-0.033614 -0.131871 0.905000 14012656
-0.033466 -0.126140 0.901000 14144493
-0.033280 -0.120320 0.896000 11963557
-0.033020 -0.114300 0.889000 12615335
-0.032946 -0.108974 0.887000 11437471
-0.032760 -0.103320 0.882000 14604507
-0.032611 -0.097834 0.878000 14210798
-0.032426 -0.092289 0.873000 13815274
-0.032351 -0.087100 0.871000 14409974
-0.032426 -0.082311 0.873000 12959203
-0.032500 -0.077500 0.875000 12893666
-0.032760 -0.073080 0.882000 12230351
-0.032946 -0.068426 0.887000 10456781
-0.033094 -0.063643 0.891000 9131928
-0.033354 -0.059011 0.898000 12236494
-0.033614 -0.054300 0.905000 11906247
-0.033911 -0.049563 0.913000 11180982
-0.034171 -0.044686 0.920000 11577016
-0.034357 -0.039643 0.925000 10453888
-0.034617 -0.034617 0.932000 10852272
-0.031890 -0.137043 0.905000 14143705
-0.031890 -0.131871 0.905000 13947118
-0.031750 -0.126140 0.901000 14341102
-0.031503 -0.120051 0.894000 11489713
-0.031327 -0.114300 0.889000 12287923
-0.031256 -0.108974 0.887000 11498440
-0.031080 -0.103320 0.882000 14670053
-0.031010 -0.098057 0.880000 14211055
-0.030763 -0.092289 0.873000 13619180
-0.030692 -0.087100 0.871000 14542325
-0.030763 -0.082311 0.873000 13223395
-0.030833 -0.077500 0.875000 13093601
-0.031010 -0.072914 0.880000 12433627
-0.031150 -0.068194 0.884000 10596033
