# .PCD v.7 - Point Cloud Data file format
VERSION .7
FIELDS x y z rgb
SIZE 4 4 4 4
TYPE F F F I
COUNT 1 1 1 1
WIDTH 1278
HEIGHT 1
POINTS 1278
DATA ascii
0.000795 -0.110538 0.835000 12695247
0.000797 -0.106020 0.837000 11899831
0.000799 -0.101479 0.839000 12762320
0.000803 -0.097146 0.843000 12432067
0.002414 -0.193948 0.845000 13677752
0.002414 -0.189119 0.845000 14605552
0.002409 -0.183854 0.843000 14081779
0.002363 -0.175639 0.827000 14866411
0.002326 -0.168227 0.814000 14934256
0.002314 -0.162771 0.810000 15000304
0.002303 -0.157362 0.806000 13949425
0.002303 -0.152756 0.806000 12629204
0.002309 -0.148518 0.808000 12367581
0.002320 -0.144613 0.812000 12233927
0.002326 -0.140318 0.814000 13157076
0.002334 -0.136167 0.817000 11501739
0.002340 -0.131820 0.819000 12565444
0.002351 -0.127761 0.823000 12761811
0.002363 -0.123656 0.827000 12497327
0.002369 -0.119218 0.829000 12231101
0.002380 -0.115033 0.833000 12761804
0.002386 -0.110538 0.835000 12893140
0.002391 -0.106020 0.837000 13223371
0.002397 -0.101479 0.839000 12828106
0.002409 -0.097146 0.843000 12562361
0.004014 -0.188671 0.843000 14671345
0.004005 -0.183418 0.841000 14540529
0.003938 -0.175639 0.827000 14934001
0.003876 -0.168227 0.814000 14934256
0.003857 -0.162771 0.810000 15196656
0.003838 -0.157362 0.806000 13948145
0.003838 -0.152756 0.806000 12827868
0.003848 -0.148518 0.808000 12566763
0.003867 -0.144613 0.812000 12431565
0.003876 -0.140318 0.814000 12499927
0.003890 -0.136167 0.817000 11561126
0.003900 -0.131820 0.819000 12630221
0.003919 -0.127761 0.823000 13222618
0.003938 -0.123656 0.827000 11239569
0.003948 -0.119218 0.829000 12290739
0.003967 -0.115033 0.833000 13155789
0.003986 -0.110803 0.837000 13156825
0.003986 -0.106020 0.837000 13288671
0.004005 -0.101721 0.841000 12632005
0.004024 -0.097376 0.845000 12494510
0.005620 -0.188671 0.843000 14670827
0.005607 -0.183418 0.841000 15065073
0.005527 -0.176064 0.829000 14934256
0.005427 -0.168227 0.814000 14934512
0.005400 -0.162771 0.810000 15329009
0.005373 -0.157362 0.806000 14014192
0.005373 -0.152756 0.806000 13024730
0.005387 -0.148518 0.808000 12769251
0.005413 -0.144613 0.812000 12564436
0.005433 -0.140490 0.815000 11901654
0.005447 -0.136167 0.817000 11563423
0.005473 -0.132142 0.821000 12762019
0.005487 -0.127761 0.823000 13617117
0.005513 -0.123656 0.827000 10050983
0.005527 -0.119218 0.829000 12296646
0.005567 -0.115310 0.835000 13483992
0.005580 -0.110803 0.837000 13353694
0.005580 -0.106020 0.837000 13354206
0.005607 -0.101721 0.841000 12426690
0.007226 -0.188671 0.843000 14670054
0.007191 -0.182982 0.839000 14934001
0.007089 -0.175639 0.827000 14933999
0.006977 -0.168227 0.814000 14868720
0.006943 -0.162771 0.810000 15790323
0.006909 -0.157362 0.806000 14078447
0.006909 -0.152756 0.806000 13354199
0.006943 -0.148886 0.810000 13092571
0.006977 -0.144970 0.814000 12894171
0.007003 -0.140835 0.817000 11898324
0.007020 -0.136500 0.819000 11562135
0.007037 -0.132142 0.821000 12294265
0.007054 -0.127761 0.823000 13947105
0.007106 -0.123955 0.829000 11635388
0.007106 -0.119218 0.829000 13353945
0.007140 -0.115033 0.833000 13682914
0.007174 -0.110803 0.837000 13616867
0.007191 -0.106273 0.839000 13485532
0.007226 -0.101963 0.843000 11699903
0.008831 -0.188671 0.843000 14603748
0.008810 -0.183418 0.841000 14868721
0.008685 -0.176064 0.829000 14868719
0.008528 -0.168227 0.814000 14737647
0.008486 -0.162771 0.810000 16248563
0.008444 -0.157362 0.806000 14144239
0.008465 -0.153135 0.808000 13617889
0.008507 -0.149253 0.812000 13417448
0.008528 -0.144970 0.814000 13221077
0.008559 -0.140835 0.817000 11898552
0.008580 -0.136500 0.819000 11562394
0.008601 -0.132142 0.821000 11901849
0.008643 -0.128071 0.825000 14276070
0.008685 -0.123955 0.829000 13222873
0.008685 -0.119218 0.829000 14404835
0.008748 -0.115310 0.835000 13879780
0.008769 -0.110803 0.837000 13880547
0.008790 -0.106273 0.839000 13683169
0.008831 -0.101963 0.843000 10982104
0.010437 -0.188671 0.843000 14473442
0.010388 -0.182982 0.839000 14868976
0.010264 -0.176064 0.829000 14999791
0.010115 -0.168847 0.817000 14933741
0.010053 -0.163173 0.812000 15987188
0.010029 -0.158143 0.810000 14408174
0.010029 -0.153514 0.810000 13947884
0.010053 -0.149253 0.812000 13683188
0.010090 -0.145148 0.815000 13352143
0.010115 -0.140835 0.817000 12224411
0.010140 -0.136500 0.819000 11695005
0.010190 -0.132464 0.823000 13086136
0.010239 -0.128382 0.827000 14276588
0.010264 -0.123955 0.829000 13947382
0.010289 -0.119506 0.831000 14472430
0.010338 -0.115310 0.835000 14012902
0.010388 -0.111068 0.839000 14210019
0.010412 -0.106527 0.841000 14143718
0.010462 -0.102205 0.845000 12624113
0.012043 -0.188671 0.843000 14340568
0.011986 -0.182982 0.839000 14934771
0.011814 -0.175639 0.827000 15065584
0.011700 -0.169260 0.819000 15129835
0.011629 -0.163575 0.814000 15724534
0.011571 -0.158143 0.810000 14737135
0.011571 -0.153514 0.810000 14210031
0.011600 -0.149253 0.812000 14015470
0.011671 -0.145504 0.817000 13478094
0.011729 -0.141525 0.821000 12622772
0.011729 -0.136833 0.821000 11825564
0.011786 -0.132786 0.825000 14278106
0.011814 -0.128382 0.827000 14276847
0.011843 -0.123955 0.829000 14735604
0.011871 -0.119506 0.831000 14473712
0.011957 -0.115586 0.837000 14142687
0.011986 -0.111068 0.839000 14473445
0.012014 -0.106527 0.841000 14602990
0.012071 -0.102205 0.845000 14208755
0.013649 -0.188671 0.843000 14208974
0.013551 -0.182546 0.837000 14803189
0.013357 -0.175214 0.825000 14935025
0.013260 -0.169260 0.819000 15195881
0.013179 -0.163575 0.814000 15658744
0.013147 -0.158533 0.812000 14737135
0.013147 -0.153893 0.812000 14604018
0.013147 -0.149253 0.812000 14144488
0.013260 -0.145860 0.819000 12951245
0.013325 -0.141870 0.823000 12490188
0.013325 -0.137167 0.823000 11888538
0.013390 -0.133108 0.827000 14605820
0.013422 -0.128692 0.829000 14737139
0.013454 -0.124254 0.831000 14868209
0.013519 -0.120081 0.835000 14343154
0.013584 -0.115862 0.839000 13677016
0.013616 -0.111332 0.841000 14736871
0.013649 -0.106780 0.843000 14802421
0.013730 -0.102568 0.848000 14606837
0.015110 -0.182110 0.835000 14736363
0.014929 -0.175214 0.825000 14801385
0.014784 -0.168847 0.817000 15325426
0.014730 -0.163575 0.814000 15527925
0.014693 -0.158533 0.812000 14735343
0.014730 -0.154272 0.814000 14934258
0.014730 -0.149621 0.814000 14337259
0.014856 -0.146216 0.821000 12428000
0.014892 -0.141870 0.823000 12355790
0.014965 -0.137833 0.827000 11965628
0.015001 -0.133430 0.829000 14935028
0.015037 -0.129003 0.831000 15195632
0.015073 -0.124553 0.833000 14999537
0.015146 -0.120369 0.837000 14142960
0.015218 -0.116138 0.841000 13217242
0.015254 -0.111597 0.843000 14999277
0.015345 -0.107413 0.848000 15065333
0.015417 -0.103051 0.852000 14997223
0.016700 -0.182110 0.835000 14340833
0.016500 -0.175214 0.825000 14402786
0.016380 -0.169260 0.819000 15527674
0.016280 -0.163575 0.814000 15199219
0.016280 -0.158924 0.814000 14670062
0.016280 -0.154272 0.814000 14935795
0.016340 -0.150172 0.817000 14735085
0.016460 -0.146572 0.823000 13549300
0.016500 -0.142214 0.825000 12887760
0.016540 -0.137833 0.827000 12760799
0.016660 -0.134073 0.833000 14144492
0.016660 -0.129313 0.833000 14538221
0.016740 -0.125151 0.837000 15065329
0.016740 -0.120369 0.837000 14733038
0.016860 -0.116414 0.843000 14205916
0.016900 -0.111862 0.845000 15065331
0.017000 -0.107667 0.850000 14671092
0.017040 -0.103051 0.852000 14333914
0.018115 -0.175639 0.827000 14015472
0.017940 -0.169260 0.819000 15793914
0.017852 -0.163776 0.815000 14802416
0.017830 -0.158924 0.814000 14604783
0.017852 -0.154462 0.815000 14933490
0.017940 -0.150540 0.819000 15193842
0.018028 -0.146572 0.823000 14666988
0.018071 -0.142214 0.825000 13420007
0.018159 -0.138167 0.829000 13488872
0.018247 -0.134073 0.833000 13410533
0.018334 -0.129934 0.837000 13815020
0.018378 -0.125450 0.839000 15131122
0.018422 -0.120944 0.841000 15262196
0.018510 -0.116690 0.845000 15197931
0.018575 -0.112259 0.848000 15065586
0.018663 -0.107920 0.852000 14279412
0.018663 -0.103051 0.852000 13616344
0.019690 -0.175639 0.827000 15269630
0.019500 -0.169260 0.819000 15593465
0.019452 -0.164178 0.817000 14603244
0.019405 -0.159119 0.815000 14538735
0.019500 -0.155220 0.819000 14866674
0.019548 -0.150908 0.821000 14735862
0.019595 -0.146572 0.823000 14203620
0.019643 -0.142214 0.825000 14476285
0.019786 -0.138500 0.831000 14081778
0.019881 -0.134395 0.835000 13675998
0.019976 -0.130245 0.839000 14934251
0.020071 -0.126049 0.843000 15394035
0.020071 -0.121231 0.843000 15462139
0.020190 -0.117105 0.848000 14802170
0.020190 -0.112259 0.848000 15131122
0.020286 -0.107920 0.852000 14670323
0.020333 -0.103293 0.854000 13945303
0.021266 -0.175639 0.827000 16445425
0.021060 -0.169260 0.819000 15459824
0.020957 -0.163776 0.815000 14406121
0.020957 -0.159119 0.815000 14472432
0.021060 -0.155220 0.819000 14800870
0.021060 -0.150540 0.819000 14342887
0.021163 -0.146572 0.823000 13747681
0.021266 -0.142559 0.827000 15460593
0.021420 -0.138833 0.833000 14604781
0.021471 -0.134395 0.835000 13942503
0.021523 -0.129934 0.837000 15984106
0.021626 -0.125750 0.841000 15656174
0.021677 -0.121231 0.843000 15656431
0.021857 -0.117381 0.850000 14467289
0.021857 -0.112524 0.850000 15196144
0.021960 -0.108173 0.854000 15133943
0.021909 -0.103051 0.852000 14274019
0.022730 -0.174790 0.823000 14997221
0.022620 -0.169260 0.819000 14536934
0.022565 -0.164178 0.817000 14141669
0.022565 -0.159510 0.817000 14143217
0.022620 -0.155220 0.819000 14078169
0.022675 -0.150908 0.821000 13813976
0.022841 -0.147285 0.827000 13814750
0.022896 -0.142904 0.829000 14537445
0.023117 -0.139500 0.837000 14342120
0.023117 -0.134717 0.837000 14077167
0.023172 -0.130245 0.839000 14868457
0.023228 -0.125750 0.841000 14866665
0.023283 -0.121231 0.843000 14668771
0.023476 -0.117381 0.850000 14137527
0.023476 -0.112524 0.850000 14934767
0.023587 -0.108173 0.854000 14934266
0.024298 -0.174790 0.823000 13549260
0.024180 -0.169260 0.819000 13611467
0.024180 -0.164580 0.819000 13812941
0.024180 -0.159900 0.819000 13811918
0.024239 -0.155599 0.821000 13285057
0.024239 -0.150908 0.821000 13351106
0.024416 -0.147285 0.827000 13810886
0.024475 -0.142904 0.829000 13614024
0.024711 -0.139500 0.837000 14007754
0.024652 -0.134395 0.835000 14206417
0.024770 -0.130245 0.839000 13746894
0.024830 -0.125750 0.841000 14072269
0.024889 -0.121231 0.843000 13679309
0.025154 -0.117657 0.852000 13810107
0.025154 -0.112789 0.852000 14601169
0.025213 -0.108173 0.854000 14730198
0.025740 -0.169260 0.819000 13610671
0.025740 -0.164580 0.819000 13611701
0.025740 -0.159900 0.819000 13413547
0.025803 -0.155599 0.821000 13280681
0.025866 -0.151275 0.823000 13282476
0.025991 -0.147285 0.827000 13412526
0.025991 -0.142559 0.827000 13348523
0.026243 -0.134395 0.835000 13743027
0.026369 -0.130245 0.839000 13675187
0.026431 -0.125750 0.841000 13808305
0.026777 -0.117657 0.852000 13875391
0.026777 -0.112789 0.852000 14070708
0.027300 -0.164580 0.819000 13348789
0.027300 -0.159900 0.819000 13084334
0.027833 -0.134395 0.835000 13283253
0.027900 -0.129934 0.837000 13611701
-0.051319 -0.169748 0.829000 13610927
-0.051319 -0.165010 0.829000 13413029
-0.049860 -0.174906 0.831000 12361135
-0.049740 -0.169748 0.829000 11967905
-0.049500 -0.164214 0.825000 11701897
-0.048277 -0.174906 0.831000 11313873
-0.048045 -0.169338 0.827000 10328497
-0.047929 -0.164214 0.825000 9931407
-0.048045 -0.159887 0.827000 9469067
-0.048045 -0.155161 0.827000 12622491
-0.048510 -0.147119 0.835000 13347226
-0.048626 -0.142689 0.837000 13608608
-0.048742 -0.138235 0.839000 13612455
-0.048974 -0.134077 0.843000 13545128
-0.049962 -0.117124 0.860000 13084841
-0.047256 -0.186622 0.841000 13150650
-0.047144 -0.181384 0.839000 13679306
-0.046694 -0.174906 0.831000 13356018
-0.046470 -0.169338 0.827000 11379394
-0.046245 -0.163816 0.823000 10128276
-0.046245 -0.159113 0.823000 9795718
-0.046245 -0.154410 0.823000 11110271
-0.046582 -0.150799 0.829000 10980237
-0.046919 -0.147119 0.835000 11108991
-0.046919 -0.142348 0.835000 11897994
-0.047031 -0.137906 0.837000 12229270
-0.047369 -0.134077 0.843000 11968665
-0.047481 -0.129567 0.845000 12164251
-0.047650 -0.125181 0.848000 12624549
-0.047987 -0.121187 0.854000 12427696
-0.048324 -0.117124 0.860000 12494246
-0.045763 -0.187066 0.843000 13084340
-0.045437 -0.180951 0.837000 14866914
-0.045111 -0.174906 0.831000 15396083
-0.044786 -0.168929 0.825000 12435675
-0.044569 -0.163418 0.821000 10392216
-0.044460 -0.158340 0.819000 10059145
-0.044460 -0.153660 0.819000 9666438
-0.044894 -0.150435 0.827000 9142141
-0.045220 -0.146767 0.833000 8810355
-0.045329 -0.142348 0.835000 10185329
-0.045329 -0.137576 0.835000 10846331
-0.045546 -0.133441 0.839000 10389899
-0.045763 -0.129260 0.843000 10976103
-0.045871 -0.124738 0.845000 11900053
-0.046034 -0.120335 0.848000 11705497
-0.046360 -0.116307 0.854000 11899795
-0.046360 -0.111427 0.854000 11901841
-0.044157 -0.187066 0.843000 13612205
-0.043948 -0.181384 0.839000 15267579
-0.043529 -0.174906 0.831000 15066355
-0.043110 -0.168519 0.823000 13754101
-0.042900 -0.163020 0.819000 10326427
-0.042795 -0.157953 0.817000 9993869
-0.042795 -0.153285 0.817000 9666700
-0.043214 -0.150071 0.825000 9271661
-0.043529 -0.146414 0.831000 8936039
-0.043633 -0.142007 0.833000 9195608
-0.043738 -0.137576 0.835000 10055007
-0.043948 -0.133441 0.839000 10321278
-0.044052 -0.128953 0.841000 10181170
-0.044157 -0.124443 0.843000 10978182
-0.044262 -0.119910 0.845000 10913666
-0.044629 -0.116034 0.852000 11174273
-0.044733 -0.111427 0.854000 10847874
-0.044733 -0.106547 0.854000 10386048
-0.042551 -0.187066 0.843000 14136522
-0.042249 -0.180951 0.837000 15592182
-0.041946 -0.174906 0.831000 14802672
-0.041542 -0.168519 0.823000 15064308
-0.041239 -0.162622 0.817000 10326200
-0.041088 -0.157373 0.814000 9929103
-0.041138 -0.152910 0.815000 9666695
-0.041441 -0.149344 0.821000 9337724
-0.041744 -0.145710 0.827000 9065841
-0.041946 -0.141666 0.831000 8211799
-0.042047 -0.137247 0.833000 9198433
-0.042249 -0.133123 0.837000 10253429
-0.042450 -0.128953 0.841000 9464416
-0.042450 -0.124148 0.841000 9994375
-0.042551 -0.119626 0.843000 10190982
-0.043006 -0.116034 0.852000 10388611
-0.043006 -0.111166 0.852000 9797504
-0.043107 -0.106547 0.854000 9532284
-0.040946 -0.187066 0.843000 14471654
-0.040654 -0.180951 0.837000 15129841
-0.040363 -0.174906 0.831000 14802412
-0.039877 -0.168110 0.821000 14934260
-0.039537 -0.162025 0.814000 11051988
-0.039537 -0.157373 0.814000 9993361
-0.039537 -0.152722 0.814000 9798017
-0.039683 -0.148616 0.817000 9470091
-0.040071 -0.145357 0.825000 9134458
-0.040266 -0.141325 0.829000 8473942
-0.040363 -0.136917 0.831000 8870498
-0.040557 -0.132805 0.835000 9195629
-0.040751 -0.128647 0.839000 9862798
-0.040751 -0.123852 0.839000 10125704
-0.040849 -0.119342 0.841000 10191753
-0.041286 -0.115762 0.850000 9996422
-0.041286 -0.110905 0.850000 9994110
-0.041480 -0.106547 0.854000 9270391
-0.039153 -0.186178 0.839000 14873841
-0.039060 -0.180951 0.837000 14670831
-0.038780 -0.174906 0.831000 14737134
-0.038313 -0.168110 0.821000 14802419
-0.038033 -0.162224 0.815000 11837921
-0.037893 -0.156987 0.812000 10060693
-0.037987 -0.152722 0.814000 9929094
-0.038127 -0.148616 0.817000 9601166
-0.038313 -0.144652 0.821000 9138045
-0.038500 -0.140643 0.825000 8735576
-0.038593 -0.136258 0.827000 8476252
-0.038873 -0.132487 0.833000 8146281
-0.039060 -0.128340 0.837000 10193041
-0.039153 -0.123852 0.839000 10191753
-0.039153 -0.119058 0.839000 10191495
-0.039433 -0.115081 0.845000 9529210
-0.039573 -0.110644 0.848000 10257543
-0.039853 -0.106547 0.854000 9009024
-0.037555 -0.186178 0.839000 14870012
-0.037466 -0.180951 0.837000 14736622
-0.037197 -0.174906 0.831000 14802672
-0.036660 -0.167700 0.819000 14736625
-0.036436 -0.162025 0.814000 12303086
-0.036257 -0.156600 0.810000 10191514
-0.036347 -0.152347 0.812000 9863563
-0.036481 -0.148252 0.815000 9732242
-0.036660 -0.144300 0.819000 9269887
-0.036839 -0.140302 0.823000 8802139
-0.036929 -0.135929 0.825000 8344917
-0.037108 -0.131850 0.829000 8079461
-0.037376 -0.128033 0.835000 10389395
-0.037466 -0.123557 0.837000 10257291
-0.037555 -0.119058 0.839000 10126468
-0.037824 -0.115081 0.845000 7936879
-0.037958 -0.110644 0.848000 9664655
-0.038048 -0.106048 0.850000 9535625
-0.036043 -0.186622 0.841000 14870776
-0.035871 -0.180951 0.837000 14802414
-0.035614 -0.174906 0.831000 14802672
-0.035186 -0.168110 0.821000 14605296
-0.034886 -0.162025 0.814000 12769268
-0.034714 -0.156600 0.810000 10324381
-0.034714 -0.151971 0.810000 9798029
-0.034886 -0.148070 0.814000 9863822
-0.035014 -0.143948 0.817000 9340034
-0.035271 -0.140302 0.823000 8871536
-0.035271 -0.135599 0.823000 8212575
-0.035443 -0.131532 0.827000 8022893
-0.035614 -0.127420 0.831000 10586771
-0.035786 -0.123262 0.835000 10257279
-0.035871 -0.118774 0.837000 10126472
-0.036129 -0.114809 0.843000 6375285
-0.036214 -0.110252 0.845000 9136519
-0.036343 -0.105798 0.848000 9995402
-0.036600 -0.101667 0.854000 10060928
-0.034359 -0.186178 0.839000 14803443
-0.034277 -0.180951 0.837000 14802671
-0.034031 -0.174906 0.831000 14802671
-0.033622 -0.168110 0.821000 14670832
-0.033171 -0.161229 0.810000 12963833
-0.033090 -0.156213 0.808000 10654625
-0.033171 -0.151971 0.810000 9798286
-0.033335 -0.148070 0.814000 9798538
-0.033376 -0.143595 0.815000 9667204
-0.033622 -0.139961 0.821000 9006981
-0.033704 -0.135599 0.823000 8016232
-0.033868 -0.131532 0.827000 9275765
-0.034031 -0.127420 0.831000 9337491
-0.034195 -0.123262 0.835000 10453108
-0.034277 -0.118774 0.837000 10192523
-0.034441 -0.114536 0.841000 8281466
-0.034605 -0.110252 0.845000 9729662
-0.034728 -0.105798 0.848000 10061450
-0.034973 -0.101667 0.854000 9335933
-0.032761 -0.186178 0.839000 14736369
-0.032683 -0.180951 0.837000 14802415
-0.032449 -0.174906 0.831000 14802671
-0.032058 -0.168110 0.821000 14670831
-0.031629 -0.161229 0.810000 13163768
-0.031550 -0.156213 0.808000 10915756
-0.031550 -0.151596 0.808000 9864082
-0.031707 -0.147707 0.812000 9732747
-0.031824 -0.143595 0.815000 10060422
-0.032058 -0.139961 0.821000 9075589
-0.032136 -0.135599 0.823000 7755889
-0.032214 -0.131214 0.825000 10453890
-0.032370 -0.127113 0.829000 8152687
-0.032449 -0.122671 0.831000 10572627
-0.032605 -0.118490 0.835000 10323854
-0.032761 -0.114264 0.839000 10188421
-0.032839 -0.109730 0.841000 10389642
-0.032995 -0.105424 0.845000 10061197
-0.033269 -0.101429 0.852000 8608613
-0.031386 -0.187510 0.845000 14670574
-0.031163 -0.181384 0.839000 14933487
-0.030791 -0.174485 0.829000 14802671
-0.030494 -0.168110 0.821000 14671087
-0.030086 -0.161229 0.810000 13621750
-0.030011 -0.156213 0.808000 10587576
-0.030011 -0.151596 0.808000 9995413
-0.030160 -0.147707 0.812000 9470349
-0.030234 -0.143419 0.814000 10060935
-0.030420 -0.139620 0.819000 9206405
-0.030494 -0.135270 0.821000 8679546
-0.030569 -0.130896 0.823000 10391182
-0.030717 -0.126807 0.827000 8543818
-0.030866 -0.122671 0.831000 9114419
-0.031014 -0.118490 0.835000 10455440
-0.031163 -0.114264 0.839000 10324369
-0.031237 -0.109730 0.841000 10389653
-0.031311 -0.105174 0.843000 10061456
-0.031497 -0.100952 0.848000 8671564
-0.029776 -0.187510 0.845000 14538990
-0.029565 -0.181384 0.839000 14999535
-0.029283 -0.174906 0.831000 14868466
-0.028930 -0.168110 0.821000 14671087
-0.028543 -0.161229 0.810000 14148854
-0.028472 -0.156213 0.808000 10262208
-0.028472 -0.151596 0.808000 10125969
-0.028543 -0.147343 0.810000 9208970
-0.028684 -0.143419 0.814000 10060679
-0.028790 -0.139279 0.817000 9339528
-0.028930 -0.135270 0.821000 9664635
-0.029001 -0.130896 0.823000 10325135
-0.029071 -0.126500 0.825000 9005426
-0.029283 -0.122671 0.831000 7689059
-0.029353 -0.118207 0.833000 10586514
-0.029494 -0.113991 0.837000 10390162
-0.029565 -0.109470 0.839000 10455446
-0.029706 -0.105174 0.843000 10062484
-0.029882 -0.100952 0.848000 8742002
-0.028167 -0.187510 0.845000 14604526
-0.027967 -0.181384 0.839000 14017775
-0.027633 -0.174485 0.829000 14802420
-0.027367 -0.168110 0.821000 14736623
-0.027000 -0.161229 0.810000 14344694
-0.026933 -0.156213 0.808000 10326985
-0.026933 -0.151596 0.808000 10192012
-0.026933 -0.146979 0.808000 9602951
-0.027067 -0.143067 0.812000 10126470
-0.027233 -0.139279 0.817000 9536395
-0.027300 -0.134940 0.819000 9796988
-0.027433 -0.130896 0.823000 10586512
-0.027433 -0.126193 0.823000 9730970
-0.027633 -0.122376 0.829000 9271443
-0.027767 -0.118207 0.833000 10652563
-0.027900 -0.113991 0.837000 10455700
-0.027967 -0.109470 0.839000 10455702
-0.028033 -0.104925 0.841000 10194328
-0.028167 -0.100595 0.845000 9798040
-0.026651 -0.188175 0.848000 14735598
-0.026369 -0.181384 0.839000 12959461
-0.026054 -0.174485 0.829000 14733794
-0.025803 -0.168110 0.821000 14736881
-0.025457 -0.161229 0.810000 14541557
-0.025331 -0.155827 0.806000 10395087
-0.025331 -0.151221 0.806000 10257550
-0.025394 -0.146979 0.808000 9996171
-0.025457 -0.142714 0.810000 10192008
-0.025614 -0.138938 0.815000 9733005
-0.025677 -0.134610 0.817000 9926789
-0.025803 -0.130578 0.821000 10848659
-0.025866 -0.126193 0.823000 10456729
-0.026054 -0.122376 0.829000 10847637
-0.026117 -0.117923 0.831000 10652566
-0.026306 -0.113991 0.837000 10521750
-0.026306 -0.109209 0.837000 10455191
-0.026369 -0.104675 0.839000 10254473
-0.026557 -0.100595 0.845000 10851225
-0.025036 -0.188175 0.848000 14736366
-0.024770 -0.181384 0.839000 12616155
-0.024534 -0.174906 0.831000 14401488
-0.024239 -0.168110 0.821000 14867954
-0.023855 -0.160830 0.808000 14802931
-0.023737 -0.155440 0.804000 10791894
-0.023737 -0.150846 0.804000 10192272
-0.023796 -0.146615 0.806000 10195600
-0.023855 -0.142362 0.808000 9995146
-0.023973 -0.138427 0.812000 9864080
-0.024062 -0.134281 0.815000 10058894
-0.024239 -0.130578 0.821000 10717846
-0.024298 -0.126193 0.823000 10522007
-0.024475 -0.122376 0.829000 10849175
-0.024534 -0.117923 0.831000 10718360
-0.024652 -0.113719 0.835000 10653080
-0.024711 -0.109209 0.837000 10389655
-0.024770 -0.104675 0.839000 8799098
-0.024948 -0.100595 0.845000 10785178
-0.023531 -0.193931 0.852000 14669277
-0.023338 -0.187510 0.845000 14801647
-0.023117 -0.180951 0.837000 12296156
-0.022896 -0.174485 0.829000 14129346
-0.022565 -0.167290 0.817000 14934771
-0.022316 -0.160830 0.808000 15065587
-0.022206 -0.155440 0.804000 11184344
-0.022206 -0.150846 0.804000 10192785
-0.022261 -0.146615 0.806000 10390677
-0.022316 -0.142362 0.808000 9864071
-0.022427 -0.138427 0.812000 9996176
-0.022482 -0.134116 0.814000 10186636
-0.022620 -0.130260 0.819000 10587286
-0.022675 -0.125887 0.821000 10587289
-0.022841 -0.122081 0.827000 10849689
-0.022896 -0.117639 0.829000 10718617
-0.023007 -0.113447 0.833000 10718617
-0.023062 -0.108948 0.835000 10391961
-0.023117 -0.104426 0.837000 7357043
-0.023228 -0.100119 0.841000 10720411
-0.023283 -0.095540 0.843000 10719385
-0.021909 -0.193931 0.852000 14605277
-0.021729 -0.187510 0.845000 14736111
-0.021574 -0.181384 0.839000 12556510
-0.021317 -0.174485 0.829000 13673908
-0.021009 -0.167290 0.817000 15066100
-0.020726 -0.160432 0.806000 15132147
-0.020674 -0.155440 0.804000 11448026
-0.020674 -0.150846 0.804000 10258322
-0.020726 -0.146615 0.806000 10719898
-0.020777 -0.142362 0.808000 10060676
-0.020880 -0.138427 0.812000 10127505
-0.020931 -0.134116 0.814000 10322057
-0.021009 -0.129942 0.817000 10653335
-0.021111 -0.125887 0.821000 10718875
-0.021214 -0.121786 0.825000 10849947
-0.021317 -0.117639 0.829000 10719129
-0.021420 -0.113447 0.833000 10784411
-0.021471 -0.108948 0.835000 10587547
-0.021523 -0.104426 0.837000 7676268
-0.021626 -0.100119 0.841000 10784667
-0.021677 -0.095540 0.843000 10785180
-0.020286 -0.193931 0.852000 14538719
-0.020119 -0.187510 0.845000 14735599
-0.019976 -0.181384 0.839000 12763359
-0.019738 -0.174485 0.829000 13279677
-0.019405 -0.166881 0.815000 15197678
-0.019238 -0.160830 0.808000 15261938
-0.019143 -0.155440 0.804000 11645148
-0.019143 -0.150846 0.804000 10324373
-0.019190 -0.146615 0.806000 10981275
-0.019238 -0.142362 0.808000 10257293
-0.019333 -0.138427 0.812000 10259349
-0.019381 -0.134116 0.814000 10451083
-0.019500 -0.130260 0.819000 10719388
-0.019548 -0.125887 0.821000 10784923
-0.019643 -0.121786 0.825000 10785180
-0.019738 -0.117639 0.829000 10719388
-0.019833 -0.113447 0.833000 10850204
-0.019881 -0.108948 0.835000 10719644
-0.019929 -0.104426 0.837000 8020871
-0.020024 -0.100119 0.841000 10851482
-0.020071 -0.095540 0.843000 10850459
-0.018619 -0.193476 0.850000 14605281
-0.018466 -0.187066 0.843000 14735855
-0.018378 -0.181384 0.839000 12765921
-0.018159 -0.174485 0.829000 12889030
-0.017852 -0.166881 0.815000 15197160
-0.017699 -0.160830 0.808000 15196913
-0.017611 -0.155440 0.804000 11843038
-0.017611 -0.150846 0.804000 10389912
-0.017655 -0.146615 0.806000 10916252
-0.017699 -0.142362 0.808000 10192278
-0.017787 -0.138427 0.812000 10194073
-0.017830 -0.134116 0.814000 10519949
-0.017896 -0.129942 0.817000 10784930
-0.017984 -0.125887 0.821000 10850971
-0.018071 -0.121786 0.825000 10850973
-0.018159 -0.117639 0.829000 10785950
-0.018203 -0.113174 0.831000 10981534
-0.018290 -0.108948 0.835000 10851228
-0.018290 -0.104176 0.835000 9536418
-0.018422 -0.100119 0.841000 10916760
-0.018466 -0.095540 0.843000 10916250
-0.017000 -0.193476 0.850000 14670562
-0.016860 -0.187066 0.843000 14735856
-0.016740 -0.180951 0.837000 12693467
-0.016540 -0.174064 0.827000 12500934
-0.016300 -0.166881 0.815000 15129831
-0.016160 -0.160830 0.808000 15065841
-0.016080 -0.155440 0.804000 11974367
-0.016080 -0.150846 0.804000 10455707
-0.016120 -0.146615 0.806000 10785952
-0.016160 -0.142362 0.808000 10061721
-0.016240 -0.138427 0.812000 10063770
-0.016280 -0.134116 0.814000 10649233
-0.016340 -0.129942 0.817000 10785697
-0.016380 -0.125580 0.819000 10916762
-0.016460 -0.121490 0.823000 10916768
-0.016580 -0.117639 0.829000 10918039
-0.016620 -0.113174 0.831000 11047830
-0.016660 -0.108687 0.833000 10917023
-0.016700 -0.104176 0.835000 10981796
-0.016820 -0.100119 0.841000 10917020
-0.016860 -0.095540 0.843000 10982301
-0.015345 -0.193021 0.848000 14670307
-0.015254 -0.187066 0.843000 14671088
-0.015146 -0.180951 0.837000 12615125
-0.014929 -0.173643 0.825000 12493765
-0.014748 -0.166881 0.815000 15196391
-0.014621 -0.160830 0.808000 15131377
-0.014549 -0.155440 0.804000 12106977
-0.014549 -0.150846 0.804000 10521757
-0.014585 -0.146615 0.806000 11180965
-0.014621 -0.142362 0.808000 10193308
-0.014693 -0.138427 0.812000 10326427
-0.014730 -0.134116 0.814000 10585749
-0.014784 -0.129942 0.817000 10589857
-0.014820 -0.125580 0.819000 10917272
-0.014892 -0.121490 0.823000 11113635
-0.015001 -0.117639 0.829000 9598864
-0.015037 -0.113174 0.831000 11180175
-0.015073 -0.108687 0.833000 11048353
-0.015110 -0.104176 0.835000 11048358
-0.015182 -0.099881 0.839000 11048607
-0.015254 -0.095540 0.843000 11113632
-0.013681 -0.192338 0.845000 14604259
-0.013649 -0.187066 0.843000 14539762
-0.013551 -0.180951 0.837000 12488670
-0.013357 -0.173643 0.825000 12554431
-0.013195 -0.166881 0.815000 15262190
-0.013082 -0.160830 0.808000 15131122
-0.013017 -0.155440 0.804000 12237537
-0.013017 -0.150846 0.804000 10653856
-0.013050 -0.146615 0.806000 11574183
-0.013082 -0.142362 0.808000 10324127
-0.013179 -0.138768 0.814000 10589086
-0.013179 -0.134116 0.814000 10585750
-0.013228 -0.129942 0.817000 10321798
-0.013260 -0.125580 0.819000 10982803
-0.013325 -0.121490 0.823000 11245480
-0.013422 -0.117639 0.829000 8346243
-0.013422 -0.112902 0.829000 11240325
-0.013487 -0.108687 0.833000 11114403
-0.013519 -0.104176 0.835000 11048871
-0.013584 -0.099881 0.839000 11114660
-0.013649 -0.095540 0.843000 11179940
-0.012071 -0.192338 0.845000 14670820
-0.012043 -0.187066 0.843000 14606067
-0.011957 -0.180951 0.837000 12555495
-0.011786 -0.173643 0.825000 13278904
-0.011643 -0.166881 0.815000 15264501
-0.011543 -0.160830 0.808000 15131634
-0.011457 -0.155053 0.802000 12434401
-0.011457 -0.150470 0.802000 10785442
-0.011514 -0.146615 0.806000 11707561
-0.011543 -0.142362 0.808000 10521250
-0.011600 -0.138427 0.812000 10788770
-0.011629 -0.134116 0.814000 10586775
-0.011671 -0.129942 0.817000 10112619
-0.011700 -0.125580 0.819000 10651021
-0.011757 -0.121490 0.823000 11311533
-0.011843 -0.117639 0.829000 8936309
-0.011871 -0.113174 0.831000 11306106
-0.011900 -0.108687 0.833000 11246244
-0.011929 -0.104176 0.835000 11180713
-0.011986 -0.099881 0.839000 11245992
-0.012043 -0.095540 0.843000 11115177
-0.010462 -0.192338 0.845000 14669796
-0.010437 -0.187066 0.843000 14737139
-0.010363 -0.180951 0.837000 12558815
-0.010214 -0.173643 0.825000 13996489
-0.010090 -0.166881 0.815000 15264245
-0.010004 -0.160830 0.808000 15131377
-0.009930 -0.155053 0.802000 12632548
-0.009930 -0.150470 0.802000 10917029
-0.009979 -0.146615 0.806000 11837616
-0.010004 -0.142362 0.808000 10652833
-0.010053 -0.138427 0.812000 10984101
-0.010078 -0.134116 0.814000 10588313
-0.010115 -0.129942 0.817000 9927285
-0.010140 -0.125580 0.819000 10322541
-0.010190 -0.121490 0.823000 11312559
-0.010239 -0.117355 0.827000 9594525
-0.010264 -0.112902 0.829000 11373203
-0.010289 -0.108426 0.831000 11443371
-0.010338 -0.104176 0.835000 11246763
-0.010388 -0.099881 0.839000 11311787
-0.010437 -0.095540 0.843000 10982303
-0.008831 -0.191883 0.843000 14670308
-0.008831 -0.187066 0.843000 14671090
-0.008769 -0.180951 0.837000 12164055
-0.008622 -0.173222 0.823000 14068441
-0.008538 -0.166881 0.815000 15131125
-0.008486 -0.161229 0.810000 15131120
-0.008402 -0.155053 0.802000 12830950
-0.008402 -0.150470 0.802000 11048360
-0.008444 -0.146615 0.806000 12170168
-0.008486 -0.142714 0.810000 10916512
-0.008507 -0.138427 0.812000 11379880
-0.008528 -0.134116 0.814000 10521755
-0.008559 -0.129942 0.817000 10517119
-0.008580 -0.125580 0.819000 10253644
-0.008622 -0.121490 0.823000 11509681
-0.008664 -0.117355 0.827000 10322373
-0.008685 -0.112902 0.829000 11641005
-0.008706 -0.108426 0.831000 11509169
-0.008748 -0.104176 0.835000 11313069
-0.008790 -0.099881 0.839000 11443885
-0.008831 -0.095540 0.843000 10715030
-0.007226 -0.191883 0.843000 14604514
-0.007226 -0.187066 0.843000 14605041
-0.007191 -0.181384 0.839000 11773408
-0.007054 -0.173222 0.823000 14138317
-0.006977 -0.166676 0.814000 14934771
-0.006943 -0.161229 0.810000 15196401
-0.006891 -0.155440 0.804000 13026535
-0.006891 -0.150846 0.804000 11245741
-0.006909 -0.146615 0.806000 12428985
-0.006943 -0.142714 0.810000 11180714
-0.006977 -0.138768 0.814000 11772846
-0.006977 -0.134116 0.814000 10461327
-0.007003 -0.129942 0.817000 11047325
-0.007037 -0.125887 0.821000 10262407
-0.007054 -0.121490 0.823000 11641524
-0.007089 -0.117355 0.827000 11118018
-0.007106 -0.112902 0.829000 11904692
-0.007123 -0.108426 0.831000 11640757
-0.007157 -0.104176 0.835000 11309217
-0.007174 -0.099643 0.837000 11575987
-0.007226 -0.095540 0.843000 10389156
-0.005633 -0.192338 0.845000 14670560
-0.005620 -0.187066 0.843000 14670576
-0.005607 -0.181816 0.841000 11249385
-0.005473 -0.172801 0.821000 14205376
-0.005427 -0.166676 0.814000 14934514
-0.005400 -0.161229 0.810000 15131377
-0.005347 -0.155053 0.802000 13091560
-0.005347 -0.150470 0.802000 11378610
-0.005373 -0.146615 0.806000 12171451
-0.005400 -0.142714 0.810000 11377843
-0.005427 -0.138768 0.814000 12037045
-0.005427 -0.134116 0.814000 10587779
-0.005460 -0.130260 0.819000 11708603
-0.005473 -0.125887 0.821000 11249346
-0.005500 -0.121786 0.825000 11838648
-0.005513 -0.117355 0.827000 11577279
-0.005527 -0.112902 0.829000 11971004
-0.005553 -0.108687 0.833000 11577529
-0.005567 -0.104176 0.835000 10117270
-0.005593 -0.099881 0.839000 11904696
-0.005620 -0.095540 0.843000 11244722
-0.004024 -0.192338 0.845000 14735582
-0.004024 -0.187510 0.845000 14736112
-0.004005 -0.181816 0.841000 10727392
-0.003919 -0.173222 0.823000 14338002
-0.003876 -0.166676 0.814000 14934770
-0.003857 -0.161229 0.810000 15065586
-0.003829 -0.155440 0.804000 13091557
-0.003829 -0.150846 0.804000 11576248
-0.003838 -0.146615 0.806000 11905983
-0.003857 -0.142714 0.810000 11640246
-0.003876 -0.138768 0.814000 12300480
-0.003876 -0.134116 0.814000 10782604
-0.003900 -0.130260 0.819000 12299453
-0.003910 -0.125887 0.821000 12233666
-0.003929 -0.121786 0.825000 12036539
-0.003938 -0.117355 0.827000 12101056
-0.003948 -0.112902 0.829000 11971005
-0.003967 -0.108687 0.833000 11578551
-0.003976 -0.104176 0.835000 8873364
-0.003995 -0.099881 0.839000 12167869
-0.004014 -0.095540 0.843000 12035002
-0.002414 -0.192338 0.845000 14737117
-0.002414 -0.187510 0.845000 14736367
-0.002397 -0.181384 0.839000 12039127
-0.002357 -0.173643 0.825000 14405859
-0.002326 -0.166676 0.814000 14934257
-0.002314 -0.161229 0.810000 15000306
-0.002297 -0.155440 0.804000 13091043
-0.002297 -0.150846 0.804000 11773373
-0.002309 -0.146979 0.808000 11971523
-0.002320 -0.143067 0.812000 11903929
-0.002326 -0.138768 0.814000 12367563
-0.002329 -0.134281 0.815000 11373205
-0.002340 -0.130260 0.819000 12432063
-0.002351 -0.126193 0.823000 12299457
-0.002357 -0.121786 0.825000 12235455
-0.002363 -0.117355 0.827000 12234432
-0.002369 -0.112902 0.829000 12167871
-0.002380 -0.108687 0.833000 11441332
-0.002391 -0.104426 0.837000 9918867
-0.002397 -0.099881 0.839000 12299714
-0.002409 -0.095540 0.843000 12168642
-0.000805 -0.192338 0.845000 14669272
-0.000805 -0.187510 0.845000 14736367
-0.000799 -0.181384 0.839000 13285853
-0.000786 -0.173643 0.825000 14544366
-0.000775 -0.166676 0.814000 14934256
-0.000771 -0.161229 0.810000 14934770
-0.000766 -0.155440 0.804000 13091298
-0.000766 -0.150846 0.804000 11970241
-0.000770 -0.146979 0.808000 11972296
-0.000773 -0.143067 0.812000 12100538
-0.000775 -0.138768 0.814000 12433357
-0.000776 -0.134281 0.815000 12017812
-0.000780 -0.130260 0.819000 12564929
-0.000784 -0.126193 0.823000 12365768
-0.000788 -0.122081 0.827000 12432837
-0.000788 -0.117355 0.827000 12366786
-0.000791 -0.113174 0.831000 12300739
-0.000795 -0.108948 0.835000 11248071
-0.000797 -0.104426 0.837000 10976941
-0.000799 -0.099881 0.839000 12431302
-0.000803 -0.095540 0.843000 12300739
0.000805 -0.192338 0.845000 14536659
0.000805 -0.187510 0.845000 14736623
0.000797 -0.180951 0.837000 13351395
0.000786 -0.173643 0.825000 14737912
0.000773 -0.166267 0.812000 14933999
0.000770 -0.160830 0.808000 14868978
0.000766 -0.155440 0.804000 13158370
0.000768 -0.151221 0.806000 12234180
0.000770 -0.146979 0.808000 12103884
0.000773 -0.143067 0.812000 12299195
0.000775 -0.138768 0.814000 13023695
0.000778 -0.134610 0.817000 11891859
0.000780 -0.130260 0.819000 12893891
0.000786 -0.126500 0.825000 12498126
0.000788 -0.122081 0.827000 12434379
0.000790 -0.117639 0.829000 12432836
0.000791 -0.113174 0.831000 12563912
0.000795 -0.108948 0.835000 12102105
0.000797 -0.104426 0.837000 12167111
0.000801 -0.100119 0.841000 12499145
0.000805 -0.095767 0.845000 12564165
0.002414 -0.192338 0.845000 14339284
0.002414 -0.187510 0.845000 14736368
0.002380 -0.180087 0.833000 13357290
0.002357 -0.173643 0.825000 14934772
0.002320 -0.166267 0.812000 14868719
0.002314 -0.161229 0.810000 14870002
0.002303 -0.155827 0.806000 13158370
0.002303 -0.151221 0.806000 12562900
0.002314 -0.147343 0.810000 12235987
0.002320 -0.143067 0.812000 12431301
0.002326 -0.138768 0.814000 13615056
0.002334 -0.134610 0.817000 11756426
0.002346 -0.130578 0.821000 13156300
0.002357 -0.126500 0.825000 12629970
0.002363 -0.122081 0.827000 12426161
0.002369 -0.117639 0.829000 12498886
0.002380 -0.113447 0.833000 12826829
0.002386 -0.108948 0.835000 13024731
0.002397 -0.104675 0.839000 13351889
0.002409 -0.100357 0.843000 12566207
0.002414 -0.095767 0.845000 12826820
0.004024 -0.192338 0.845000 14143701
0.004014 -0.187066 0.843000 14736624
0.003976 -0.180519 0.835000 14344177
0.003929 -0.173643 0.825000 14934256
0.003867 -0.166267 0.812000 14868719
0.003848 -0.160830 0.808000 14935282
0.003838 -0.155827 0.806000 13157603
0.003838 -0.151221 0.806000 12695779
0.003857 -0.147343 0.810000 12501211
0.003867 -0.143067 0.812000 12433615
0.003881 -0.138938 0.815000 12636114
0.003890 -0.134610 0.817000 11762560
0.003910 -0.130578 0.821000 13355221
0.003929 -0.126500 0.825000 12300246
0.003948 -0.122376 0.829000 11039384
0.003948 -0.117639 0.829000 12695240
0.003976 -0.113719 0.835000 13089746
0.003986 -0.109209 0.837000 13156572
0.003995 -0.104675 0.839000 13354459
0.004014 -0.100357 0.843000 12229044
0.005633 -0.192338 0.845000 13878734
0.005620 -0.187066 0.843000 14736881
0.005567 -0.180519 0.835000 15261937
0.005513 -0.174064 0.827000 14999792
0.005413 -0.166267 0.812000 14802414
0.005387 -0.160830 0.808000 15069431
0.005373 -0.155827 0.806000 13157347
0.005373 -0.151221 0.806000 12894173
0.005400 -0.147343 0.810000 12697304
0.005427 -0.143419 0.814000 12435931
0.005447 -0.139279 0.817000 11569090
0.005460 -0.134940 0.819000 11763856
0.005473 -0.130578 0.821000 13483197
0.005500 -0.126500 0.825000 12043235
0.005513 -0.122081 0.827000 9660590
0.005527 -0.117639 0.829000 12965079
0.005567 -0.113719 0.835000 13353435
0.005580 -0.109209 0.837000 13353182
0.005593 -0.104675 0.839000 13354199
0.005620 -0.100357 0.843000 11824308
0.007226 -0.187066 0.843000 14736625
0.007157 -0.180519 0.835000 15065072
0.007071 -0.173643 0.825000 14934255
0.006960 -0.166267 0.812000 14671086
0.006926 -0.160830 0.808000 15330811
0.006909 -0.155827 0.806000 13352931
0.006926 -0.151596 0.808000 13355223
0.006960 -0.147707 0.812000 12760789
0.006977 -0.143419 0.814000 12763879
0.007003 -0.139279 0.817000 11158962
0.007020 -0.134940 0.819000 11430303
0.007037 -0.130578 0.821000 13281702
0.007089 -0.126807 0.827000 12959983
0.007106 -0.122376 0.829000 11301060
0.007123 -0.117923 0.831000 13553381
0.007157 -0.113719 0.835000 13617636
0.007174 -0.109209 0.837000 13551072
0.007209 -0.104925 0.841000 13484499
0.007243 -0.100595 0.845000 11761843
0.008831 -0.187066 0.843000 14736112
0.008769 -0.180951 0.837000 14868720
0.008664 -0.174064 0.827000 14934255
0.008528 -0.166676 0.814000 14540526
0.008465 -0.160830 0.808000 15529977
0.008444 -0.155827 0.806000 13486824
0.008465 -0.151596 0.808000 13814753
0.008507 -0.147707 0.812000 12827360
0.008528 -0.143419 0.814000 13091025
0.008580 -0.139620 0.819000 10778794
0.008580 -0.134940 0.819000 11098007
0.008622 -0.130896 0.823000 13090237
0.008664 -0.126807 0.827000 13882348
0.008685 -0.122376 0.829000 12891612
0.008706 -0.117923 0.831000 14143977
0.008748 -0.113719 0.835000 13881060
0.008769 -0.109209 0.837000 13813985
0.008810 -0.104925 0.841000 13549280
0.008884 -0.100952 0.848000 11699921
0.010437 -0.187066 0.843000 14670830
0.010363 -0.180951 0.837000 14934256
0.010239 -0.174064 0.827000 14868463
0.010090 -0.166881 0.815000 15064559
0.010053 -0.161627 0.812000 15462134
0.010029 -0.156600 0.810000 13881837
0.010029 -0.151971 0.810000 14012395
0.010078 -0.148070 0.814000 13287915
0.010115 -0.143948 0.817000 13014971
0.010140 -0.139620 0.819000 11767715
0.010165 -0.135270 0.821000 11888015
0.010214 -0.131214 0.825000 14014164
0.010239 -0.126807 0.827000 14144488
0.010264 -0.122376 0.829000 13883891
0.010313 -0.118207 0.833000 14211052
0.010363 -0.113991 0.837000 13948133
0.010388 -0.109470 0.839000 14143970
0.010437 -0.105174 0.843000 14144493
0.010499 -0.100952 0.848000 13154286
0.012014 -0.186622 0.841000 14604779
0.011957 -0.180951 0.837000 14934770
0.011786 -0.173643 0.825000 14868463
0.011671 -0.167290 0.817000 15525616
0.011600 -0.161627 0.812000 15461878
0.011571 -0.156600 0.810000 14276846
0.011571 -0.151971 0.810000 14274288
0.011629 -0.148070 0.814000 13683943
0.011700 -0.144300 0.819000 13008061
0.011729 -0.139961 0.821000 12749990
0.011729 -0.135270 0.821000 12673695
0.011786 -0.131214 0.825000 14932966
0.011843 -0.127113 0.829000 14471917
0.011843 -0.122376 0.829000 14801907
0.011929 -0.118490 0.835000 14343406
0.011957 -0.113991 0.837000 14010336
0.012014 -0.109730 0.841000 14473450
0.012043 -0.105174 0.843000 14669553
0.012171 -0.101429 0.852000 14608369
0.013616 -0.186622 0.841000 14472936
0.013519 -0.180519 0.835000 14935029
0.013325 -0.173222 0.823000 14736622
0.013195 -0.166881 0.815000 15921394
0.013147 -0.161627 0.812000 15329781
0.013147 -0.156987 0.812000 14474735
0.013147 -0.152347 0.812000 14540533
0.013228 -0.148616 0.817000 13813730
0.013292 -0.144652 0.821000 12751038
0.013325 -0.140302 0.823000 12419497
0.013325 -0.135599 0.823000 12950446
0.013390 -0.131532 0.827000 15196920
0.013454 -0.127420 0.831000 14736370
0.013454 -0.122671 0.831000 14934514
0.013519 -0.118490 0.835000 13943536
0.013584 -0.114264 0.839000 13738970
0.013649 -0.109991 0.843000 14736626
0.013681 -0.105424 0.845000 14935286
0.013794 -0.101429 0.852000 14803188
0.015037 -0.179654 0.831000 14867179
0.014892 -0.173222 0.823000 14605032
0.014748 -0.166881 0.815000 16248821
0.014730 -0.162025 0.814000 15197939
0.014693 -0.156987 0.812000 14604783
0.014693 -0.152347 0.812000 14806006
0.014820 -0.148980 0.819000 13945834
0.014856 -0.144652 0.821000 12482264
0.014929 -0.140643 0.825000 12092605
0.014965 -0.136258 0.827000 13226446
0.015037 -0.132169 0.831000 15393265
0.015073 -0.127727 0.833000 15065074
0.015110 -0.123262 0.835000 15065586
0.015146 -0.118774 0.837000 13544173
0.015254 -0.114809 0.843000 13419490
0.015254 -0.109991 0.843000 14998769
0.015381 -0.106048 0.850000 15130094
0.015417 -0.101429 0.852000 15064040
0.016620 -0.179654 0.831000 14338273
0.016460 -0.173222 0.823000 14801378
0.016340 -0.167290 0.817000 15923192
0.016280 -0.162025 0.814000 14934512
0.016280 -0.157373 0.814000 14604271
0.016280 -0.152722 0.814000 14803702
0.016420 -0.149344 0.821000 14805745
0.016460 -0.145005 0.823000 12889586
0.016540 -0.140984 0.827000 13476816
0.016580 -0.136588 0.829000 13358317
0.016700 -0.132805 0.835000 14343402
0.016700 -0.128033 0.835000 14737137
0.016740 -0.123557 0.837000 15131378
0.016780 -0.119058 0.839000 14335978
0.016860 -0.114809 0.843000 14474217
0.016900 -0.110252 0.845000 15065072
0.017040 -0.106297 0.852000 14208230
0.018203 -0.179654 0.831000 13818350
0.018071 -0.173643 0.825000 14999280
0.017940 -0.167700 0.819000 15592950
0.017830 -0.162025 0.814000 14670829
0.017830 -0.157373 0.814000 14604272
0.017896 -0.153285 0.817000 14803700
0.017984 -0.149344 0.821000 15654385
0.018028 -0.145005 0.823000 13359592
0.018115 -0.140984 0.827000 14864102
0.018159 -0.136588 0.829000 13491435
0.018290 -0.132805 0.835000 13283300
0.018334 -0.128340 0.837000 14476276
0.018378 -0.123852 0.839000 15131636
0.018378 -0.119058 0.839000 15066356
0.018575 -0.115490 0.848000 15458544
0.018575 -0.110644 0.848000 15195889
0.018663 -0.106297 0.852000 13224161
0.019643 -0.173643 0.825000 15528190
0.019500 -0.167700 0.819000 15394548
0.019452 -0.162622 0.817000 14538474
0.019405 -0.157567 0.815000 14604273
0.019548 -0.154035 0.821000 14736370
0.019595 -0.149708 0.823000 14866672
0.019595 -0.145005 0.823000 13947614
0.019690 -0.140984 0.827000 15268605
0.019833 -0.137247 0.833000 13815528
0.019929 -0.133123 0.837000 13740766
0.020024 -0.128953 0.841000 15131895
0.020071 -0.124443 0.843000 15460086
0.020071 -0.119626 0.843000 15198717
0.020190 -0.115490 0.848000 14736886
0.020238 -0.110905 0.850000 15327729
0.020286 -0.106297 0.852000 13873884
0.021163 -0.173222 0.823000 16118261
0.021009 -0.167290 0.817000 15129579
0.021009 -0.162622 0.817000 14406379
0.021009 -0.157953 0.817000 14603755
0.021060 -0.153660 0.819000 14735589
0.021111 -0.149344 0.821000 14077669
0.021266 -0.145710 0.827000 14536416
0.021317 -0.141325 0.829000 15656432
0.021420 -0.137247 0.833000 14143979
0.021471 -0.132805 0.835000 14207717
0.021523 -0.128340 0.837000 15788784
0.021677 -0.124443 0.843000 15722480
0.021677 -0.119626 0.843000 15262955
0.021857 -0.115762 0.850000 14012130
0.021857 -0.110905 0.850000 15459060
0.021960 -0.106547 0.854000 14539243
0.022730 -0.173222 0.823000 14866923
0.022565 -0.167290 0.817000 14338786
0.022620 -0.163020 0.819000 14143980
0.022620 -0.158340 0.819000 14077158
0.022620 -0.153660 0.819000 13944535
0.022675 -0.149344 0.821000 13813465
0.022841 -0.145710 0.827000 14142690
0.022896 -0.141325 0.829000 14603236
0.023117 -0.137906 0.837000 14143470
0.023117 -0.133123 0.837000 14276332
0.023172 -0.128647 0.839000 14801641
0.023283 -0.124443 0.843000 15000299
0.023421 -0.120335 0.848000 14467289
0.023476 -0.115762 0.850000 14075087
0.023531 -0.111166 0.852000 15064055
0.023587 -0.106547 0.854000 14675195
0.024298 -0.173222 0.823000 13615055
0.024121 -0.167290 0.817000 13548490
0.024239 -0.163418 0.821000 13947601
0.024180 -0.158340 0.819000 13482697
0.024298 -0.154410 0.823000 13216703
0.024357 -0.150071 0.825000 13482179
0.024416 -0.145710 0.827000 13747657
0.024475 -0.141325 0.829000 13482695
0.024711 -0.137906 0.837000 14073295
0.024711 -0.133123 0.837000 14271183
0.024770 -0.128647 0.839000 13811150
0.024889 -0.124443 0.843000 14205391
0.025036 -0.120335 0.848000 13608137
0.025154 -0.116034 0.852000 14074565
0.025154 -0.111166 0.852000 14664660
0.025213 -0.106547 0.854000 14797783
0.025866 -0.173222 0.823000 13611698
0.025677 -0.167290 0.817000 13544882
0.025803 -0.163418 0.821000 13546933
0.025740 -0.158340 0.819000 13346476
0.025866 -0.154410 0.823000 13215654
0.025929 -0.150071 0.825000 13413293
0.025991 -0.145710 0.827000 13480367
0.026306 -0.137906 0.837000 13742512
0.026306 -0.133123 0.837000 13806771
0.026369 -0.128647 0.839000 13743283
0.026714 -0.120619 0.850000 13742521
0.026777 -0.116034 0.852000 14006460
0.026840 -0.106547 0.854000 14398644
0.027367 -0.163418 0.821000 13150902
0.027300 -0.158340 0.819000 13215918
0.027900 -0.133123 0.837000 13283509
0.028333 -0.120619 0.850000 13875387
-0.051319 -0.168169 0.829000 13613495
-0.051319 -0.163431 0.829000 13280419
-0.049860 -0.173323 0.831000 12156065
-0.049740 -0.168169 0.829000 11967407
-0.049500 -0.162643 0.825000 11435140
-0.048626 -0.179357 0.837000 12101836
-0.048161 -0.172906 0.829000 10920135
-0.047929 -0.167357 0.825000 10325414
-0.047812 -0.162249 0.823000 9600396
-0.047929 -0.157929 0.825000 10976908
-0.048045 -0.153586 0.827000 12688540
-0.048510 -0.145529 0.835000 13476249
-0.048626 -0.141094 0.837000 13675689
-0.048858 -0.136963 0.841000 13479335
-0.049090 -0.132786 0.845000 13546922
-0.049730 -0.119840 0.856000 13150635
-0.047256 -0.185020 0.841000 13018546
-0.047031 -0.179357 0.837000 13617899
-0.046582 -0.172906 0.829000 13159405
-0.046245 -0.166951 0.823000 10852764
-0.046132 -0.161854 0.821000 9994132
-0.046245 -0.157546 0.823000 10386808
-0.046357 -0.153214 0.825000 11240834
-0.046694 -0.149580 0.831000 10913172
-0.046919 -0.145529 0.835000 11369084
-0.046919 -0.140757 0.835000 12030619
-0.047144 -0.136637 0.839000 12294552
-0.047369 -0.132471 0.843000 11967896
-0.047650 -0.128411 0.848000 12427421
-0.047987 -0.124440 0.854000 12559019
-0.048099 -0.119840 0.856000 12361385
-0.048211 -0.115217 0.858000 12362410
-0.045654 -0.185020 0.841000 12826307
-0.045437 -0.179357 0.837000 15135730
-0.044894 -0.172489 0.827000 15327217
-0.044677 -0.166951 0.823000 11444935
-0.044460 -0.161460 0.819000 10323605
-0.044460 -0.156780 0.819000 9797249
-0.044569 -0.152471 0.821000 9798535
-0.045003 -0.149220 0.829000 8811377
-0.045220 -0.145180 0.833000 9201006
-0.045329 -0.140757 0.835000 10451321
-0.045546 -0.136637 0.839000 11045511
-0.045654 -0.132157 0.841000 10451588
-0.045871 -0.127957 0.845000 11436156
-0.046034 -0.123566 0.848000 11835800
-0.046251 -0.119280 0.852000 11572117
-0.046360 -0.114680 0.854000 12031894
-0.043948 -0.184580 0.839000 14208213
-0.043843 -0.179357 0.837000 15133176
-0.043110 -0.171654 0.823000 15132661
-0.043005 -0.166546 0.821000 12040946
-0.042795 -0.161066 0.817000 10389398
-0.042795 -0.156397 0.817000 9731978
-0.042900 -0.152100 0.819000 9798540
-0.043214 -0.148500 0.825000 9005389
-0.043529 -0.144831 0.831000 9197921
-0.043633 -0.140420 0.833000 9328982
-0.043843 -0.136311 0.837000 10649974
-0.044052 -0.132157 0.841000 10185071
-0.044052 -0.127351 0.841000 10442076
-0.044157 -0.122837 0.843000 10979461
-0.044524 -0.119000 0.850000 10911873
-0.044629 -0.114411 0.852000 11110529
-0.044733 -0.109800 0.854000 10582397
-0.044838 -0.105166 0.856000 10321800
-0.042350 -0.184580 0.839000 15522785
-0.042249 -0.179357 0.837000 15195123
-0.041744 -0.172489 0.827000 14868978
