# .PCD v.7 - Point Cloud Data file format
VERSION .7
FIELDS x y z rgb
SIZE 4 4 4 4
TYPE F F F I
COUNT 1 1 1 1
WIDTH 1271
HEIGHT 1
POINTS 1271
DATA ascii
-0.050452 -0.126519 0.815000 10319993
-0.050700 -0.122460 0.819000 8486022
-0.050824 -0.118068 0.821000 6960970
-0.051071 -0.113929 0.825000 9862276
-0.051195 -0.109479 0.827000 9993091
-0.051319 -0.105007 0.829000 9927556
-0.051443 -0.100511 0.831000 9927559
-0.051690 -0.096224 0.835000 8616566
-0.051814 -0.091671 0.837000 10056301
-0.051938 -0.087096 0.839000 9993089
-0.051360 -0.191581 0.856000 13285313
-0.050880 -0.184945 0.848000 13090019
-0.050580 -0.179037 0.843000 11830955
-0.049380 -0.170087 0.823000 13085893
-0.048840 -0.163575 0.814000 13813738
-0.048120 -0.156581 0.802000 11705556
-0.048120 -0.151998 0.802000 9664660
-0.048240 -0.147783 0.804000 9403522
-0.048360 -0.143545 0.806000 9204097
-0.048480 -0.139284 0.808000 9075591
-0.048720 -0.135333 0.812000 8207205
-0.048840 -0.131015 0.814000 7950163
-0.048900 -0.126519 0.815000 8877431
-0.049140 -0.122460 0.819000 9272202
-0.049260 -0.118068 0.821000 7881045
-0.049500 -0.113929 0.825000 9926789
-0.049620 -0.109479 0.827000 10059141
-0.049740 -0.105007 0.829000 9993606
-0.049860 -0.100511 0.831000 9993354
-0.049980 -0.095993 0.833000 8670068
-0.050220 -0.091671 0.837000 9860702
-0.050340 -0.087096 0.839000 9993346
-0.049730 -0.191581 0.856000 13218239
-0.049381 -0.185381 0.850000 13223143
-0.048742 -0.178188 0.839000 11438260
-0.047929 -0.170500 0.825000 13285059
-0.047290 -0.163575 0.814000 13813995
-0.046592 -0.156581 0.802000 11767766
-0.046592 -0.151998 0.802000 9535380
-0.046709 -0.147783 0.804000 9535108
-0.046825 -0.143545 0.806000 9335682
-0.046941 -0.139284 0.808000 9206916
-0.047173 -0.135333 0.812000 8474202
-0.047290 -0.131015 0.814000 7160405
-0.047348 -0.126519 0.815000 7432043
-0.047580 -0.122460 0.819000 10126217
-0.047696 -0.118068 0.821000 8739952
-0.047929 -0.113929 0.825000 9930375
-0.048045 -0.109479 0.827000 10059655
-0.048161 -0.105007 0.829000 10059398
-0.048277 -0.100511 0.831000 9994122
-0.048393 -0.095993 0.833000 8731246
-0.048510 -0.091452 0.835000 9597799
-0.048626 -0.086889 0.837000 9993348
-0.048099 -0.191581 0.856000 13349310
-0.047762 -0.185381 0.850000 13221866
-0.047144 -0.178188 0.839000 11965885
-0.046357 -0.170500 0.825000 13217473
-0.045795 -0.163776 0.815000 13944299
-0.045065 -0.156581 0.802000 11837144
-0.044952 -0.151619 0.800000 9534357
-0.045177 -0.147783 0.804000 9600901
-0.045290 -0.143545 0.806000 9335683
-0.045402 -0.139284 0.808000 9135488
-0.045627 -0.135333 0.812000 8539984
-0.045739 -0.131015 0.814000 7618903
-0.045795 -0.126519 0.815000 8872799
-0.046020 -0.122460 0.819000 10126216
-0.046132 -0.118068 0.821000 9666187
-0.046357 -0.113929 0.825000 10060425
-0.046470 -0.109479 0.827000 10125448
-0.046582 -0.105007 0.829000 10125446
-0.046694 -0.100511 0.831000 10060171
-0.046807 -0.095993 0.833000 9063783
-0.046919 -0.091452 0.835000 9797487
-0.047031 -0.086889 0.837000 10125190
-0.046360 -0.191133 0.854000 13414080
-0.046143 -0.185381 0.850000 13289190
-0.045437 -0.177763 0.837000 12491202
-0.044786 -0.170500 0.825000 13216956
-0.044189 -0.163575 0.814000 14010860
-0.043537 -0.156581 0.802000 11965147
-0.043429 -0.151619 0.800000 9535894
-0.043646 -0.147783 0.804000 9732230
-0.043754 -0.143545 0.806000 9336710
-0.043863 -0.139284 0.808000 9068924
-0.043971 -0.135000 0.810000 8604243
-0.044189 -0.131015 0.814000 8143959
-0.044243 -0.126519 0.815000 10251113
-0.044460 -0.122460 0.819000 10191243
-0.044569 -0.118068 0.821000 10519436
-0.044786 -0.113929 0.825000 10256778
-0.044894 -0.109479 0.827000 10125708
-0.044894 -0.104753 0.827000 10191498
-0.045003 -0.100270 0.829000 10125965
-0.045220 -0.095993 0.833000 9460860
-0.045329 -0.091452 0.835000 9992831
-0.045437 -0.086889 0.837000 10191236
-0.044733 -0.191133 0.854000 13348291
-0.044419 -0.184945 0.848000 13551585
-0.044052 -0.178612 0.841000 12226759
-0.043110 -0.170087 0.823000 13149366
-0.042638 -0.163575 0.814000 14076397
-0.042010 -0.156581 0.802000 12034269
-0.041905 -0.151619 0.800000 9599895
-0.042010 -0.147415 0.802000 9731975
-0.042219 -0.143545 0.806000 9533833
-0.042324 -0.139284 0.808000 9135224
-0.042429 -0.135000 0.810000 8670805
-0.042638 -0.131015 0.814000 7749207
-0.042690 -0.126519 0.815000 10255986
-0.042900 -0.122460 0.819000 10257294
-0.043005 -0.118068 0.821000 10454157
-0.043110 -0.113652 0.823000 10322826
-0.043319 -0.109479 0.827000 10060688
-0.043319 -0.104753 0.827000 10257549
-0.043529 -0.100511 0.831000 10257039
-0.043633 -0.095993 0.833000 9927057
-0.043843 -0.091671 0.837000 10192015
-0.043843 -0.086889 0.837000 9599617
-0.043107 -0.191133 0.854000 13216963
-0.042905 -0.185381 0.850000 13747938
-0.042350 -0.178188 0.839000 11897793
-0.041542 -0.170087 0.823000 13153466
-0.040987 -0.163173 0.812000 14142702
-0.040583 -0.156971 0.804000 12096221
-0.040381 -0.151619 0.800000 9601945
-0.040482 -0.147415 0.802000 9797515
-0.040684 -0.143545 0.806000 9730700
-0.040785 -0.139284 0.808000 9205359
-0.040886 -0.135000 0.810000 8669779
-0.041088 -0.131015 0.814000 7420749
-0.041138 -0.126519 0.815000 10186870
-0.041340 -0.122460 0.819000 10388625
-0.041441 -0.118068 0.821000 10388881
-0.041542 -0.113652 0.823000 10389135
-0.041744 -0.109479 0.827000 9990516
-0.041744 -0.104753 0.827000 10323589
-0.041845 -0.100270 0.829000 10388369
-0.042047 -0.095993 0.833000 10454417
-0.042148 -0.091452 0.835000 10323087
-0.042249 -0.086889 0.837000 9076359
-0.041189 -0.184945 0.848000 13747683
-0.040751 -0.178188 0.839000 11630779
-0.040071 -0.170500 0.825000 13086909
-0.039440 -0.163173 0.812000 14208239
-0.039051 -0.156971 0.804000 12100316
-0.038857 -0.151619 0.800000 9797787
-0.038954 -0.147415 0.802000 9863055
-0.039149 -0.143545 0.806000 9731216
-0.039246 -0.139284 0.808000 9132133
-0.039343 -0.135000 0.810000 8474448
-0.039537 -0.131015 0.814000 8011587
-0.039586 -0.126519 0.815000 10124922
-0.039780 -0.122460 0.819000 10389139
-0.039877 -0.118068 0.821000 10454677
-0.040071 -0.113929 0.825000 10520723
-0.040169 -0.109479 0.827000 8341337
-0.040266 -0.105007 0.829000 10186621
-0.040266 -0.100270 0.829000 10519443
-0.040460 -0.095993 0.833000 10519953
-0.040557 -0.091452 0.835000 10454671
-0.040654 -0.086889 0.837000 9266573
-0.039573 -0.184945 0.848000 13746914
-0.039060 -0.177763 0.837000 11310787
-0.038313 -0.169673 0.821000 13022910
-0.037800 -0.162771 0.810000 14274542
-0.037520 -0.156971 0.804000 12165083
-0.037333 -0.151619 0.800000 9930400
-0.037427 -0.147415 0.802000 9994133
-0.037520 -0.143189 0.804000 9731985
-0.037707 -0.139284 0.808000 8998268
-0.037893 -0.135333 0.812000 8277096
-0.037987 -0.131015 0.814000 8663645
-0.038033 -0.126519 0.815000 10061187
-0.038220 -0.122460 0.819000 10454938
-0.038313 -0.118068 0.821000 10520728
-0.038500 -0.113929 0.825000 10717843
-0.038593 -0.109479 0.827000 6707546
-0.038593 -0.104753 0.827000 10114686
-0.038687 -0.100270 0.829000 10586005
-0.038873 -0.095993 0.833000 10585748
-0.039060 -0.091671 0.837000 10586257
-0.039153 -0.087096 0.839000 9468306
-0.037824 -0.184290 0.845000 13747169
-0.037466 -0.177763 0.837000 11511499
-0.036660 -0.169260 0.819000 12954303
-0.036257 -0.162771 0.810000 14207981
-0.035989 -0.156971 0.804000 12102361
-0.035810 -0.151619 0.800000 10256549
-0.035899 -0.147415 0.802000 10126235
-0.036078 -0.143545 0.806000 9994899
-0.036257 -0.139629 0.810000 9793426
-0.036257 -0.135000 0.810000 7491201
-0.036436 -0.131015 0.814000 8739703
-0.036481 -0.126519 0.815000 10456717
-0.036660 -0.122460 0.819000 10652832
-0.036750 -0.118068 0.821000 10718363
-0.036839 -0.113652 0.823000 10717587
-0.037018 -0.109479 0.827000 7488604
-0.037018 -0.104753 0.827000 10120574
-0.037108 -0.100270 0.829000 10651800
-0.037287 -0.095993 0.833000 10717591
-0.037466 -0.091671 0.837000 10718355
-0.037555 -0.087096 0.839000 10124695
-0.036214 -0.184290 0.845000 13746917
-0.036043 -0.178612 0.841000 11709653
-0.035100 -0.169260 0.819000 12891842
-0.034714 -0.162771 0.810000 14077166
-0.034457 -0.156971 0.804000 12037076
-0.034371 -0.151998 0.802000 10584742
-0.034457 -0.147783 0.804000 10258079
-0.034629 -0.143901 0.808000 10257302
-0.034714 -0.139629 0.810000 10586522
-0.034800 -0.135333 0.812000 6715273
-0.034929 -0.131176 0.815000 8746378
-0.035014 -0.126830 0.817000 10782350
-0.035100 -0.122460 0.819000 10850188
-0.035186 -0.118068 0.821000 10914448
-0.035271 -0.113652 0.823000 10783640
-0.035357 -0.109214 0.825000 8285568
-0.035529 -0.105007 0.829000 10060690
-0.035614 -0.100511 0.831000 10718106
-0.035786 -0.096224 0.835000 10783644
-0.035871 -0.091671 0.837000 10779270
-0.035957 -0.087096 0.839000 10849691
-0.034605 -0.184290 0.845000 13747433
-0.034277 -0.177763 0.837000 12895968
-0.033622 -0.169673 0.821000 13088453
-0.033171 -0.162771 0.810000 14076911
-0.032926 -0.156971 0.804000 11972046
-0.032844 -0.151998 0.802000 10716327
-0.032926 -0.147783 0.804000 10455458
-0.033090 -0.143901 0.808000 10454170
-0.033171 -0.139629 0.810000 10653602
-0.033335 -0.135667 0.814000 8554897
-0.033376 -0.131176 0.815000 9535900
-0.033458 -0.126830 0.817000 10652559
-0.033622 -0.122759 0.821000 9133175
-0.033704 -0.118355 0.823000 11177348
-0.033704 -0.113652 0.823000 10915741
-0.033786 -0.109214 0.825000 9801380
-0.033950 -0.105007 0.829000 10587301
-0.034031 -0.100511 0.831000 10849437
-0.034195 -0.096224 0.835000 10716832
-0.034277 -0.091671 0.837000 9848184
-0.034359 -0.087096 0.839000 11046815
-0.032839 -0.183418 0.841000 13747942
-0.032683 -0.177763 0.837000 14075105
-0.032136 -0.170087 0.823000 13352151
-0.031550 -0.162370 0.808000 14077420
-0.031316 -0.156581 0.802000 11907279
-0.031316 -0.151998 0.802000 10848167
-0.031472 -0.148150 0.806000 10652847
-0.031550 -0.143901 0.808000 10585755
-0.031629 -0.139629 0.810000 10720161
-0.031785 -0.135667 0.814000 10387858
-0.031824 -0.131176 0.815000 10326433
-0.031902 -0.126830 0.817000 10520466
-0.032058 -0.122759 0.821000 7422303
-0.032136 -0.118355 0.823000 11371921
-0.032214 -0.113929 0.825000 11047331
-0.032292 -0.109479 0.827000 11309733
-0.032370 -0.105007 0.829000 11177893
-0.032527 -0.100753 0.833000 10981021
-0.032605 -0.096224 0.835000 10588580
-0.032683 -0.091671 0.837000 8868470
-0.032761 -0.087096 0.839000 11243426
-0.031237 -0.183418 0.841000 13682147
-0.030940 -0.176913 0.833000 13878755
-0.030569 -0.170087 0.823000 13748200
-0.030086 -0.162771 0.810000 14208746
-0.029863 -0.156971 0.804000 11905743
-0.029863 -0.152377 0.804000 10981800
-0.029937 -0.148150 0.806000 10719675
-0.030011 -0.143901 0.808000 10716573
-0.030160 -0.139973 0.812000 10720159
-0.030234 -0.135667 0.814000 9796243
-0.030271 -0.131176 0.815000 10917029
-0.030346 -0.126830 0.817000 9929877
-0.030494 -0.122759 0.821000 8539975
-0.030494 -0.118068 0.821000 11505567
-0.030643 -0.113929 0.825000 11244456
-0.030717 -0.109479 0.827000 11375271
-0.030866 -0.105260 0.831000 11244453
-0.030940 -0.100753 0.833000 11112350
-0.031014 -0.096224 0.835000 10587048
-0.031089 -0.091671 0.837000 8735347
-0.031163 -0.087096 0.839000 10653604
-0.029565 -0.182982 0.839000 13682659
-0.029353 -0.176913 0.833000 13616611
-0.029071 -0.170500 0.825000 14076648
-0.028472 -0.162370 0.808000 14274539
-0.028331 -0.156971 0.804000 11839951
-0.028331 -0.152377 0.804000 11047340
-0.028472 -0.148518 0.808000 10855872
-0.028543 -0.144257 0.810000 10782368
-0.028613 -0.139973 0.812000 10722211
-0.028684 -0.135667 0.814000 9208220
-0.028719 -0.131176 0.815000 11442087
-0.028790 -0.126830 0.817000 9276063
-0.028930 -0.122759 0.821000 9660537
-0.029001 -0.118355 0.823000 11638441
-0.029071 -0.113929 0.825000 11441580
-0.029142 -0.109479 0.827000 11376043
-0.029283 -0.105260 0.831000 11377068
-0.029424 -0.100995 0.835000 11243418
-0.029424 -0.096224 0.835000 10656426
-0.029494 -0.091671 0.837000 8615060
-0.029565 -0.087096 0.839000 10129037
-0.027900 -0.182546 0.837000 13682147
-0.027767 -0.176913 0.833000 13681892
-0.027433 -0.170087 0.823000 14076392
-0.026933 -0.162370 0.808000 14340076
-0.026800 -0.156971 0.804000 11838671
-0.026800 -0.152377 0.804000 11245232
-0.026933 -0.148518 0.808000 10984388
-0.027000 -0.144257 0.810000 10980003
-0.027067 -0.139973 0.812000 10720679
-0.027133 -0.135667 0.814000 10193573
-0.027167 -0.131176 0.815000 11507880
-0.027300 -0.127140 0.819000 10590890
-0.027367 -0.122759 0.821000 10783402
-0.027433 -0.118355 0.823000 11705268
-0.027567 -0.114205 0.827000 11573424
-0.027633 -0.109744 0.829000 11508144
-0.027767 -0.105513 0.833000 10852019
-0.027833 -0.100995 0.835000 11372951
-0.027900 -0.096454 0.837000 11180460
-0.027967 -0.091890 0.839000 10261428
-0.028033 -0.087304 0.841000 9465206
-0.026306 -0.182546 0.837000 13682149
-0.026243 -0.177338 0.835000 13747173
-0.025866 -0.170087 0.823000 14076649
-0.025520 -0.163173 0.812000 14405355
-0.025331 -0.157362 0.806000 11837648
-0.025331 -0.152756 0.806000 11377076
-0.025394 -0.148518 0.808000 11051202
-0.025457 -0.144257 0.810000 11178152
-0.025583 -0.140318 0.814000 10786220
-0.025583 -0.135667 0.814000 11177132
-0.025677 -0.131498 0.817000 11573935
-0.025740 -0.127140 0.819000 11836595
-0.025866 -0.123058 0.823000 11967925
-0.025929 -0.118643 0.825000 11705527
-0.025991 -0.114205 0.827000 11705014
-0.026054 -0.109744 0.829000 11639733
-0.026180 -0.105513 0.833000 10328202
-0.026243 -0.100995 0.835000 11436946
-0.026369 -0.096685 0.839000 11770546
-0.026431 -0.092110 0.841000 11836086
-0.026494 -0.087511 0.843000 8800626
-0.024711 -0.182546 0.837000 13616102
-0.024593 -0.176913 0.833000 13812454
-0.024298 -0.170087 0.823000 14076649
-0.024032 -0.163575 0.814000 14209259
-0.023796 -0.157362 0.806000 11904977
-0.023855 -0.153135 0.808000 11508664
-0.023914 -0.148886 0.810000 11180735
-0.023973 -0.144613 0.812000 11376046
-0.024032 -0.140318 0.814000 10918320
-0.024062 -0.135833 0.815000 11374259
-0.024180 -0.131820 0.819000 11705782
-0.024239 -0.127450 0.821000 11902395
-0.024298 -0.123058 0.823000 11968191
-0.024357 -0.118643 0.825000 11836603
-0.024475 -0.114481 0.829000 11837116
-0.024534 -0.110009 0.831000 11902395
-0.024593 -0.105513 0.833000 9924704
-0.024652 -0.100995 0.835000 11636109
-0.024770 -0.096685 0.839000 11836855
-0.024830 -0.092110 0.841000 11968183
-0.023062 -0.182110 0.835000 13550821
-0.023007 -0.176913 0.833000 13813221
-0.022620 -0.169260 0.819000 14076906
-0.022427 -0.163173 0.812000 14010092
-0.022261 -0.157362 0.806000 11972813
-0.022261 -0.152756 0.806000 11640510
-0.022371 -0.148886 0.810000 11375042
-0.022427 -0.144613 0.812000 11573942
-0.022482 -0.140318 0.814000 11116980
-0.022565 -0.136167 0.817000 11573432
-0.022620 -0.131820 0.819000 11903677
-0.022675 -0.127450 0.821000 11903168
-0.022786 -0.123357 0.825000 11968706
-0.022841 -0.118930 0.827000 11903936
-0.022896 -0.114481 0.829000 11968959
-0.023007 -0.110273 0.833000 12100033
-0.023007 -0.105513 0.833000 9581414
-0.023117 -0.101237 0.837000 11764902
-0.023228 -0.096915 0.841000 11903417
-0.023283 -0.092329 0.843000 12034236
-0.021369 -0.181237 0.831000 13550307
-0.021317 -0.176064 0.829000 13944292
-0.021060 -0.169260 0.819000 14142443
-0.020880 -0.163173 0.812000 14009838
-0.020777 -0.157752 0.808000 12036296
-0.020777 -0.153135 0.808000 11641028
-0.020880 -0.149253 0.812000 11573701
-0.020931 -0.144970 0.814000 11904191
-0.020931 -0.140318 0.814000 10919095
-0.021009 -0.136167 0.817000 11969725
-0.021111 -0.132142 0.821000 12101315
-0.021111 -0.127450 0.821000 12166085
-0.021214 -0.123357 0.825000 12167109
-0.021214 -0.118643 0.825000 12168902
-0.021317 -0.114481 0.829000 12232130
-0.021369 -0.110009 0.831000 12364487
-0.021420 -0.105513 0.833000 10182764
-0.021471 -0.100995 0.835000 12102592
-0.021574 -0.096685 0.839000 12100539
-0.021626 -0.092110 0.841000 12231618
-0.019786 -0.181237 0.831000 13550293
-0.019738 -0.176064 0.829000 14010340
-0.019500 -0.169260 0.819000 14207976
-0.019381 -0.163575 0.814000 14011374
-0.019286 -0.158143 0.810000 12100297
-0.019286 -0.153514 0.810000 11642066
-0.019333 -0.149253 0.812000 11772356
-0.019381 -0.144970 0.814000 12166591
-0.019405 -0.140490 0.815000 10722748
-0.019500 -0.136500 0.819000 12298435
-0.019548 -0.132142 0.821000 12233161
-0.019595 -0.127761 0.823000 12364231
-0.019690 -0.123656 0.827000 12430799
-0.019690 -0.118930 0.827000 12360630
-0.019738 -0.114481 0.829000 12430022
-0.019833 -0.110273 0.833000 12627148
-0.019881 -0.105767 0.835000 10841501
-0.019929 -0.101237 0.837000 12431818
-0.020024 -0.096915 0.841000 12362951
-0.020071 -0.092329 0.843000 12429510
-0.018159 -0.180801 0.829000 13482695
-0.018115 -0.175639 0.827000 13813733
-0.017940 -0.169260 0.819000 14273764
-0.017830 -0.163575 0.814000 13946862
-0.017787 -0.158533 0.812000 12298185
-0.017743 -0.153514 0.810000 12298720
-0.017830 -0.149621 0.814000 11968962
-0.017852 -0.145148 0.815000 12496320
-0.017896 -0.140835 0.817000 11246529
-0.017940 -0.136500 0.819000 12169673
-0.018028 -0.132464 0.823000 12233422
-0.018071 -0.128071 0.825000 12562377
-0.018115 -0.123656 0.827000 11839193
-0.018159 -0.119218 0.829000 10771366
-0.018203 -0.114757 0.831000 12758986
-0.018247 -0.110273 0.833000 12627666
-0.018290 -0.105767 0.835000 11967949
-0.018334 -0.101237 0.837000 12628949
-0.018422 -0.096915 0.841000 12561875
-0.018466 -0.092329 0.843000 12627146
-0.016580 -0.180801 0.829000 13415624
-0.016580 -0.176064 0.829000 13616094
-0.016420 -0.169673 0.821000 14272492
-0.016300 -0.163776 0.815000 13814762
-0.016280 -0.158924 0.814000 12429780
-0.016240 -0.153893 0.812000 12958434
-0.016280 -0.149621 0.814000 12228800
-0.016340 -0.145504 0.817000 12825297
-0.016380 -0.141180 0.819000 11704255
-0.016420 -0.136833 0.821000 11966399
-0.016500 -0.132786 0.825000 12296613
-0.016540 -0.128382 0.827000 12694481
-0.016580 -0.123955 0.829000 11312342
-0.016620 -0.119506 0.831000 9132972
-0.016740 -0.115586 0.837000 13022422
-0.016740 -0.110803 0.837000 12628181
-0.016700 -0.105767 0.835000 13153749
-0.016780 -0.101479 0.839000 12825558
-0.016860 -0.097146 0.843000 12825807
-0.016860 -0.092329 0.843000 12757964
-0.014965 -0.175639 0.827000 13547224
-0.014856 -0.169673 0.821000 14275060
-0.014784 -0.164178 0.817000 13682151
-0.014730 -0.158924 0.814000 12693727
-0.014730 -0.154272 0.814000 13289188
-0.014784 -0.150172 0.817000 12560318
-0.014820 -0.145860 0.819000 12829409
-0.014892 -0.141870 0.823000 12099517
-0.014929 -0.137500 0.825000 11956661
-0.014965 -0.133108 0.827000 12290427
-0.015001 -0.128692 0.829000 13024728
-0.015037 -0.124254 0.831000 11638739
-0.015073 -0.119793 0.833000 10770099
-0.015146 -0.115586 0.837000 13220321
-0.015182 -0.111068 0.839000 12891609
-0.015182 -0.106273 0.839000 13219805
-0.015254 -0.101963 0.843000 12956886
-0.015290 -0.097376 0.845000 12625099
-0.015290 -0.092548 0.845000 12821711
-0.013390 -0.175639 0.827000 13485795
-0.013292 -0.169673 0.821000 14278644
-0.013228 -0.164178 0.817000 13549540
-0.013195 -0.159119 0.815000 13022175
-0.013195 -0.154462 0.815000 13615329
-0.013292 -0.150908 0.821000 12953553
-0.013292 -0.146216 0.821000 12760803
-0.013325 -0.141870 0.823000 12559803
-0.013390 -0.137833 0.827000 11967692
-0.013422 -0.133430 0.829000 12290220
-0.013487 -0.129313 0.833000 13352924
-0.013454 -0.124254 0.831000 11976414
-0.013519 -0.120081 0.835000 12425164
-0.013584 -0.115862 0.839000 13417184
-0.013616 -0.111332 0.841000 13151697
-0.013649 -0.106780 0.843000 13285341
-0.013730 -0.102568 0.848000 13089500
-0.013730 -0.097722 0.848000 12485580
-0.013730 -0.092876 0.848000 12889813
-0.011814 -0.175639 0.827000 13951470
-0.011700 -0.169260 0.819000 14143987
-0.011700 -0.164580 0.819000 12957665
-0.011671 -0.159510 0.817000 12956895
-0.011700 -0.155220 0.819000 13287902
-0.011729 -0.150908 0.821000 12956644
-0.011757 -0.146572 0.823000 12698085
-0.011786 -0.142214 0.825000 12493241
-0.011843 -0.138167 0.829000 12830180
-0.011871 -0.133751 0.831000 13088221
-0.011929 -0.129624 0.835000 13550048
-0.011929 -0.124852 0.835000 12893416
-0.011957 -0.120369 0.837000 13222373
-0.012014 -0.116138 0.841000 13155039
-0.012043 -0.111597 0.843000 12355529
-0.012071 -0.107033 0.845000 13484765
-0.012114 -0.102568 0.848000 13352930
-0.012143 -0.097952 0.850000 12751052
-0.012143 -0.093095 0.850000 12831196
-0.010140 -0.169260 0.819000 14007521
-0.010140 -0.164580 0.819000 12366552
-0.010165 -0.160290 0.821000 12956636
-0.010190 -0.155978 0.823000 12957396
-0.010190 -0.151275 0.823000 12956879
-0.010239 -0.147285 0.827000 12625096
-0.010214 -0.142214 0.825000 12485812
-0.010289 -0.138500 0.831000 13681372
-0.010289 -0.133751 0.831000 13944799
-0.010338 -0.129624 0.835000 13679315
-0.010338 -0.124852 0.835000 13877479
-0.010388 -0.120656 0.839000 13943525
-0.010412 -0.116138 0.841000 12958431
-0.010437 -0.111597 0.843000 11574224
-0.010462 -0.107033 0.845000 13682396
-0.010524 -0.102810 0.850000 13615590
-0.010549 -0.098183 0.852000 13087203
-0.008580 -0.169260 0.819000 13414863
-0.008601 -0.164982 0.821000 12494031
-0.008601 -0.160290 0.821000 12759512
-0.008622 -0.155978 0.823000 12690890
-0.008643 -0.151643 0.825000 12362169
-0.008685 -0.147641 0.829000 12416684
-0.008664 -0.142559 0.827000 12554670
-0.008706 -0.138500 0.831000 13481429
-0.008727 -0.134073 0.833000 13349600
-0.008769 -0.129934 0.837000 13149382
-0.008748 -0.124852 0.835000 13746662
-0.008769 -0.120369 0.837000 13812198
-0.008831 -0.116414 0.843000 13416159
-0.008852 -0.111862 0.845000 12629975
-0.008852 -0.107033 0.845000 13614042
-0.008905 -0.102810 0.850000 13748714
-0.008947 -0.098413 0.854000 13484793
-0.007037 -0.164982 0.821000 12559038
-0.007054 -0.160681 0.823000 12628420
-0.007071 -0.156357 0.825000 12427964
-0.007089 -0.152010 0.827000 11770292
-0.007089 -0.147285 0.827000 12226476
-0.007089 -0.142559 0.827000 12688300
-0.007123 -0.138500 0.831000 13217472
-0.007140 -0.134073 0.833000 12689861
-0.007174 -0.129934 0.837000 12559548
-0.007157 -0.124852 0.835000 13680588
-0.007174 -0.120369 0.837000 13614032
-0.007226 -0.116414 0.843000 13877196
-0.007243 -0.111862 0.845000 13612231
-0.007243 -0.107033 0.845000 13608130
-0.007286 -0.102810 0.850000 13812183
-0.007337 -0.098644 0.856000 13942754
-0.005487 -0.160681 0.823000 12821935
-0.005500 -0.156357 0.825000 12689838
-0.005513 -0.152010 0.827000 12361647
-0.005500 -0.146929 0.825000 12492717
-0.005513 -0.142559 0.827000 12755114
-0.005540 -0.138500 0.831000 13215403
-0.005540 -0.133751 0.831000 12952234
-0.005580 -0.129934 0.837000 12887731
-0.005567 -0.124852 0.835000 13544625
-0.005580 -0.120369 0.837000 13610425
-0.005620 -0.116414 0.843000 13676729
-0.005633 -0.111862 0.845000 13542328
-0.005693 -0.103293 0.854000 13742788
-0.005707 -0.098644 0.856000 13808330
-0.003938 -0.152010 0.827000 12886442
-0.003929 -0.146929 0.825000 12689321
-0.003976 -0.124852 0.835000 13477041
-0.003986 -0.120369 0.837000 13608887
-0.004067 -0.103293 0.854000 13675708
-0.004076 -0.098644 0.856000 13740988
-0.082300 -0.163816 0.823000 12886435
-0.082100 -0.158727 0.821000 12816792
-0.081125 -0.169338 0.827000 11305119
-0.080536 -0.163418 0.821000 11372949
-0.080340 -0.158340 0.819000 10904958
-0.080536 -0.154035 0.821000 11964825
-0.080732 -0.149708 0.823000 12558240
-0.081910 -0.147119 0.835000 12624041
-0.081713 -0.142007 0.833000 12887980
-0.079550 -0.169338 0.827000 9868470
-0.078972 -0.163418 0.821000 9796245
-0.078588 -0.157953 0.817000 8940160
-0.078972 -0.154035 0.821000 10449285
-0.079165 -0.149708 0.823000 11700358
-0.080127 -0.146767 0.833000 11898252
-0.080127 -0.142007 0.833000 12422799
-0.080511 -0.137906 0.837000 13213845
-0.080704 -0.133441 0.839000 13344665
-0.080896 -0.128953 0.841000 13346977
-0.082147 -0.106547 0.854000 12360359
-0.078351 -0.174906 0.831000 13089506
-0.077974 -0.169338 0.827000 11580109
-0.077220 -0.163020 0.819000 9927317
-0.077031 -0.157953 0.817000 9073282
-0.077220 -0.153660 0.819000 9661040
-0.077597 -0.149708 0.823000 10515565
-0.078351 -0.146414 0.831000 10252142
-0.078351 -0.141666 0.831000 10774642
-0.078729 -0.137576 0.835000 11438202
-0.079106 -0.133441 0.839000 11436417
-0.079106 -0.128647 0.839000 11898516
-0.079106 -0.123852 0.839000 12227488
-0.079106 -0.119058 0.839000 12490919
-0.080143 -0.110905 0.850000 12426668
-0.080331 -0.106297 0.852000 12426153
-0.080331 -0.101429 0.852000 12031907
-0.077692 -0.181816 0.841000 12886713
-0.076953 -0.175327 0.833000 14076645
-0.076030 -0.168519 0.823000 13286618
-0.075475 -0.162622 0.817000 9994135
-0.075290 -0.157567 0.815000 9137792
-0.075475 -0.153285 0.817000 8810093
-0.076030 -0.149708 0.823000 9269362
-0.076214 -0.145357 0.825000 8677233
-0.076769 -0.141666 0.831000 9070709
-0.076953 -0.137247 0.833000 9598589
-0.077323 -0.133123 0.837000 9531773
-0.077508 -0.128647 0.839000 10516102
-0.077508 -0.123852 0.839000 11306892
-0.077692 -0.119342 0.841000 11833231
-0.078062 -0.115081 0.845000 12161167
-0.078339 -0.110644 0.848000 12227219
-0.078524 -0.106048 0.850000 12423827
-0.078524 -0.101190 0.850000 12097425
-0.078524 -0.096333 0.850000 11306891
-0.079078 -0.092122 0.856000 10055788
-0.076090 -0.181816 0.841000 13282254
-0.075367 -0.175327 0.833000 13945063
-0.074462 -0.168519 0.823000 13617895
-0.073738 -0.162224 0.815000 10061465
-0.073738 -0.157567 0.815000 9137279
-0.073738 -0.152910 0.815000 8744041
-0.074281 -0.149344 0.821000 9269624
-0.074643 -0.145357 0.825000 8875380
-0.075005 -0.141325 0.829000 9069944
-0.075186 -0.136917 0.831000 9598591
-0.075729 -0.133123 0.837000 9728633
-0.075910 -0.128647 0.839000 10121592
-0.075729 -0.123557 0.837000 10450040
-0.075910 -0.119058 0.839000 10713718
-0.076452 -0.115081 0.845000 10844791
-0.076724 -0.110644 0.848000 10646906
-0.076905 -0.106048 0.850000 10975613
-0.076905 -0.101190 0.850000 10912639
-0.076905 -0.096333 0.850000 10319489
-0.077448 -0.092122 0.856000 9529962
-0.075817 -0.189950 0.856000 12623528
-0.074489 -0.181816 0.841000 13680082
-0.073957 -0.175748 0.835000 13745638
-0.072894 -0.168519 0.823000 13879013
-0.072186 -0.162224 0.815000 10059960
-0.072097 -0.157373 0.814000 9137792
-0.072097 -0.152722 0.814000 8678768
-0.072363 -0.148616 0.817000 9203575
-0.072717 -0.144652 0.821000 9006964
-0.073249 -0.140984 0.827000 9070965
-0.073249 -0.136258 0.827000 9663610
-0.073957 -0.132805 0.835000 9860467
-0.074134 -0.128340 0.837000 9728632
-0.074134 -0.123557 0.837000 9532537
-0.074311 -0.119058 0.839000 9663099
-0.074666 -0.114809 0.843000 9467511
-0.074843 -0.110252 0.845000 9001582
-0.075109 -0.105798 0.848000 9531756
-0.075286 -0.101190 0.850000 9731199
-0.075286 -0.096333 0.850000 9334907
-0.075640 -0.091907 0.854000 9003356
-0.074187 -0.189950 0.856000 12622757
-0.073060 -0.182249 0.843000 14012375
-0.072367 -0.175748 0.835000 13680868
-0.072020 -0.170157 0.831000 13682148
-0.070547 -0.162025 0.814000 10918102
-0.070547 -0.157373 0.814000 8939138
-0.070547 -0.152722 0.814000 8810102
-0.070633 -0.148252 0.815000 9071479
-0.070980 -0.144300 0.819000 9006964
-0.071327 -0.140302 0.823000 8873586
-0.071500 -0.135929 0.825000 9400692
-0.072020 -0.132169 0.831000 9729901
-0.072367 -0.128033 0.835000 9597815
-0.072367 -0.123262 0.835000 9467002
-0.072713 -0.119058 0.839000 9597824
-0.072887 -0.114536 0.841000 9532792
-0.073060 -0.109991 0.843000 8742242
-0.073493 -0.105798 0.848000 9662556
-0.073667 -0.101190 0.850000 9663614
-0.073667 -0.096333 0.850000 9333365
-0.074013 -0.091907 0.854000 9003341
-0.072387 -0.189507 0.854000 12622755
-0.071285 -0.181816 0.841000 14338522
-0.070776 -0.175748 0.835000 13615330
-0.070437 -0.170157 0.831000 13485538
-0.068996 -0.162025 0.814000 11770847
-0.068827 -0.156987 0.812000 8743812
-0.068827 -0.152347 0.812000 9006196
-0.069081 -0.148252 0.815000 8874872
-0.069250 -0.143948 0.817000 9006454
-0.069590 -0.139961 0.821000 8676977
-0.069759 -0.135599 0.823000 9203570
-0.069929 -0.131214 0.825000 9530734
-0.070607 -0.127727 0.833000 9466484
-0.070607 -0.122967 0.833000 9335669
-0.070946 -0.118774 0.837000 9530983
-0.071285 -0.114536 0.841000 9532280
-0.071285 -0.109730 0.841000 8547947
-0.071624 -0.105424 0.845000 9727077
-0.072048 -0.101190 0.850000 9597305
-0.072217 -0.096560 0.852000 9334133
-0.072387 -0.091907 0.854000 9069403
-0.070760 -0.189507 0.854000 12885665
-0.069849 -0.182249 0.843000 14142685
-0.069020 -0.175327 0.833000 13615583
-0.068854 -0.170157 0.831000 13550561
-0.067280 -0.161627 0.812000 11905768
-0.067114 -0.156600 0.810000 8873863
-0.067114 -0.151971 0.810000 8940913
-0.067446 -0.148070 0.814000 8940153
-0.067529 -0.143595 0.815000 9137783
-0.067860 -0.139620 0.819000 8610417
-0.068191 -0.135599 0.823000 8940143
-0.068357 -0.131214 0.825000 8738160
-0.068523 -0.126807 0.827000 9204336
-0.068854 -0.122671 0.831000 9007216
-0.069020 -0.118207 0.833000 8539982
-0.069517 -0.114264 0.839000 9401208
-0.069683 -0.109730 0.841000 8876148
-0.070014 -0.105424 0.845000 9531502
-0.070263 -0.100952 0.848000 9466227
-0.070594 -0.096560 0.852000 9334644
-0.070760 -0.091907 0.854000 9071208
-0.068081 -0.181816 0.841000 13879778
-0.067595 -0.175748 0.835000 13550049
-0.067271 -0.170157 0.831000 13550561
-0.065571 -0.161229 0.810000 12105960
-0.065571 -0.156600 0.810000 9007500
-0.065571 -0.151971 0.810000 8940405
-0.065895 -0.148070 0.814000 8940661
-0.065976 -0.143595 0.815000 9268340
-0.066300 -0.139620 0.819000 8545393
-0.066462 -0.135270 0.821000 8677738
-0.066786 -0.131214 0.825000 7948909
-0.066948 -0.126807 0.827000 9007727
-0.067110 -0.122376 0.829000 8613237
-0.067433 -0.118207 0.833000 7548241
-0.067595 -0.113719 0.835000 9268852
-0.067757 -0.109209 0.837000 9269624
-0.068081 -0.104925 0.841000 9335155
-0.068648 -0.100952 0.848000 9335154
-0.068810 -0.096333 0.850000 9269106
-0.068810 -0.091476 0.850000 9071721
-0.066637 -0.182249 0.843000 13813480
-0.066163 -0.176169 0.837000 13484514
-0.065689 -0.170157 0.831000 13550561
-0.064029 -0.161229 0.810000 12236008
-0.063870 -0.156213 0.808000 9141393
-0.063870 -0.151596 0.808000 8809080
-0.064187 -0.147707 0.812000 8940400
-0.064424 -0.143595 0.815000 9203057
-0.064582 -0.139279 0.817000 8610929
-0.064740 -0.134940 0.819000 8611684
-0.065056 -0.130896 0.823000 8007275
-0.065214 -0.126500 0.825000 8808558
-0.065372 -0.122081 0.827000 8877691
-0.065689 -0.117923 0.831000 8078676
-0.066005 -0.113719 0.835000 9269361
-0.066163 -0.109209 0.837000 9335676
-0.066321 -0.104675 0.839000 9400696
-0.066795 -0.100595 0.845000 9400688
-0.067032 -0.096107 0.848000 9138288
-0.067190 -0.091476 0.850000 8938601
-0.064877 -0.181816 0.841000 13682407
-0.064569 -0.176169 0.837000 13484514
-0.063951 -0.169748 0.829000 13550562
-0.062331 -0.160830 0.808000 12371433
-0.062177 -0.155827 0.806000 9272214
-0.062023 -0.150846 0.804000 8743801
-0.062486 -0.147343 0.810000 8940659
-0.062794 -0.143419 0.814000 9137522
-0.062871 -0.138938 0.815000 8611954
-0.062871 -0.134281 0.815000 8545888
-0.063334 -0.130578 0.821000 8015981
-0.063489 -0.126193 0.823000 8614259
-0.063643 -0.121786 0.825000 9139580
-0.063951 -0.117639 0.829000 8609130
-0.064260 -0.113447 0.833000 9203059
-0.064414 -0.108948 0.835000 9467258
-0.064569 -0.104426 0.837000 9465717
-0.064723 -0.099881 0.839000 9466226
-0.065031 -0.095540 0.843000 9005674
-0.065186 -0.090938 0.845000 8802928
-0.063426 -0.182249 0.843000 13747686
-0.062974 -0.176169 0.837000 13484514
-0.062372 -0.169748 0.829000 13616355
-0.060792 -0.160830 0.808000 12566249
-0.060642 -0.155827 0.806000 9667482
-0.060491 -0.150846 0.804000 8744057
-0.060792 -0.146979 0.808000 9005942
-0.061093 -0.143067 0.812000 9071987
-0.061244 -0.138768 0.814000 8744307
-0.061319 -0.134281 0.815000 8345947
-0.061770 -0.130578 0.821000 8877167
-0.061921 -0.126193 0.823000 9073784
-0.061921 -0.121490 0.823000 9335934
-0.062222 -0.117355 0.827000 8941184
-0.062523 -0.113174 0.831000 9335414
-0.062673 -0.108687 0.833000 9467512
-0.062824 -0.104176 0.835000 8414322
-0.063125 -0.099881 0.839000 9466996
-0.063275 -0.095313 0.841000 9003364
-0.063426 -0.090723 0.843000 8405367
-0.061673 -0.181816 0.841000 13747685
-0.061820 -0.177431 0.843000 13550051
-0.059913 -0.167290 0.817000 13616354
-0.059253 -0.160830 0.808000 12766185
-0.059107 -0.155827 0.806000 10059167
-0.058960 -0.150846 0.804000 8809853
-0.059107 -0.146615 0.806000 9006712
-0.059400 -0.142714 0.810000 9071989
-0.059693 -0.138768 0.814000 8876150
-0.059767 -0.134281 0.815000 8145505
-0.060060 -0.130260 0.819000 9729647
-0.060207 -0.125887 0.821000 9533049
-0.060353 -0.121490 0.823000 9532797
-0.060647 -0.117355 0.827000 9270653
-0.060793 -0.112902 0.829000 9467001
-0.060940 -0.108426 0.831000 9467259
-0.061233 -0.104176 0.835000 7299666
-0.061380 -0.099643 0.837000 9467769
-0.061673 -0.095313 0.841000 8940142
-0.061820 -0.090723 0.843000 8075126
-0.060214 -0.182249 0.843000 13747428
-0.060214 -0.177431 0.843000 13615332
-0.058357 -0.167290 0.817000 13747680
-0.057714 -0.160830 0.808000 12961256
-0.057571 -0.155827 0.806000 10124964
-0.057286 -0.150470 0.802000 8941184
-0.057571 -0.146615 0.806000 9007482
-0.057857 -0.142714 0.810000 9137782
-0.058000 -0.138427 0.812000 9205368
-0.058143 -0.134116 0.814000 8610663
-0.058357 -0.129942 0.817000 9663855
-0.058643 -0.125887 0.821000 9533050
-0.058786 -0.121490 0.823000 9532796
-0.058929 -0.117071 0.825000 9401721
-0.059214 -0.112902 0.829000 9598076
-0.059357 -0.108426 0.831000 9335165
-0.059500 -0.103927 0.833000 7428657
-0.059786 -0.099643 0.837000 9401469
-0.059929 -0.095087 0.839000 9270905
-0.060071 -0.090508 0.841000 8807285
-0.058609 -0.182249 0.843000 13682404
-0.058609 -0.177431 0.843000 13678531
-0.056801 -0.167290 0.817000 13879265
-0.056175 -0.160830 0.808000 13160168
-0.056036 -0.155827 0.806000 10192043
-0.055758 -0.150470 0.802000 9072254
-0.055897 -0.146251 0.804000 8942203
-0.056175 -0.142362 0.808000 9138040
-0.056453 -0.138427 0.812000 9533566
-0.056592 -0.134116 0.814000 9136745
-0.056662 -0.129624 0.815000 9598065
-0.056940 -0.125580 0.819000 9533564
-0.057079 -0.121195 0.821000 9467777
-0.057218 -0.116788 0.823000 9533053
-0.057635 -0.112902 0.829000 9729662
-0.057635 -0.108165 0.829000 9204862
-0.057913 -0.103927 0.833000 7554640
-0.058191 -0.099643 0.837000 9337722
-0.058191 -0.094860 0.837000 9533049
-0.058330 -0.090292 0.839000 9599351
-0.058609 -0.085906 0.843000 9138290
-0.057747 -0.189507 0.854000 13417676
-0.057138 -0.182681 0.845000 13813477
-0.057003 -0.177431 0.843000 12887458
-0.055380 -0.167700 0.819000 14010338
-0.054771 -0.161229 0.810000 13290472
-0.054501 -0.155827 0.806000 10256306
-0.054230 -0.150470 0.802000 9204091
-0.054366 -0.146251 0.804000 9074045
-0.054636 -0.142362 0.808000 9203834
-0.054907 -0.138427 0.812000 9599620
-0.055042 -0.134116 0.814000 8936043
-0.055110 -0.129624 0.815000 9467763
-0.055245 -0.125273 0.817000 9599358
-0.055515 -0.121195 0.821000 9403270
-0.055650 -0.116788 0.823000 9400704
-0.056056 -0.112902 0.829000 9729920
-0.056056 -0.108165 0.829000 9401726
-0.056191 -0.103677 0.831000 8606574
-0.056462 -0.099405 0.835000 9533302
-0.056597 -0.094860 0.837000 9730169
-0.056732 -0.090292 0.839000 9664888
-0.056868 -0.085702 0.841000 9400176
-0.055989 -0.189063 0.852000 13417685
-0.055529 -0.182681 0.845000 13943775
-0.055266 -0.177010 0.841000 12093619
-0.053820 -0.167700 0.819000 14074588
-0.053229 -0.161229 0.810000 13421801
-0.052966 -0.155827 0.806000 10258356
-0.052703 -0.150470 0.802000 9269884
-0.052834 -0.146251 0.804000 9205629
-0.053097 -0.142362 0.808000 9204091
-0.053360 -0.138427 0.812000 9599359
-0.053491 -0.134116 0.814000 8735853
-0.053557 -0.129624 0.815000 9334381
-0.053689 -0.125273 0.817000 9664892
-0.053951 -0.121195 0.821000 9334904
-0.054083 -0.116788 0.823000 9264469
-0.054477 -0.112902 0.829000 9730433
-0.054477 -0.108165 0.829000 9664383
-0.054609 -0.103677 0.831000 9595769
-0.054871 -0.099405 0.835000 9795964
-0.055003 -0.094860 0.837000 9926009
-0.055134 -0.090292 0.839000 9796219
-0.055266 -0.085702 0.841000 9597560
-0.054493 -0.189507 0.854000 13483486
-0.054110 -0.183330 0.848000 13156314
-0.053664 -0.177010 0.841000 12031428
-0.052260 -0.167700 0.819000 14010837
-0.051813 -0.161627 0.812000 13421289
-0.051430 -0.155827 0.806000 10192311
-0.051175 -0.150470 0.802000 9467261
-0.051430 -0.146615 0.806000 9206654
-0.051558 -0.142362 0.808000 9335419
-0.051686 -0.138086 0.810000 8812155
-0.051941 -0.134116 0.814000 8472686
-0.052005 -0.129624 0.815000 9205864
-0.052132 -0.125273 0.817000 9927290
-0.052388 -0.121195 0.821000 8148074
-0.052515 -0.116788 0.823000 8800042
-0.052770 -0.112630 0.827000 9861763
-0.052898 -0.108165 0.829000 9796224
-0.052898 -0.103428 0.829000 9730692
-0.053153 -0.099167 0.833000 9862017
-0.053409 -0.094860 0.837000 8546681
-0.053409 -0.090077 0.837000 9862013
-0.053536 -0.085498 0.839000 9862528
-0.052867 -0.189507 0.854000 13548253
-0.052495 -0.183330 0.848000 12300500
-0.052062 -0.177010 0.841000 12031920
-0.050824 -0.168110 0.821000 13943511
-0.050143 -0.161229 0.810000 13487081
-0.049771 -0.155440 0.804000 10062778
-0.049648 -0.150470 0.802000 9663616
-0.049771 -0.146251 0.804000 9206144
-0.050019 -0.142362 0.808000 9467006
-0.050143 -0.138086 0.810000 8024959
-0.050390 -0.134116 0.814000 8142939
-0.050452 -0.129624 0.815000 9005153
-0.050576 -0.125273 0.817000 10189955
-0.050824 -0.121195 0.821000 6971506
-0.050824 -0.116504 0.821000 8405812
-0.051195 -0.112630 0.827000 9927812
-0.051319 -0.108165 0.829000 9993346
-0.051443 -0.103677 0.831000 9862021
-0.051567 -0.099167 0.833000 9993095
-0.051690 -0.094633 0.835000 7098727
-0.051814 -0.090077 0.837000 9993090
-0.051938 -0.085498 0.839000 10124418
-0.051240 -0.189507 0.854000 13483995
-0.050880 -0.183330 0.848000 12492495
-0.049980 -0.175327 0.833000 12027803
-0.049260 -0.168110 0.821000 14010840
-0.048720 -0.161627 0.812000 13486569
-0.048120 -0.155053 0.802000 10258876
-0.048120 -0.150470 0.802000 9599107
-0.048240 -0.146251 0.804000 9337730
-0.048360 -0.142010 0.806000 9467264
-0.048480 -0.137745 0.808000 8355460
-0.048720 -0.133787 0.812000 8208712
-0.048900 -0.129624 0.815000 7560027
-0.049020 -0.125273 0.817000 9468299
-0.049260 -0.121195 0.821000 8547707
-0.049260 -0.116504 0.821000 8866878
-0.049620 -0.112630 0.827000 9994118
-0.049740 -0.108165 0.829000 9993860
-0.049740 -0.103428 0.829000 9993095
-0.049980 -0.099167 0.833000 9993100
-0.050100 -0.094633 0.835000 7341909
-0.050220 -0.090077 0.837000 9862279
-0.050340 -0.085498 0.839000 10058884
-0.049730 -0.189950 0.856000 13485530
-0.049265 -0.183330 0.848000 12625624
-0.048277 -0.174906 0.831000 11958430
-0.047812 -0.168519 0.823000 14009559
-0.047057 -0.161229 0.810000 13486826
-0.046592 -0.155053 0.802000 10390974
-0.046592 -0.150470 0.802000 9599364
-0.046709 -0.146251 0.804000 9403269
-0.046941 -0.142362 0.808000 9532799
-0.047057 -0.138086 0.810000 8678005
-0.047173 -0.133787 0.812000 8339279
-0.047348 -0.129624 0.815000 6113362
-0.047464 -0.125273 0.817000 8811654
-0.047580 -0.120900 0.819000 10057090
-0.047696 -0.116504 0.821000 9326181
-0.048045 -0.112630 0.827000 9994631
-0.048161 -0.108165 0.829000 10059910
-0.048161 -0.103428 0.829000 10059143
-0.048277 -0.098929 0.831000 9929101
-0.048510 -0.094633 0.835000 7615064
-0.048626 -0.090077 0.837000 9798796
-0.048742 -0.085498 0.839000 9993607
-0.047987 -0.189507 0.854000 13615320
-0.047650 -0.183330 0.848000 12626657
-0.046694 -0.174906 0.831000 12224673
-0.046245 -0.168519 0.823000 14076374
-0.045627 -0.161627 0.812000 13617899
-0.045065 -0.155053 0.802000 10455743
-0.044952 -0.150095 0.800000 9665156
-0.045177 -0.146251 0.804000 9535623
-0.045402 -0.142362 0.808000 9467517
-0.045514 -0.138086 0.810000 8601445
-0.045627 -0.133787 0.812000 8473174
-0.045739 -0.129465 0.814000 6828874
-0.045795 -0.124967 0.815000 9534081
-0.046020 -0.120900 0.819000 10125706
-0.046132 -0.116504 0.821000 9860491
-0.046357 -0.112357 0.825000 10125449
-0.046582 -0.108165 0.829000 10125447
-0.046582 -0.103428 0.829000 10125192
-0.046694 -0.098929 0.831000 9993357
-0.046919 -0.094633 0.835000 8336219
-0.047031 -0.090077 0.837000 9929104
-0.047031 -0.085294 0.837000 10191242
-0.046251 -0.189063 0.852000 13681629
-0.046034 -0.183330 0.848000 12631779
-0.045111 -0.174906 0.831000 12420259
-0.044677 -0.168519 0.823000 14074836
-0.043971 -0.161229 0.810000 13683948
-0.043429 -0.154667 0.800000 10523072
-0.043429 -0.150095 0.800000 9730182
-0.043646 -0.146251 0.804000 9600648
-0.043863 -0.142362 0.808000 9467778
-0.043971 -0.138086 0.810000 8537700
-0.044080 -0.133787 0.812000 8670809
-0.044189 -0.129465 0.814000 7551568
-0.044351 -0.125273 0.817000 10259080
-0.044460 -0.120900 0.819000 10191499
-0.044569 -0.116504 0.821000 10389133
-0.044786 -0.112357 0.825000 10191243
-0.044894 -0.107904 0.827000 10191244
-0.045003 -0.103428 0.829000 10191499
-0.045111 -0.098929 0.831000 9995151
-0.045220 -0.094407 0.833000 9002358
-0.045437 -0.090077 0.837000 10060686
-0.045437 -0.085294 0.837000 10320773
-0.044733 -0.189507 0.854000 13549025
-0.044419 -0.183330 0.848000 13290725
-0.043633 -0.175327 0.833000 12221093
-0.043005 -0.168110 0.821000 14142673
-0.042429 -0.161229 0.810000 13683949
-0.041905 -0.154667 0.800000 10719681
-0.041905 -0.150095 0.800000 9731208
-0.042114 -0.146251 0.804000 9666185
-0.042324 -0.142362 0.808000 9730694
-0.042324 -0.137745 0.808000 8338276
-0.042429 -0.133457 0.810000 8604507
-0.042638 -0.129465 0.814000 6894167
-0.042795 -0.125273 0.817000 10257806
-0.042900 -0.120900 0.819000 10322829
-0.043005 -0.116504 0.821000 10388622
-0.043214 -0.112357 0.825000 10257293
-0.043319 -0.107904 0.827000 10125456
-0.043424 -0.103428 0.829000 10323086
-0.043529 -0.098929 0.831000 10191760
-0.043738 -0.094633 0.835000 9798033
-0.043843 -0.090077 0.837000 10191756
-0.043948 -0.085498 0.839000 9070721
-0.043107 -0.189507 0.854000 13418976
-0.042804 -0.183330 0.848000 13943777
-0.042148 -0.175748 0.835000 12021665
-0.041441 -0.168110 0.821000 14140883
-0.040785 -0.160830 0.808000 13750767
-0.040482 -0.155053 0.802000 10851010
-0.040381 -0.150095 0.800000 9731466
-0.040482 -0.145888 0.802000 9666189
-0.040684 -0.142010 0.806000 10058122
-0.040785 -0.137745 0.808000 8079708
-0.040886 -0.133457 0.810000 8604253
-0.041088 -0.129465 0.814000 6242132
-0.041138 -0.124967 0.815000 10258834
-0.041340 -0.120900 0.819000 10388880
-0.041441 -0.116504 0.821000 10453906
-0.041643 -0.112357 0.825000 10323600
-0.041744 -0.107904 0.827000 10057303
-0.041845 -0.103428 0.829000 10454411
-0.041946 -0.098929 0.831000 10322577
-0.042148 -0.094633 0.835000 10585232
-0.042249 -0.090077 0.837000 10322830
-0.042350 -0.085498 0.839000 7755135
-0.041480 -0.189507 0.854000 13418719
-0.041043 -0.182681 0.845000 13878750
-0.040460 -0.175327 0.833000 11763357
-0.039780 -0.167700 0.819000 14207701
-0.039246 -0.160830 0.808000 13684720
-0.038954 -0.155053 0.802000 11113155
-0.038857 -0.150095 0.800000 9863051
-0.038954 -0.145888 0.802000 9731985
-0.039149 -0.142010 0.806000 9861262
-0.039246 -0.137745 0.808000 8204884
-0.039343 -0.133457 0.810000 8473438
-0.039537 -0.129465 0.814000 7623761
-0.039586 -0.124967 0.815000 10257813
-0.039780 -0.120900 0.819000 10454932
-0.039877 -0.116504 0.821000 10520214
-0.040071 -0.112357 0.825000 10586771
-0.040169 -0.107904 0.827000 9198366
-0.040266 -0.103428 0.829000 10454665
-0.040363 -0.098929 0.831000 10454162
-0.040557 -0.094633 0.835000 10585232
-0.040654 -0.090077 0.837000 10454416
-0.040751 -0.085498 0.839000 8002430
-0.039760 -0.189063 0.852000 13487326
-0.039433 -0.182681 0.845000 13746146
-0.038967 -0.175748 0.835000 11569316
-0.038127 -0.167290 0.817000 14206677
-0.037707 -0.160830 0.808000 13621487
-0.037427 -0.155053 0.802000 11377605
-0.037333 -0.150095 0.800000 10059920
-0.037427 -0.145888 0.802000 9797780
-0.037613 -0.142010 0.806000 9731983
-0.037707 -0.137745 0.808000 8341623
-0.037893 -0.133787 0.812000 8344927
-0.037987 -0.129465 0.814000 9002342
-0.038127 -0.125273 0.817000 10258071
-0.038220 -0.120900 0.819000 10455449
-0.038313 -0.116504 0.821000 10586008
-0.038500 -0.112357 0.825000 10782609
-0.038593 -0.107904 0.827000 8279846
-0.038593 -0.103178 0.827000 10386570
-0.038780 -0.098929 0.831000 10585749
-0.038967 -0.094633 0.835000 10586004
-0.039060 -0.090077 0.837000 10651791
-0.039153 -0.085498 0.839000 8211326
-0.038137 -0.189063 0.852000 13483740
-0.037824 -0.182681 0.845000 13812966
-0.037376 -0.175748 0.835000 11568810
-0.036481 -0.166881 0.815000 14274006
-0.036168 -0.160830 0.808000 13486830
-0.035899 -0.155053 0.802000 11445448
-0.035810 -0.150095 0.800000 10257300
-0.036078 -0.146615 0.806000 9994648
-0.036168 -0.142362 0.808000 9994640
-0.036257 -0.138086 0.810000 9593754
-0.036347 -0.133787 0.812000 8477024
-0.036481 -0.129624 0.815000 8022908
-0.036570 -0.125273 0.817000 10587289
-0.036750 -0.121195 0.821000 10587807
-0.036750 -0.116504 0.821000 10717849
-0.036929 -0.112357 0.825000 10847887
-0.037018 -0.107904 0.827000 8606766
-0.037108 -0.103428 0.829000 10520971
-0.037197 -0.098929 0.831000 10717336
-0.037376 -0.094633 0.835000 10652568
-0.037466 -0.090077 0.837000 10783630
-0.037555 -0.085498 0.839000 9461374
-0.036214 -0.182681 0.845000 13878759
-0.035700 -0.175327 0.833000 11565762
-0.034929 -0.166881 0.815000 14272471
-0.034543 -0.160432 0.806000 13356271
-0.034371 -0.155053 0.802000 11443649
-0.034371 -0.150470 0.802000 10454685
-0.034457 -0.146251 0.804000 10192539
-0.034629 -0.142362 0.808000 10322325
-0.034714 -0.138086 0.810000 10782616
-0.034800 -0.133787 0.812000 8612220
-0.034929 -0.129624 0.815000 7041416
-0.035014 -0.125273 0.817000 10915733
-0.035186 -0.121195 0.821000 10712455
-0.035186 -0.116504 0.821000 10849182
-0.035357 -0.112357 0.825000 10848407
-0.035357 -0.107643 0.825000 8938346
-0.035529 -0.103428 0.829000 10586518
-0.035700 -0.099167 0.833000 10848923
-0.035786 -0.094633 0.835000 10650512
-0.035871 -0.090077 0.837000 10914695
-0.035957 -0.085498 0.839000 10712974
-0.034605 -0.182681 0.845000 13813223
-0.034031 -0.174906 0.831000 12429018
-0.033458 -0.167290 0.817000 14207961
-0.033008 -0.160432 0.806000 13354480
-0.032844 -0.155053 0.802000 11315387
-0.032844 -0.150470 0.802000 10651813
-0.033008 -0.146615 0.806000 10390174
-0.033090 -0.142362 0.808000 10520217
-0.033253 -0.138427 0.812000 10654870
-0.033335 -0.134116 0.814000 9535127
-0.033376 -0.129624 0.815000 8615061
-0.033458 -0.125273 0.817000 10060432
-0.033622 -0.121195 0.821000 8794735
-0.033704 -0.116788 0.823000 11046562
-0.033786 -0.112357 0.825000 10916256
-0.033868 -0.107904 0.827000 10126758
-0.033950 -0.103428 0.829000 10784161
-0.034113 -0.099167 0.833000 10980765
-0.034195 -0.094633 0.835000 10317192
-0.034277 -0.090077 0.837000 10516352
-0.034359 -0.085498 0.839000 10849694
-0.032839 -0.181816 0.841000 13747685
-0.032449 -0.174906 0.831000 13352927
-0.031980 -0.167700 0.819000 14141665
-0.031472 -0.160432 0.806000 13357038
-0.031316 -0.155053 0.802000 11180730
-0.031394 -0.150846 0.804000 10784170
-0.031472 -0.146615 0.806000 10521252
-0.031550 -0.142362 0.808000 10717085
-0.031707 -0.138427 0.812000 10521753
-0.031785 -0.134116 0.814000 10452882
-0.031824 -0.129624 0.815000 10193310
-0.031980 -0.125580 0.819000 9274248
-0.032058 -0.121195 0.821000 6835821
-0.032136 -0.116788 0.823000 11244455
-0.032214 -0.112357 0.825000 10981796
-0.032292 -0.107904 0.827000 11310502
-0.032449 -0.103677 0.831000 10981281
-0.032605 -0.099405 0.835000 11112094
-0.032605 -0.094633 0.835000 9923210
-0.032683 -0.090077 0.837000 10188923
-0.032839 -0.085702 0.841000 10980767
-0.031163 -0.181384 0.839000 13747170
-0.030791 -0.174485 0.829000 13616356
-0.030420 -0.167700 0.819000 14142952
-0.029937 -0.160432 0.806000 13421291
-0.029863 -0.155440 0.804000 11048377
-0.029863 -0.150846 0.804000 10915246
-0.030011 -0.146979 0.808000 10652587
-0.030011 -0.142362 0.808000 10849440
-0.030160 -0.138427 0.812000 10454940
-0.030234 -0.134116 0.814000 10323084
-0.030271 -0.129624 0.815000 10917287
-0.030346 -0.125273 0.817000 9137024
-0.030494 -0.121195 0.821000 8741228
-0.030569 -0.116788 0.823000 11375788
-0.030643 -0.112357 0.825000 11178664
-0.030717 -0.107904 0.827000 11310245
-0.030866 -0.103677 0.831000 11243937
-0.031014 -0.099405 0.835000 11178654
-0.031014 -0.094633 0.835000 10054797
-0.031163 -0.090292 0.839000 10057589
-0.029565 -0.181384 0.839000 13682146
-0.029283 -0.174906 0.831000 13878757
