# .PCD v.7 - Point Cloud Data file format
VERSION .7
FIELDS x y z rgb
SIZE 4 4 4 4
TYPE F F F I
COUNT 1 1 1 1
WIDTH 1278
HEIGHT 1
POINTS 1278
DATA ascii
0.010971 -0.147017 0.768000 14078704
0.010871 -0.141329 0.761000 14078703
0.010800 -0.136080 0.756000 14142948
0.010800 -0.131760 0.756000 15000305
0.010786 -0.127271 0.755000 14473198
0.010800 -0.123120 0.756000 14407921
0.010871 -0.119586 0.761000 14604021
0.010957 -0.116146 0.767000 11240397
0.011000 -0.112200 0.770000 12619478
0.011043 -0.108220 0.773000 12816571
0.011129 -0.104609 0.779000 15130092
0.011171 -0.100543 0.782000 14800881
0.011257 -0.096811 0.788000 15065079
0.011357 -0.093129 0.795000 14932467
0.011386 -0.088809 0.797000 14801905
0.011457 -0.084783 0.802000 14209263
0.011486 -0.080400 0.804000 14741493
0.011600 -0.076560 0.812000 14734057
0.012774 -0.173580 0.789000 14013400
0.012758 -0.168857 0.788000 14012654
0.012693 -0.163520 0.784000 13947116
0.012580 -0.157620 0.777000 14078191
0.012467 -0.151800 0.770000 14078447
0.012418 -0.146826 0.767000 14078447
0.012321 -0.141329 0.761000 14013165
0.012240 -0.136080 0.756000 14208217
0.012240 -0.131760 0.756000 14868465
0.012240 -0.127440 0.756000 14539247
0.012272 -0.123446 0.758000 14473970
0.012353 -0.119900 0.763000 14406899
0.012434 -0.116297 0.768000 11561676
0.012467 -0.112200 0.770000 12688359
0.012548 -0.108500 0.775000 11755960
0.012629 -0.104743 0.780000 14667227
0.012661 -0.100543 0.782000 14803188
0.012758 -0.096811 0.788000 14934773
0.012871 -0.093129 0.795000 13289715
0.012904 -0.088809 0.797000 14868467
0.013017 -0.084994 0.804000 14607347
0.013050 -0.080600 0.806000 14803701
0.014277 -0.173580 0.789000 13813199
0.014223 -0.168429 0.786000 13947372
0.014150 -0.163103 0.782000 13947118
0.014024 -0.157214 0.775000 14012912
0.013897 -0.151406 0.768000 14078448
0.013879 -0.146826 0.767000 14143728
0.013770 -0.141329 0.761000 13947116
0.013680 -0.136080 0.756000 14203876
0.013662 -0.131586 0.755000 14671858
0.013662 -0.127271 0.755000 14604527
0.013716 -0.123446 0.758000 14473969
0.013807 -0.119900 0.763000 14274293
0.013879 -0.116146 0.767000 11892161
0.013933 -0.112200 0.770000 12693706
0.014024 -0.108500 0.775000 10643399
0.014096 -0.104609 0.779000 14211564
0.014150 -0.100543 0.782000 14736626
0.014259 -0.096811 0.788000 14804211
0.014422 -0.093363 0.797000 11643365
0.014440 -0.088920 0.798000 14934773
0.014549 -0.084994 0.804000 14934003
0.014585 -0.080600 0.806000 14932723
0.015600 -0.171600 0.780000 13548998
0.015640 -0.167571 0.782000 13881577
0.015640 -0.163103 0.782000 14012911
0.015500 -0.157214 0.775000 14012912
0.015360 -0.151406 0.768000 14078449
0.015300 -0.146443 0.765000 14077936
0.015200 -0.141143 0.760000 13881579
0.015120 -0.136080 0.756000 14473198
0.015100 -0.131586 0.755000 14604019
0.015120 -0.127440 0.756000 14407663
0.015160 -0.123446 0.758000 14407664
0.015300 -0.120214 0.765000 13747190
0.015360 -0.116297 0.768000 12211895
0.015440 -0.112491 0.772000 12487596
0.015540 -0.108780 0.777000 11496919
0.015640 -0.105011 0.782000 14671613
0.015720 -0.101057 0.786000 14736369
0.015780 -0.096934 0.789000 13940464
0.015900 -0.093129 0.795000 11953879
0.015940 -0.088809 0.797000 14934263
0.016080 -0.084994 0.804000 14343667
0.016120 -0.080600 0.806000 14867441
0.016240 -0.076560 0.812000 12943820
0.017086 -0.171600 0.780000 13218487
0.017130 -0.167571 0.782000 13815276
0.017130 -0.163103 0.782000 14012909
0.016976 -0.157214 0.775000 14012913
0.016823 -0.151406 0.768000 14012912
0.016757 -0.146443 0.765000 14012142
0.016670 -0.141329 0.761000 13747692
0.016560 -0.136080 0.756000 14741491
0.016538 -0.131586 0.755000 14473457
0.016604 -0.127777 0.758000 14276079
0.016648 -0.123771 0.760000 14341360
0.016801 -0.120529 0.767000 13289454
0.016867 -0.116600 0.770000 12485573
0.016932 -0.112637 0.773000 12288438
0.017064 -0.109060 0.779000 12302056
0.017130 -0.105011 0.782000 15197680
0.017261 -0.101314 0.788000 14670833
0.017327 -0.097180 0.791000 13016814
0.017414 -0.093129 0.795000 12302562
0.017458 -0.088809 0.797000 14933744
0.017611 -0.084994 0.804000 13681898
0.017655 -0.080600 0.806000 14867445
0.018619 -0.167571 0.782000 13683950
0.018571 -0.162686 0.780000 13947628
0.018452 -0.157214 0.775000 14078449
0.018333 -0.151800 0.770000 14012911
0.018262 -0.146826 0.767000 13881323
0.018119 -0.141329 0.761000 13614574
0.018048 -0.136440 0.758000 14935800
0.018000 -0.131760 0.756000 14407150
0.018095 -0.128114 0.760000 14144239
0.018119 -0.123934 0.761000 14275567
0.018286 -0.120686 0.768000 13283814
0.018381 -0.116903 0.772000 12371667
0.018452 -0.112929 0.775000 12624575
0.018571 -0.109200 0.780000 12903418
0.018667 -0.105280 0.784000 14406627
0.018786 -0.101443 0.789000 14670321
0.018881 -0.097426 0.793000 13745132
0.018976 -0.093363 0.797000 13689070
0.019000 -0.088920 0.798000 14202600
0.019190 -0.085206 0.806000 13736418
0.019238 -0.080800 0.808000 14934008
0.020057 -0.167143 0.780000 13552868
0.020057 -0.162686 0.780000 13880812
0.019929 -0.157214 0.775000 14078446
0.019800 -0.151800 0.770000 14012909
0.019723 -0.146826 0.767000 13815525
0.019569 -0.141329 0.761000 13488879
0.019491 -0.136440 0.758000 15132405
0.019491 -0.132109 0.758000 14341359
0.019543 -0.128114 0.760000 14078447
0.019569 -0.123934 0.761000 14144753
0.019800 -0.121000 0.770000 13281773
0.019877 -0.117054 0.773000 12169436
0.020031 -0.113511 0.779000 12902620
0.020109 -0.109480 0.782000 13480145
0.020160 -0.105280 0.784000 13685740
0.020289 -0.101443 0.789000 14604530
0.020443 -0.097671 0.795000 14537458
0.020571 -0.093714 0.800000 15065328
0.020674 -0.089589 0.804000 13474028
0.020777 -0.085417 0.808000 13742569
0.020880 -0.081200 0.812000 14933733
0.021543 -0.167143 0.780000 13418201
0.021515 -0.162477 0.779000 13813485
0.021405 -0.157214 0.775000 13815275
0.021322 -0.152194 0.772000 13881323
0.021184 -0.146826 0.767000 13616607
0.021018 -0.141329 0.761000 14675440
0.020990 -0.136800 0.760000 14736625
0.020990 -0.132457 0.760000 14276080
0.021018 -0.128283 0.761000 14143727
0.021184 -0.124911 0.767000 14276596
0.021322 -0.121314 0.772000 13483763
0.021405 -0.117357 0.775000 13156326
0.021515 -0.113511 0.779000 13419769
0.021653 -0.109760 0.784000 13335721
0.021791 -0.105951 0.789000 14012660
0.021847 -0.101700 0.791000 14670324
0.022095 -0.098286 0.800000 14473207
0.022206 -0.094183 0.804000 14801395
0.022371 -0.090257 0.810000 14075632
0.022371 -0.085629 0.810000 13809136
0.022427 -0.081200 0.812000 14532561
0.023029 -0.167143 0.780000 13284024
0.022999 -0.162477 0.779000 13684201
0.022822 -0.156809 0.773000 13550827
0.022792 -0.152194 0.772000 13683687
0.022645 -0.146826 0.767000 13418985
0.022527 -0.141700 0.763000 15787762
0.022438 -0.136800 0.760000 14340592
0.022468 -0.132631 0.761000 14143984
0.022527 -0.128620 0.763000 14274802
0.022645 -0.124911 0.767000 14340847
0.022822 -0.121471 0.773000 13745647
0.022999 -0.117963 0.779000 14143471
0.023029 -0.113657 0.780000 13950457
0.023265 -0.110320 0.788000 13155539
0.023294 -0.105951 0.789000 14342133
0.023530 -0.102471 0.797000 14668782
0.023619 -0.098286 0.800000 14405595
0.023796 -0.094417 0.806000 14473459
0.023973 -0.090480 0.812000 14736628
0.023973 -0.085840 0.812000 13808619
0.024062 -0.081500 0.815000 14139109
0.024420 -0.162060 0.777000 14015974
0.024294 -0.156809 0.773000 13748458
0.024263 -0.152194 0.772000 13944803
0.024106 -0.146826 0.767000 14277618
0.023980 -0.141700 0.763000 15129333
0.023917 -0.136980 0.761000 14209518
0.023917 -0.132631 0.761000 14010095
0.023980 -0.128620 0.763000 14079220
0.024137 -0.125074 0.768000 13747434
0.024357 -0.121786 0.775000 13944555
0.024483 -0.117963 0.779000 14342904
0.024514 -0.113657 0.780000 14344185
0.024797 -0.110460 0.789000 13955069
0.024986 -0.106757 0.795000 14407669
0.025049 -0.102471 0.797000 13812969
0.025143 -0.098286 0.800000 13940159
0.025457 -0.094886 0.810000 14605299
0.025583 -0.090703 0.814000 14538487
0.025614 -0.086157 0.815000 13938406
0.025900 -0.162060 0.777000 14271688
0.025767 -0.156809 0.773000 14013674
0.025733 -0.152194 0.772000 14210286
0.025567 -0.146826 0.767000 15132916
0.025433 -0.141700 0.763000 14473710
0.025367 -0.136980 0.761000 14143467
0.025433 -0.132980 0.763000 13814252
0.025500 -0.128957 0.765000 13948392
0.025667 -0.125400 0.770000 13157091
0.025833 -0.121786 0.775000 14206952
0.025967 -0.117963 0.779000 14472171
0.026067 -0.113949 0.782000 14801382
0.026300 -0.110460 0.789000 14668776
0.026433 -0.106489 0.793000 14472677
0.026600 -0.102600 0.798000 12958681
0.026667 -0.098286 0.800000 13480902
0.027000 -0.094886 0.810000 14668253
0.027167 -0.090814 0.815000 14405594
0.027233 -0.086369 0.817000 14073815
0.027380 -0.162060 0.777000 13413290
0.027239 -0.156809 0.773000 13815530
0.027133 -0.151800 0.770000 14344185
0.027028 -0.146826 0.767000 14605814
0.026957 -0.142071 0.765000 13948903
0.026887 -0.137340 0.763000 13748711
0.026957 -0.133329 0.765000 13683433
0.027028 -0.129294 0.767000 13418972
0.027133 -0.125400 0.770000 13090269
0.027380 -0.122100 0.777000 13615588
0.027486 -0.118114 0.780000 13811934
0.027556 -0.113949 0.782000 13746130
0.028014 -0.111300 0.795000 13679572
0.028014 -0.106757 0.795000 13615316
0.028261 -0.103114 0.802000 12890570
0.028261 -0.098531 0.802000 13022156
0.028613 -0.095120 0.812000 13414344
0.028719 -0.090814 0.815000 13414844
0.028790 -0.086369 0.817000 13546440
0.028674 -0.156606 0.772000 13680585
0.028674 -0.152194 0.772000 14406103
0.028526 -0.147017 0.768000 14079196
0.028414 -0.142071 0.765000 13351892
0.028340 -0.137340 0.763000 13353691
0.028414 -0.133329 0.765000 13481411
0.028489 -0.129294 0.767000 12888254
0.028600 -0.125400 0.770000 12955326
0.028860 -0.122100 0.777000 13085889
0.028971 -0.118114 0.780000 13085631
0.029046 -0.113949 0.782000 12757432
0.029529 -0.111300 0.795000 12692925
0.029529 -0.106757 0.795000 12692413
0.029789 -0.103114 0.802000 12821940
0.029789 -0.098531 0.802000 12625592
0.030160 -0.095120 0.812000 12098230
0.030271 -0.090814 0.815000 12491442
0.030346 -0.086369 0.817000 13020346
0.030067 -0.156200 0.770000 13216423
0.030067 -0.151800 0.770000 13416118
0.029989 -0.147017 0.768000 13284289
0.029871 -0.142071 0.765000 13149634
0.029793 -0.137340 0.763000 13020622
0.029871 -0.133329 0.765000 12950173
0.029950 -0.129294 0.767000 12689568
0.031043 -0.111300 0.795000 12623015
0.031043 -0.106757 0.795000 12689573
0.031533 -0.156200 0.770000 12688807
0.031533 -0.151800 0.770000 12428209
0.031451 -0.147017 0.768000 12558004
0.031410 -0.142443 0.767000 12953265
0.033000 -0.156200 0.770000 12754854
0.032914 -0.151406 0.768000 12557996
0.032914 -0.147017 0.768000 12624039
0.034377 -0.151406 0.768000 12624299
0.034377 -0.147017 0.768000 12689832
0.035840 -0.151406 0.768000 12558506
-0.043772 -0.156542 0.779000 11835297
-0.043660 -0.151700 0.777000 11507871
-0.043379 -0.146312 0.772000 10719396
-0.043435 -0.137668 0.773000 10650750
-0.043435 -0.133250 0.773000 11375493
-0.042289 -0.156542 0.779000 11380421
-0.041909 -0.150724 0.772000 10983877
-0.041909 -0.146312 0.772000 10459066
-0.041909 -0.141901 0.772000 9470356
-0.041909 -0.137490 0.772000 8747140
-0.041909 -0.133078 0.772000 10390400
-0.043537 -0.106170 0.802000 11108737
-0.044189 -0.103107 0.814000 10649984
-0.044080 -0.098213 0.812000 10321532
-0.040962 -0.161613 0.782000 12561350
-0.040805 -0.156542 0.779000 12897001
-0.040438 -0.150724 0.772000 12500459
-0.040333 -0.145933 0.770000 11378385
-0.040229 -0.141166 0.768000 10196161
-0.040229 -0.136777 0.768000 8943499
-0.040229 -0.132389 0.768000 9731194
-0.040229 -0.128000 0.768000 9927041
-0.041433 -0.118273 0.791000 9928324
-0.041433 -0.113753 0.791000 9920367
-0.041643 -0.109786 0.795000 10385791
-0.042010 -0.106170 0.802000 10385796
-0.042324 -0.102347 0.808000 10387331
-0.042533 -0.098213 0.812000 10058880
-0.039573 -0.162027 0.784000 13225952
-0.039321 -0.156542 0.779000 14407150
-0.038968 -0.150724 0.772000 14013935
-0.038867 -0.145933 0.770000 12237024
-0.038614 -0.140614 0.765000 10985928
-0.038715 -0.136599 0.767000 9078428
-0.038766 -0.132389 0.768000 9141127
-0.038766 -0.128000 0.768000 9272196
-0.039018 -0.124416 0.773000 8280175
-0.039220 -0.120620 0.777000 8478315
-0.039674 -0.117526 0.786000 8812395
-0.039826 -0.113466 0.789000 9137275
-0.040028 -0.109510 0.793000 9795460
-0.040381 -0.105905 0.800000 9666183
-0.040684 -0.102093 0.806000 10190215
-0.040886 -0.097971 0.810000 9796230
-0.041088 -0.093804 0.814000 9335655
-0.037886 -0.161200 0.780000 13884409
-0.037837 -0.156542 0.779000 14144242
-0.037497 -0.150724 0.772000 13947891
-0.037400 -0.145933 0.770000 13159407
-0.037157 -0.140614 0.765000 11380942
-0.037157 -0.136243 0.765000 10196397
-0.037157 -0.131871 0.765000 9338516
-0.037303 -0.128000 0.768000 9404808
-0.037546 -0.124416 0.773000 8676462
-0.037837 -0.120930 0.779000 8605794
-0.038177 -0.117526 0.786000 8872017
-0.038323 -0.113466 0.789000 9601671
-0.038517 -0.109510 0.793000 9928584
-0.038760 -0.105640 0.798000 9928843
-0.039051 -0.101840 0.804000 10125451
-0.039246 -0.097730 0.808000 9864076
-0.039537 -0.093804 0.814000 9597272
-0.039683 -0.089481 0.817000 9862526
-0.039586 -0.084605 0.815000 9534082
-0.036680 -0.166931 0.786000 13813460
-0.036400 -0.161200 0.780000 14540277
-0.036260 -0.156140 0.777000 13881585
-0.036027 -0.150724 0.772000 13946865
-0.035840 -0.145554 0.768000 14011886
-0.035700 -0.140614 0.765000 11711456
-0.035607 -0.135887 0.763000 11246271
-0.035700 -0.131871 0.765000 9601426
-0.035840 -0.128000 0.768000 9470350
-0.036073 -0.124416 0.773000 9072773
-0.036260 -0.120620 0.777000 8737887
-0.036400 -0.116629 0.780000 8865106
-0.036773 -0.113322 0.788000 9995649
-0.036913 -0.109233 0.791000 10126737
-0.037240 -0.105640 0.798000 10126222
-0.037427 -0.101587 0.802000 10059655
-0.037707 -0.097730 0.808000 9863801
-0.037893 -0.093573 0.812000 9925236
-0.038033 -0.089262 0.815000 9994630
-0.038033 -0.084605 0.815000 9599622
-0.035183 -0.166931 0.786000 14214385
-0.034914 -0.161200 0.780000 14210032
-0.034780 -0.156140 0.777000 13947119
-0.034556 -0.150724 0.772000 13881070
-0.034377 -0.145554 0.768000 13947374
-0.034153 -0.140247 0.763000 12698354
-0.034153 -0.135887 0.763000 11051473
-0.034243 -0.131871 0.765000 9799311
-0.034332 -0.127833 0.767000 9601684
-0.034556 -0.124255 0.772000 9270683
-0.034780 -0.120620 0.777000 8672860
-0.034870 -0.116479 0.779000 8340563
-0.035183 -0.113034 0.786000 10127228
-0.035407 -0.109233 0.791000 10258074
-0.035675 -0.105508 0.797000 10061201
-0.035810 -0.101333 0.800000 9793667
-0.035989 -0.097246 0.804000 9796454
-0.036347 -0.093573 0.812000 10060176
-0.036436 -0.089152 0.814000 10192527
-0.036481 -0.084605 0.815000 9861258
-0.033686 -0.166931 0.786000 14605553
-0.033386 -0.160993 0.779000 13815535
-0.033300 -0.156140 0.777000 13947119
-0.033086 -0.150724 0.772000 13815022
-0.032914 -0.145554 0.768000 13881325
-0.032614 -0.139879 0.761000 13684722
-0.032614 -0.135530 0.761000 10792919
-0.032700 -0.131527 0.763000 9995692
-0.032786 -0.127500 0.765000 9667480
-0.033000 -0.123933 0.770000 9470621
-0.033214 -0.120310 0.775000 8611195
-0.033386 -0.116479 0.779000 7813466
-0.033429 -0.112171 0.780000 10254466
-0.033686 -0.108543 0.786000 10389655
-0.034071 -0.105243 0.795000 9995923
-0.034200 -0.101080 0.798000 9535372
-0.034371 -0.097004 0.802000 9664631
-0.034629 -0.093112 0.808000 10193299
-0.034800 -0.088933 0.812000 10323858
-0.034886 -0.084501 0.814000 10127753
-0.032393 -0.172513 0.791000 13155538
-0.032189 -0.166931 0.786000 14274801
-0.031902 -0.160993 0.779000 13881069
-0.031820 -0.156140 0.777000 14012912
-0.031615 -0.150724 0.772000 13946862
-0.031410 -0.145365 0.767000 13946605
-0.031165 -0.139879 0.761000 13881586
-0.031165 -0.135530 0.761000 11711453
-0.031165 -0.131182 0.761000 10393544
-0.031329 -0.127500 0.765000 9798555
-0.031451 -0.123611 0.768000 9733278
-0.031656 -0.119999 0.773000 9537691
-0.031820 -0.116180 0.777000 8609889
-0.031943 -0.112171 0.780000 9398664
-0.032107 -0.108267 0.784000 9930643
-0.032311 -0.104449 0.789000 9667477
-0.032557 -0.100700 0.795000 9930389
-0.032762 -0.096762 0.800000 9858696
-0.032926 -0.092651 0.804000 10258837
-0.033171 -0.088714 0.810000 10258838
-0.033253 -0.084293 0.812000 9993352
-0.030887 -0.172513 0.791000 13424103
-0.030770 -0.167356 0.788000 13881584
-0.030418 -0.160993 0.779000 13946862
-0.030340 -0.156140 0.777000 14012911
-0.030145 -0.150724 0.772000 14012910
-0.029989 -0.145554 0.768000 14012398
-0.029715 -0.139879 0.761000 14077936
-0.029676 -0.135352 0.760000 12566761
-0.029715 -0.131182 0.761000 10855886
-0.029793 -0.127167 0.763000 9864604
-0.029950 -0.123450 0.767000 9995937
-0.030145 -0.119844 0.772000 10390175
-0.030262 -0.115881 0.775000 9466245
-0.030418 -0.112028 0.779000 8551569
-0.030535 -0.107990 0.782000 9536664
-0.030770 -0.104316 0.788000 9269133
-0.030965 -0.100447 0.793000 10326174
-0.031121 -0.096399 0.797000 9994648
-0.031316 -0.092421 0.802000 10390682
-0.031550 -0.088495 0.808000 10193819
-0.031707 -0.084293 0.812000 9855866
-0.031902 -0.080144 0.817000 10324101
-0.029380 -0.172513 0.791000 13882875
-0.029269 -0.167356 0.788000 13881582
-0.028971 -0.161200 0.780000 13947119
-0.028860 -0.156140 0.777000 14078703
-0.028674 -0.150724 0.772000 14013165
-0.028526 -0.145554 0.768000 14012655
-0.028266 -0.139879 0.761000 14012910
-0.028229 -0.135352 0.760000 13423604
-0.028229 -0.131010 0.760000 11052756
-0.028266 -0.126833 0.761000 10128286
-0.028414 -0.123129 0.765000 10129315
-0.028600 -0.119533 0.770000 10390947
-0.028674 -0.115432 0.772000 9665705
-0.028860 -0.111740 0.777000 9539226
-0.029046 -0.107990 0.782000 9074844
-0.029194 -0.104051 0.786000 8805254
-0.029380 -0.100193 0.791000 10523302
-0.029529 -0.096157 0.795000 10326184
-0.029714 -0.092190 0.800000 10522271
-0.029937 -0.088276 0.806000 10326176
-0.030086 -0.084086 0.810000 9466988
-0.030271 -0.079948 0.815000 10391938
-0.027873 -0.172513 0.791000 14410489
-0.027768 -0.167356 0.788000 13881326
-0.027556 -0.161613 0.782000 14012400
-0.027380 -0.156140 0.777000 14078704
-0.027204 -0.150724 0.772000 14078959
-0.027028 -0.145365 0.767000 14012911
-0.026816 -0.139879 0.761000 14013167
-0.026710 -0.134996 0.758000 14209011
-0.026710 -0.130665 0.758000 11250645
-0.026710 -0.126333 0.758000 10391215
-0.026887 -0.122807 0.763000 10328490
-0.027063 -0.119223 0.768000 10391207
-0.027204 -0.115432 0.772000 9865893
-0.027380 -0.111740 0.777000 10522012
-0.027486 -0.107714 0.780000 8688034
-0.027697 -0.104051 0.786000 8287897
-0.027873 -0.100193 0.791000 10786215
-0.028014 -0.096157 0.795000 10588843
-0.028190 -0.092190 0.800000 10653605
-0.028331 -0.088057 0.804000 10457250
-0.028472 -0.083878 0.808000 9076107
-0.028684 -0.079850 0.814000 10388627
-0.026367 -0.172513 0.791000 14474230
-0.026267 -0.167356 0.788000 13946862
-0.026000 -0.161200 0.780000 14078192
-0.025900 -0.156140 0.777000 14078960
-0.025733 -0.150724 0.772000 14078705
-0.025567 -0.145365 0.767000 14078448
-0.025367 -0.139879 0.761000 14078703
-0.025267 -0.134996 0.758000 14077937
-0.025200 -0.130320 0.756000 11907798
-0.025200 -0.126000 0.756000 10457281
-0.025367 -0.122485 0.761000 10524592
-0.025433 -0.118447 0.763000 10522795
-0.025667 -0.115133 0.770000 10062753
-0.025833 -0.111452 0.775000 10589086
-0.025967 -0.107576 0.779000 9867944
-0.026133 -0.103787 0.784000 9731755
-0.026300 -0.099940 0.789000 10917544
-0.026433 -0.095915 0.793000 10851502
-0.026600 -0.091960 0.798000 10851243
-0.026733 -0.087838 0.802000 9473188
-0.026867 -0.083670 0.806000 10129322
-0.027000 -0.079457 0.810000 10785700
-0.024860 -0.172513 0.791000 14538994
-0.024703 -0.166931 0.786000 13946862
-0.024577 -0.161613 0.782000 14143984
-0.024420 -0.156140 0.777000 14078703
-0.024263 -0.150724 0.772000 14143985
-0.024106 -0.145365 0.767000 14144240
-0.023886 -0.139695 0.760000 14209776
-0.023760 -0.134640 0.756000 13946863
-0.023729 -0.130148 0.755000 12628711
-0.023729 -0.125833 0.755000 10525124
-0.023823 -0.122002 0.758000 10720436
-0.023917 -0.118136 0.761000 10589361
-0.024106 -0.114685 0.767000 10259884
-0.024357 -0.111452 0.775000 10588584
-0.024483 -0.107576 0.779000 11049390
-0.024577 -0.103522 0.782000 11113137
-0.024766 -0.099813 0.788000 11049133
-0.024860 -0.095673 0.791000 11049139
-0.025049 -0.091845 0.797000 11048628
-0.025143 -0.087619 0.800000 8417928
-0.025331 -0.083670 0.806000 11245488
-0.025394 -0.079261 0.808000 11180464
-0.023294 -0.172077 0.789000 14341102
-0.023147 -0.166507 0.784000 14012399
-0.023029 -0.161200 0.780000 14078448
-0.022881 -0.155738 0.775000 14143981
-0.022733 -0.150333 0.770000 14144240
-0.022645 -0.145365 0.767000 14210032
-0.022468 -0.139879 0.761000 14144496
-0.022320 -0.134640 0.756000 13880813
-0.022290 -0.130148 0.755000 12959992
-0.022290 -0.125833 0.755000 10853064
-0.022379 -0.122002 0.758000 10918840
-0.022438 -0.117981 0.760000 10720440
-0.022645 -0.114685 0.767000 10392758
-0.022733 -0.110733 0.770000 10655666
-0.022940 -0.107300 0.777000 11181236
-0.023029 -0.103257 0.780000 11246520
-0.023147 -0.099307 0.784000 11180977
-0.023265 -0.095310 0.788000 11246264
-0.023471 -0.091614 0.795000 11180732
-0.023560 -0.087400 0.798000 8466284
-0.023678 -0.083255 0.802000 11311286
-0.023796 -0.079065 0.806000 11246779
-0.021847 -0.177033 0.791000 14140108
-0.021847 -0.172513 0.791000 14142958
-0.021653 -0.166507 0.784000 14077935
-0.021543 -0.161200 0.780000 14012912
-0.021405 -0.155738 0.775000 14143982
-0.021267 -0.150333 0.770000 14144498
-0.021184 -0.145365 0.767000 14210288
-0.020935 -0.139328 0.758000 14144240
-0.020880 -0.134640 0.756000 13815789
-0.020852 -0.130148 0.755000 13287670
-0.020852 -0.125833 0.755000 11183306
-0.020935 -0.122002 0.758000 11182011
-0.020990 -0.117981 0.760000 10786238
-0.021184 -0.114685 0.767000 10526650
-0.021267 -0.110733 0.770000 10721971
-0.021405 -0.107024 0.775000 11247291
-0.021515 -0.103125 0.779000 11313087
-0.021653 -0.099307 0.784000 11378878
-0.021764 -0.095310 0.788000 11378620
-0.021902 -0.091384 0.793000 11313855
-0.022012 -0.087290 0.797000 8544386
-0.022095 -0.083048 0.800000 11376311
-0.022261 -0.079065 0.806000 11313341
-0.020340 -0.177033 0.791000 14406861
-0.020289 -0.172077 0.789000 14077934
-0.020160 -0.166507 0.784000 14077935
-0.020057 -0.161200 0.780000 14079215
-0.019980 -0.156140 0.777000 13618926
-0.019800 -0.150333 0.770000 14210547
-0.019671 -0.144986 0.765000 14210288
-0.019491 -0.139328 0.758000 14144240
-0.019440 -0.134640 0.756000 13881325
-0.019414 -0.130148 0.755000 13421044
-0.019440 -0.126000 0.756000 11511757
-0.019440 -0.121680 0.756000 11446206
-0.019543 -0.117981 0.760000 11047621
-0.019620 -0.114087 0.763000 10855101
-0.019800 -0.110733 0.770000 10788277
-0.019877 -0.106748 0.773000 11510722
-0.020031 -0.103125 0.779000 11576262
-0.020109 -0.099053 0.782000 11642315
-0.020211 -0.095069 0.786000 11576513
-0.020340 -0.091153 0.791000 11642306
-0.020443 -0.087071 0.795000 8674968
-0.020520 -0.082840 0.798000 11640503
-0.020674 -0.078869 0.804000 11576512
-0.020880 -0.075013 0.812000 11376841
-0.018833 -0.177033 0.791000 14601944
-0.018786 -0.172077 0.789000 14077678
-0.018667 -0.166507 0.784000 14078191
-0.018548 -0.160993 0.779000 14211314
-0.018452 -0.155738 0.775000 13022675
-0.018333 -0.150333 0.770000 14342390
-0.018286 -0.145554 0.768000 14144753
-0.018048 -0.139328 0.758000 14143728
-0.018000 -0.134640 0.756000 13947118
-0.017976 -0.130148 0.755000 13555444
-0.017976 -0.125833 0.755000 11775446
-0.018000 -0.121680 0.756000 11643337
-0.018048 -0.117670 0.758000 11247820
-0.018214 -0.114386 0.765000 11184323
-0.018333 -0.110733 0.770000 10853053
-0.018381 -0.106610 0.772000 11774406
-0.018500 -0.102860 0.777000 11839689
-0.018619 -0.099053 0.782000 11904974
-0.018667 -0.094827 0.784000 11709126
-0.018833 -0.091153 0.791000 11969478
-0.018929 -0.087071 0.795000 8750253
-0.019000 -0.082840 0.798000 11910342
-0.019143 -0.078869 0.804000 11839434
-0.019286 -0.074829 0.810000 12101833
-0.017370 -0.177481 0.793000 14604770
-0.017283 -0.172077 0.789000 14012142
-0.017173 -0.166507 0.784000 14078192
-0.017064 -0.160993 0.779000 13027317
-0.016976 -0.155738 0.775000 11568568
-0.016867 -0.150333 0.770000 14143225
-0.016823 -0.145554 0.768000 14144755
-0.016648 -0.139695 0.760000 14078448
-0.016560 -0.134640 0.756000 14143984
-0.016538 -0.130148 0.755000 13553908
-0.016538 -0.125833 0.755000 12170463
-0.016538 -0.121519 0.755000 11839700
-0.016604 -0.117670 0.758000 11644116
-0.016713 -0.114087 0.763000 11577800
-0.016823 -0.110446 0.768000 10392262
-0.016910 -0.106610 0.772000 12103370
-0.017020 -0.102860 0.777000 12102861
-0.017086 -0.098800 0.780000 12168400
-0.017173 -0.094827 0.784000 11383756
-0.017327 -0.091153 0.791000 12168905
-0.017370 -0.086852 0.793000 10723266
-0.017480 -0.082840 0.798000 12104916
-0.017611 -0.078869 0.804000 12102612
-0.017743 -0.074829 0.810000 12233673
-0.015860 -0.177481 0.793000 14537695
-0.015820 -0.172513 0.791000 13946606
-0.015760 -0.167356 0.788000 14012912
-0.015600 -0.161200 0.780000 11850203
-0.015540 -0.156140 0.777000 10059455
-0.015400 -0.150333 0.770000 13941201
-0.015360 -0.145554 0.768000 14078694
-0.015220 -0.139879 0.761000 14078192
-0.015120 -0.134640 0.756000 14275312
-0.015100 -0.130148 0.755000 13620467
-0.015060 -0.125500 0.753000 12564705
-0.015100 -0.121519 0.755000 12036568
-0.015160 -0.117670 0.758000 11972821
-0.015260 -0.114087 0.763000 11972047
-0.015360 -0.110446 0.768000 9873093
-0.015440 -0.106610 0.772000 12431823
-0.015540 -0.102860 0.777000 12300497
-0.015600 -0.098800 0.780000 12496598
-0.015680 -0.094827 0.784000 11049152
-0.015780 -0.090923 0.789000 12432337
-0.015860 -0.086852 0.793000 12627406
-0.015940 -0.082736 0.797000 12367062
-0.016080 -0.078869 0.804000 12366294
-0.016200 -0.074829 0.810000 12300499
-0.014313 -0.177033 0.791000 14540252
-0.014313 -0.172513 0.791000 13881069
-0.014259 -0.167356 0.788000 14012656
-0.014114 -0.161200 0.780000 12102593
-0.014024 -0.155738 0.775000 11508167
-0.013933 -0.150333 0.770000 12487080
-0.013879 -0.145365 0.767000 14077400
-0.013770 -0.139879 0.761000 14144239
-0.013680 -0.134640 0.756000 14210032
-0.013626 -0.129803 0.753000 13751025
-0.013626 -0.125500 0.753000 12827618
-0.013662 -0.121519 0.755000 12169436
-0.013716 -0.117670 0.758000 12238037
-0.013807 -0.114087 0.763000 12037846
-0.013897 -0.110446 0.768000 10790851
-0.013933 -0.106333 0.770000 12433620
-0.014060 -0.102860 0.777000 12498134
-0.014114 -0.098800 0.780000 12038875
-0.014187 -0.094827 0.784000 10575029
-0.014313 -0.091153 0.791000 12629976
-0.014350 -0.086852 0.793000 12695001
-0.014422 -0.082736 0.797000 12564184
-0.014512 -0.078672 0.802000 12629465
-0.014621 -0.074644 0.808000 12563932
-0.012839 -0.177481 0.793000 14471902
-0.012807 -0.172513 0.791000 13815276
-0.012758 -0.167356 0.788000 14012910
-0.012661 -0.161613 0.782000 12411316
-0.012580 -0.156140 0.777000 12950974
-0.012499 -0.150724 0.772000 11105710
-0.012434 -0.145554 0.768000 14004948
-0.012321 -0.139879 0.761000 14275569
-0.012240 -0.134640 0.756000 14144240
-0.012191 -0.129803 0.753000 13948401
-0.012191 -0.125500 0.753000 13025509
-0.012224 -0.121519 0.755000 12367582
-0.012272 -0.117670 0.758000 12433366
-0.012353 -0.114087 0.763000 12171222
-0.012434 -0.110446 0.768000 11642826
-0.012499 -0.106610 0.772000 12435153
-0.012548 -0.102595 0.775000 12693697
-0.012612 -0.098673 0.779000 11516126
-0.012661 -0.094585 0.782000 10049701
-0.012774 -0.090923 0.789000 12763608
-0.012839 -0.086852 0.793000 12696026
-0.012904 -0.082736 0.797000 12827100
-0.012920 -0.078280 0.798000 12827098
-0.013082 -0.074644 0.808000 12827354
-0.011329 -0.177481 0.793000 14406880
-0.011300 -0.172513 0.791000 13815531
-0.011229 -0.166931 0.786000 14012909
-0.011171 -0.161613 0.782000 12417447
-0.011100 -0.156140 0.777000 12885685
-0.011029 -0.150724 0.772000 11895732
-0.010971 -0.145554 0.768000 13082577
-0.010871 -0.139879 0.761000 14276338
-0.010829 -0.134996 0.758000 14144240
-0.010786 -0.130148 0.755000 14013936
-0.010786 -0.125833 0.755000 13222632
-0.010786 -0.121519 0.755000 12499167
-0.010829 -0.117670 0.758000 12696534
-0.010871 -0.113788 0.761000 12433622
-0.010971 -0.110446 0.768000 11776466
-0.011029 -0.106610 0.772000 11968462
-0.011071 -0.102595 0.775000 12691116
-0.011129 -0.098673 0.779000 12500448
-0.011171 -0.094585 0.782000 10173334
-0.011271 -0.090923 0.789000 12892375
-0.011329 -0.086852 0.793000 12893148
-0.011386 -0.082736 0.797000 13024735
-0.011457 -0.078672 0.802000 13090268
-0.011514 -0.074459 0.806000 12365015
-0.009818 -0.177481 0.793000 14275297
-0.009793 -0.172513 0.791000 13815532
-0.009731 -0.166931 0.786000 13946352
-0.009682 -0.161613 0.782000 12484550
-0.009595 -0.155738 0.775000 12815543
-0.009558 -0.150724 0.772000 12686004
-0.009496 -0.145365 0.767000 12094916
-0.009422 -0.139879 0.761000 14276596
-0.009360 -0.134640 0.756000 14144239
-0.009348 -0.130148 0.755000 14079472
-0.009310 -0.125333 0.752000 13355497
-0.009348 -0.121519 0.755000 12697058
-0.009360 -0.117360 0.756000 12892889
-0.009447 -0.114087 0.763000 12696024
-0.009496 -0.110302 0.767000 11837393
-0.009558 -0.106610 0.772000 11512540
-0.009595 -0.102595 0.775000 12680343
-0.009620 -0.098420 0.777000 13420004
-0.009707 -0.094827 0.784000 10317997
-0.009769 -0.090923 0.789000 13029856
-0.009818 -0.086852 0.793000 13090528
-0.009868 -0.082736 0.797000 13223137
-0.009880 -0.078280 0.798000 13287903
-0.009979 -0.074459 0.806000 11895762
-0.008308 -0.177481 0.793000 14144226
-0.008287 -0.172513 0.791000 13815277
-0.008234 -0.166931 0.786000 14013684
-0.008171 -0.161200 0.780000 12360933
-0.008119 -0.155738 0.775000 12749497
-0.008088 -0.150724 0.772000 12555956
-0.008035 -0.145365 0.767000 10900152
-0.007972 -0.139879 0.761000 14276342
-0.007920 -0.134640 0.756000 14144494
-0.007910 -0.130148 0.755000 14079472
-0.007878 -0.125333 0.752000 13420779
-0.007910 -0.121519 0.755000 12828132
-0.007920 -0.117360 0.756000 13024732
-0.007993 -0.114087 0.763000 12959193
-0.008035 -0.110302 0.767000 11242193
-0.008088 -0.106610 0.772000 11904745
-0.008119 -0.102595 0.775000 11417475
-0.008140 -0.098420 0.777000 13551592
-0.008192 -0.094585 0.782000 10652100
-0.008266 -0.090923 0.789000 13157609
-0.008308 -0.086852 0.793000 13353701
-0.008350 -0.082736 0.797000 13420258
-0.008360 -0.078280 0.798000 13485283
-0.008444 -0.074459 0.806000 11505101
-0.006797 -0.177481 0.793000 14012642
-0.006763 -0.172077 0.789000 13880556
-0.006720 -0.166507 0.784000 14013167
-0.006686 -0.161200 0.780000 12301017
-0.006660 -0.156140 0.777000 12683447
-0.006617 -0.150724 0.772000 12357291
-0.006557 -0.144986 0.765000 9669296
-0.006514 -0.139695 0.760000 14276852
-0.006480 -0.134640 0.756000 14144495
-0.006471 -0.130148 0.755000 14145008
-0.006446 -0.125333 0.752000 13421293
-0.006471 -0.121519 0.755000 13025254
-0.006514 -0.117981 0.760000 13155807
-0.006540 -0.114087 0.763000 13221341
-0.006574 -0.110302 0.767000 10594516
-0.006617 -0.106610 0.772000 12306152
-0.006643 -0.102595 0.775000 10128823
-0.006660 -0.098420 0.777000 13748201
-0.006703 -0.094585 0.782000 10989272
-0.006763 -0.090923 0.789000 13355754
-0.006780 -0.086633 0.791000 13618142
-0.006831 -0.082736 0.797000 13617374
-0.006874 -0.078672 0.802000 13615849
-0.006909 -0.074459 0.806000 11178445
-0.005287 -0.177481 0.793000 14078434
-0.005273 -0.172513 0.791000 13815275
-0.005227 -0.166507 0.784000 14012138
-0.005200 -0.161200 0.780000 11575756
-0.005180 -0.156140 0.777000 12485556
-0.005147 -0.150724 0.772000 11107746
-0.005113 -0.145365 0.767000 11445928
-0.005067 -0.139695 0.760000 14210290
-0.005040 -0.134640 0.756000 14144495
-0.005033 -0.130148 0.755000 14145264
-0.005013 -0.125333 0.752000 13617648
-0.005033 -0.121519 0.755000 13091303
-0.005067 -0.117981 0.760000 13288418
-0.005087 -0.114087 0.763000 13353697
-0.005113 -0.110302 0.767000 10853335
-0.005147 -0.106610 0.772000 12961510
-0.005167 -0.102595 0.775000 12109547
-0.005180 -0.098420 0.777000 13748969
-0.005213 -0.094585 0.782000 12504044
-0.005260 -0.090923 0.789000 13551851
-0.005273 -0.086633 0.791000 13292246
-0.005300 -0.082529 0.795000 13089497
-0.005347 -0.078672 0.802000 13749231
-0.005373 -0.074459 0.806000 12430029
-0.003776 -0.177481 0.793000 14144224
-0.003767 -0.172513 0.791000 13815276
-0.003733 -0.166507 0.784000 13945581
-0.003710 -0.160993 0.779000 10849212
-0.003700 -0.156140 0.777000 12229572
-0.003676 -0.150724 0.772000 9934002
-0.003652 -0.145365 0.767000 13222087
-0.003619 -0.139695 0.760000 14209521
-0.003600 -0.134640 0.756000 14078703
-0.003595 -0.130148 0.755000 14145520
-0.003586 -0.125500 0.753000 13749999
-0.003586 -0.121197 0.753000 13222891
-0.003619 -0.117981 0.760000 13419492
-0.003633 -0.114087 0.763000 13485029
-0.003652 -0.110302 0.767000 11120344
-0.003667 -0.106333 0.770000 13687014
-0.003690 -0.102595 0.775000 14011115
-0.003710 -0.098673 0.779000 13749483
-0.003724 -0.094585 0.782000 14011373
-0.003757 -0.090923 0.789000 13748973
-0.003767 -0.086633 0.791000 12887774
-0.003786 -0.082529 0.795000 12501461
-0.003819 -0.078672 0.802000 13815280
-0.003838 -0.074459 0.806000 13683681
-0.002266 -0.177481 0.793000 14210527
-0.002260 -0.172513 0.791000 13881069
-0.002240 -0.166507 0.784000 14012656
-0.002226 -0.160993 0.779000 11440556
-0.002220 -0.156140 0.777000 12496085
-0.002209 -0.150919 0.773000 10985409
-0.002186 -0.144986 0.765000 13883110
-0.002171 -0.139695 0.760000 14144239
-0.002166 -0.134996 0.758000 14078703
-0.002157 -0.130148 0.755000 14211056
-0.002151 -0.125500 0.753000 13815023
-0.002151 -0.121197 0.753000 13354479
-0.002171 -0.117981 0.760000 13552359
-0.002180 -0.114087 0.763000 13617128
-0.002191 -0.110302 0.767000 12438488
-0.002200 -0.106333 0.770000 13617382
-0.002214 -0.102595 0.775000 14011372
-0.002226 -0.098673 0.779000 13880813
-0.002234 -0.094585 0.782000 14011375
-0.002254 -0.090923 0.789000 13880302
-0.002260 -0.086633 0.791000 11837670
-0.002271 -0.082529 0.795000 13022929
-0.002291 -0.078672 0.802000 13946609
-0.002309 -0.074644 0.808000 14013172
-0.000755 -0.177481 0.793000 14209501
-0.000753 -0.172513 0.791000 13946860
-0.000747 -0.166507 0.784000 14077937
-0.000742 -0.160993 0.779000 12035767
-0.000740 -0.156140 0.777000 12688330
-0.000736 -0.150919 0.773000 12037584
-0.000729 -0.144986 0.765000 14538987
-0.000724 -0.139695 0.760000 14078703
-0.000720 -0.134640 0.756000 14078702
-0.000719 -0.130148 0.755000 14276593
-0.000717 -0.125500 0.753000 13881584
-0.000717 -0.121197 0.753000 13487087
-0.000725 -0.118136 0.761000 13617383
-0.000727 -0.114087 0.763000 13749485
-0.000730 -0.110302 0.767000 13745385
-0.000733 -0.106333 0.770000 13556446
-0.000738 -0.102595 0.775000 13946351
-0.000742 -0.098673 0.779000 14012147
-0.000745 -0.094585 0.782000 13946608
-0.000751 -0.090923 0.789000 14077935
-0.000753 -0.086633 0.791000 10723301
-0.000757 -0.082529 0.795000 13616868
-0.000764 -0.078672 0.802000 14078193
-0.000770 -0.074644 0.808000 14406643
0.000753 -0.177033 0.791000 14341595
0.000753 -0.172513 0.791000 13946858
0.000747 -0.166507 0.784000 14013170
0.000742 -0.160993 0.779000 12628674
0.000738 -0.155738 0.775000 12751296
0.000736 -0.150919 0.773000 12762078
0.000730 -0.145365 0.767000 14275312
0.000725 -0.139879 0.761000 14078703
0.000722 -0.134996 0.758000 14078445
0.000719 -0.130148 0.755000 14342385
0.000716 -0.125333 0.752000 14012912
0.000717 -0.121197 0.753000 13618159
0.000722 -0.117670 0.758000 13618151
0.000727 -0.114087 0.763000 14012146
0.000730 -0.110302 0.767000 13491449
0.000733 -0.106333 0.770000 13548757
0.000740 -0.102860 0.777000 14143474
0.000743 -0.098800 0.780000 14145016
0.000745 -0.094585 0.782000 14209522
0.000751 -0.090923 0.789000 14209776
0.000753 -0.086633 0.791000 12296932
0.000757 -0.082529 0.795000 14077687
0.000764 -0.078672 0.802000 14143985
0.000770 -0.074644 0.808000 14472690
0.002260 -0.177033 0.791000 14405850
0.002254 -0.172077 0.789000 13946603
0.002240 -0.166507 0.784000 13881584
0.002226 -0.160993 0.779000 13219289
0.002214 -0.155738 0.775000 12761049
0.002206 -0.150724 0.772000 13558505
0.002191 -0.145365 0.767000 13947375
0.002174 -0.139879 0.761000 14078703
0.002166 -0.134996 0.758000 14078188
0.002157 -0.130148 0.755000 14409459
0.002151 -0.125500 0.753000 14078447
0.002157 -0.121519 0.755000 13749743
0.002171 -0.117981 0.760000 13618156
0.002180 -0.114087 0.763000 14276085
0.002186 -0.110014 0.765000 13213932
0.002200 -0.106333 0.770000 13482196
0.002220 -0.102860 0.777000 14341620
0.002229 -0.098800 0.780000 14276835
0.002240 -0.094827 0.784000 14472166
0.002254 -0.090923 0.789000 14341360
0.002260 -0.086633 0.791000 13879788
0.002277 -0.082736 0.797000 14607352
0.002291 -0.078672 0.802000 14143463
0.002309 -0.074644 0.808000 14604018
0.003767 -0.177033 0.791000 14276569
0.003757 -0.172077 0.789000 13881323
0.003743 -0.166931 0.786000 13881326
0.003710 -0.160993 0.779000 13552112
0.003690 -0.155738 0.775000 13422835
0.003667 -0.150333 0.770000 13817587
0.003652 -0.145365 0.767000 14012654
0.003624 -0.139879 0.761000 14144495
0.003600 -0.134640 0.756000 13881323
0.003595 -0.130148 0.755000 14606325
0.003595 -0.125833 0.755000 14143982
0.003600 -0.121680 0.756000 14013167
0.003624 -0.118136 0.761000 13683186
0.003633 -0.114087 0.763000 13816311
0.003652 -0.110302 0.767000 12349151
0.003667 -0.106333 0.770000 13547730
0.003700 -0.102860 0.777000 14472693
0.003714 -0.098800 0.780000 12425166
0.003733 -0.094827 0.784000 14735578
0.003757 -0.090923 0.789000 14472944
0.003776 -0.086852 0.793000 14276852
0.003800 -0.082840 0.798000 14081784
0.003829 -0.078869 0.804000 13878493
0.003857 -0.074829 0.810000 14604785
0.005273 -0.177033 0.791000 14076623
0.005260 -0.172077 0.789000 13881580
0.005240 -0.166931 0.786000 13881325
0.005193 -0.160993 0.779000 13881583
0.005167 -0.155738 0.775000 14012656
0.005133 -0.150333 0.770000 14143217
0.005113 -0.145365 0.767000 14078446
0.005073 -0.139879 0.761000 14144752
0.005040 -0.134640 0.756000 13683180
0.005033 -0.130148 0.755000 14808567
0.005033 -0.125833 0.755000 14210030
0.005040 -0.121680 0.756000 14276080
0.005073 -0.118136 0.761000 13749747
0.005087 -0.114087 0.763000 13423068
0.005120 -0.110446 0.768000 11438302
0.005147 -0.106610 0.772000 13617621
0.005180 -0.102860 0.777000 14603502
0.005213 -0.099053 0.782000 10514643
0.005227 -0.094827 0.784000 14930909
0.005273 -0.091153 0.791000 14604528
0.005300 -0.087071 0.795000 14670067
0.005333 -0.083048 0.800000 13557996
0.005360 -0.078869 0.804000 13545192
0.005400 -0.074829 0.810000 14670064
0.006780 -0.177033 0.791000 13880262
0.006763 -0.172077 0.789000 13881324
0.006737 -0.166931 0.786000 13946861
0.006677 -0.160993 0.779000 13947373
0.006643 -0.155738 0.775000 14012398
0.006617 -0.150724 0.772000 14078191
0.006557 -0.144986 0.765000 14078191
0.006523 -0.139879 0.761000 14144753
0.006480 -0.134640 0.756000 13616365
0.006471 -0.130148 0.755000 15002104
0.006471 -0.125833 0.755000 14341614
0.006480 -0.121680 0.756000 14407408
0.006523 -0.118136 0.761000 14011125
0.006540 -0.114087 0.763000 12892608
0.006583 -0.110446 0.768000 12094685
0.006617 -0.106610 0.772000 13087192
0.006677 -0.103125 0.779000 14801128
0.006703 -0.099053 0.782000 11631832
0.006737 -0.095069 0.786000 14999776
0.006780 -0.091153 0.791000 14604527
0.006814 -0.087071 0.795000 14735858
0.006857 -0.083048 0.800000 13156064
0.006891 -0.078869 0.804000 13939188
0.008287 -0.177033 0.791000 13680066
0.008266 -0.172077 0.789000 13946861
0.008234 -0.166931 0.786000 14012398
0.008171 -0.161200 0.780000 14013165
0.008119 -0.155738 0.775000 13946861
0.008067 -0.150333 0.770000 14012910
0.008035 -0.145365 0.767000 14078448
0.007972 -0.139879 0.761000 14078961
0.007910 -0.134462 0.755000 13553645
0.007910 -0.130148 0.755000 15133943
0.007910 -0.125833 0.755000 14472942
0.007941 -0.122002 0.758000 14538224
0.007972 -0.118136 0.761000 14276593
0.008014 -0.114386 0.765000 12419516
0.008046 -0.110446 0.768000 12688844
0.008088 -0.106610 0.772000 12623313
0.008161 -0.103125 0.779000 14998257
0.008192 -0.099053 0.782000 12682976
0.008234 -0.095069 0.786000 15064555
0.008287 -0.091153 0.791000 14670064
0.008350 -0.087290 0.797000 14802162
0.008402 -0.083255 0.802000 12752610
0.008423 -0.078869 0.804000 14334710
0.009793 -0.177033 0.791000 13351103
0.009769 -0.172077 0.789000 14012654
0.009731 -0.166931 0.786000 14143215
0.009657 -0.161200 0.780000 14012909
0.009595 -0.155738 0.775000 13946605
0.009509 -0.149943 0.768000 14012909
0.009496 -0.145365 0.767000 14078449
0.009422 -0.139879 0.761000 14078961
0.009360 -0.134640 0.756000 13946605
0.009360 -0.130320 0.756000 14935286
0.009348 -0.125833 0.755000 14473454
0.009385 -0.122002 0.758000 14670576
0.009447 -0.118447 0.763000 14079981
0.009496 -0.114685 0.767000 12223416
0.009533 -0.110733 0.770000 12617147
0.009558 -0.106610 0.772000 13351369
0.009645 -0.103125 0.779000 14934010
0.009682 -0.099053 0.782000 13810664
0.009731 -0.095069 0.786000 15064566
0.009818 -0.091384 0.793000 14801905
0.009868 -0.087290 0.797000 14802674
0.009930 -0.083255 0.802000 13411811
0.009979 -0.079065 0.806000 15000312
0.011300 -0.177033 0.791000 12955832
0.011271 -0.172077 0.789000 14144238
0.011229 -0.166931 0.786000 14209006
0.011143 -0.161200 0.780000 14078444
0.011071 -0.155738 0.775000 13881582
0.010971 -0.149943 0.768000 14078702
0.010957 -0.145365 0.767000 14078448
0.010871 -0.139879 0.761000 14078702
0.010800 -0.134640 0.756000 14276330
0.010800 -0.130320 0.756000 14802930
0.010800 -0.126000 0.756000 14407919
0.010857 -0.122324 0.760000 14866674
0.010900 -0.118447 0.763000 13880814
0.010971 -0.114834 0.768000 12025523
0.011000 -0.110733 0.770000 12486849
0.011100 -0.107300 0.777000 14142921
0.011129 -0.103125 0.779000 14868720
0.011200 -0.099307 0.784000 14935278
0.011257 -0.095310 0.788000 15000054
0.011386 -0.091845 0.797000 14933488
0.011400 -0.087400 0.798000 14737138
0.011486 -0.083463 0.804000 14011115
0.011514 -0.079065 0.806000 15656694
0.012807 -0.177033 0.791000 12821169
0.012774 -0.172077 0.789000 14013166
0.012758 -0.167356 0.788000 14078190
0.012629 -0.161200 0.780000 14012651
0.012580 -0.156140 0.777000 13947375
0.012434 -0.149943 0.768000 14078447
0.012386 -0.144986 0.765000 14078192
0.012321 -0.139879 0.761000 13815786
0.012240 -0.134640 0.756000 14736871
0.012240 -0.130320 0.756000 14671085
0.012240 -0.126000 0.756000 14539247
0.012321 -0.122485 0.761000 14605044
0.012386 -0.118757 0.765000 14079727
0.012467 -0.115133 0.770000 12222382
0.012499 -0.111021 0.772000 12423623
0.012580 -0.107300 0.777000 13077705
0.012629 -0.103257 0.780000 14933735
0.012661 -0.099053 0.782000 14868468
0.012774 -0.095431 0.789000 14870263
0.012871 -0.091614 0.795000 14142702
0.012920 -0.087400 0.798000 14802419
0.013017 -0.083463 0.804000 14474227
0.013114 -0.079457 0.810000 15261685
0.014313 -0.177033 0.791000 12625066
0.014277 -0.172077 0.789000 13882094
0.014187 -0.166507 0.784000 13947117
0.014114 -0.161200 0.780000 14012653
0.013988 -0.155336 0.773000 14012912
0.013879 -0.149748 0.767000 14143984
0.013807 -0.144607 0.763000 14012656
0.013752 -0.139695 0.760000 13619176
0.013662 -0.134462 0.755000 15196141
0.013662 -0.130148 0.755000 14604014
0.013662 -0.125833 0.755000 14604527
0.013752 -0.122324 0.760000 14409714
0.013807 -0.118447 0.763000 14203113
0.013897 -0.114834 0.768000 12482726
0.013970 -0.111021 0.772000 12358339
0.014024 -0.107024 0.775000 12018386
0.014114 -0.103257 0.780000 14933231
0.014187 -0.099307 0.784000 14801651
0.014277 -0.095431 0.789000 14730481
0.014422 -0.091845 0.797000 13347802
0.014440 -0.087400 0.798000 14803189
0.014549 -0.083463 0.804000 14933746
0.014693 -0.079653 0.812000 14866674
0.015820 -0.177033 0.791000 12623523
0.015760 -0.171859 0.788000 13683693
0.015640 -0.166082 0.782000 13881580
0.015580 -0.160993 0.779000 14012911
0.015460 -0.155336 0.773000 14012656
0.015340 -0.149748 0.767000 14078449
0.015260 -0.144607 0.763000 13946864
0.015160 -0.139328 0.758000 13747942
0.015100 -0.134462 0.755000 15266291
0.015100 -0.130148 0.755000 14538479
0.015120 -0.126000 0.756000 14407664
0.015220 -0.122485 0.761000 14408176
0.015340 -0.119068 0.767000 13148387
0.015400 -0.115133 0.770000 12414366
0.015460 -0.111165 0.773000 12426175
0.015580 -0.107576 0.779000 12885467
0.015640 -0.103522 0.782000 14999543
0.015760 -0.099813 0.788000 14670833
0.015820 -0.095673 0.791000 13138156
0.015900 -0.091614 0.795000 13546437
0.015940 -0.087290 0.797000 14737654
0.016080 -0.083463 0.804000 14604272
0.016200 -0.079457 0.810000 14933232
0.017086 -0.170114 0.780000 13553102
0.017130 -0.166082 0.782000 13815532
0.017064 -0.160993 0.779000 14012910
0.016932 -0.155336 0.773000 14012656
0.016823 -0.149943 0.768000 14078448
0.016713 -0.144607 0.763000 13881327
0.016604 -0.139328 0.758000 13940713
0.016538 -0.134462 0.755000 15329010
0.016538 -0.130148 0.755000 14472944
0.016604 -0.126333 0.758000 14144239
0.016713 -0.122807 0.763000 14407920
0.016823 -0.119223 0.768000 12096734
0.016910 -0.115432 0.772000 12355771
0.016976 -0.111452 0.775000 12431310
0.017086 -0.107714 0.780000 13814505
0.017173 -0.103787 0.784000 15065072
0.017283 -0.099940 0.789000 14605297
0.017370 -0.095915 0.793000 11575530
0.017458 -0.091845 0.797000 13753822
0.017480 -0.087400 0.798000 14600686
0.017611 -0.083463 0.804000 14272233
0.017787 -0.079653 0.812000 14933236
0.018571 -0.170114 0.780000 13286062
0.018619 -0.166082 0.782000 13749485
0.018500 -0.160580 0.777000 14013164
0.018405 -0.155336 0.773000 14078192
0.018286 -0.149943 0.768000 14012911
0.018167 -0.144607 0.763000 13815277
0.018095 -0.139695 0.760000 14274284
0.018000 -0.134640 0.756000 14932722
0.018000 -0.130320 0.756000 14341616
0.018095 -0.126667 0.760000 14011887
0.018214 -0.123129 0.765000 14210288
0.018333 -0.119533 0.770000 12354010
0.018405 -0.115582 0.773000 12091608
0.018548 -0.112028 0.779000 13361886
0.018619 -0.107990 0.782000 13418487
0.018667 -0.103787 0.784000 14932970
0.018833 -0.100193 0.791000 14604272
0.018929 -0.096157 0.795000 13020649
0.019000 -0.091960 0.798000 14014966
0.019143 -0.088057 0.804000 13997029
0.019190 -0.083670 0.806000 14273250
0.019381 -0.079850 0.814000 14933752
0.020057 -0.170114 0.780000 13085857
0.020109 -0.166082 0.782000 13683687
0.019980 -0.160580 0.777000 14013165
0.019877 -0.155336 0.773000 14078190
0.019749 -0.149943 0.768000 13947373
0.019671 -0.144986 0.765000 13748199
0.019543 -0.139695 0.760000 14605812
0.019491 -0.134996 0.758000 14474226
0.019491 -0.130665 0.758000 14275568
0.019569 -0.126833 0.761000 13881839
0.019723 -0.123450 0.767000 14013683
0.019851 -0.119844 0.772000 12627172
0.019877 -0.115582 0.773000 11825373
0.020057 -0.112171 0.780000 14271957
0.020160 -0.108267 0.784000 13014997
0.020263 -0.104316 0.788000 14800878
0.020340 -0.100193 0.791000 14604531
0.020494 -0.096399 0.797000 14471919
0.020674 -0.092651 0.804000 14342644
0.020726 -0.088276 0.806000 13345515
0.020777 -0.083878 0.808000 14345704
0.020931 -0.079850 0.814000 14933742
0.021543 -0.170114 0.780000 12953492
0.021543 -0.165657 0.780000 13683170
0.021460 -0.160580 0.777000 13748974
0.021350 -0.155336 0.773000 13881324
0.021211 -0.149943 0.768000 13683946
0.021129 -0.144986 0.765000 13746658
0.020990 -0.139695 0.760000 14804731
0.020935 -0.134996 0.758000 14407665
0.020990 -0.131010 0.760000 14209775
0.021018 -0.126833 0.761000 14209520
0.021211 -0.123611 0.768000 14079734
0.021350 -0.119999 0.773000 13024238
0.021405 -0.115881 0.775000 13154274
0.021543 -0.112171 0.780000 13600460
0.021709 -0.108543 0.786000 13280947
0.021791 -0.104449 0.789000 14670067
0.021957 -0.100700 0.795000 14605046
0.022095 -0.096762 0.800000 14408950
0.022206 -0.092651 0.804000 14473713
0.022316 -0.088495 0.808000 14011633
0.022371 -0.084086 0.810000 14003438
0.023029 -0.165657 0.780000 13680845
0.022940 -0.160580 0.777000 13550064
0.022822 -0.155336 0.773000 13682921
0.022674 -0.149943 0.768000 13421031
0.022586 -0.144986 0.765000 13686508
0.022468 -0.139879 0.761000 15068406
0.022438 -0.135352 0.760000 14341361
0.022468 -0.131182 0.761000 14143982
0.022586 -0.127500 0.765000 14472178
0.022733 -0.123933 0.770000 14210795
0.022881 -0.120310 0.775000 13419504
0.022999 -0.116479 0.779000 14541549
0.023088 -0.112459 0.782000 12960996
