# .PCD v.7 - Point Cloud Data file format
VERSION .7
FIELDS x y z rgb
SIZE 4 4 4 4
TYPE F F F I
COUNT 1 1 1 1
WIDTH 1278
HEIGHT 1
POINTS 1278
DATA ascii
-0.005747 -0.074707 0.862000 14867958
-0.005767 -0.070024 0.865000 14539502
-0.005820 -0.065683 0.873000 14669812
-0.005867 -0.061181 0.880000 13022427
-0.005913 -0.056599 0.887000 14470887
-0.005960 -0.051937 0.894000 14669039
-0.006007 -0.047195 0.901000 14407664
-0.006053 -0.042373 0.908000 14401522
-0.006087 -0.037390 0.913000 14867443
-0.006147 -0.032490 0.922000 14210293
-0.004257 -0.128566 0.894000 15000563
-0.004233 -0.122767 0.889000 14934767
-0.004224 -0.117422 0.887000 14934514
-0.004200 -0.111720 0.882000 13947373
-0.004181 -0.106196 0.878000 12817853
-0.004167 -0.100833 0.875000 13220045
-0.004148 -0.095395 0.871000 14075351
-0.004138 -0.090210 0.869000 15196911
-0.004119 -0.084852 0.865000 15197423
-0.004105 -0.079632 0.862000 15465210
-0.004105 -0.074707 0.862000 14936054
-0.004119 -0.070024 0.865000 14671854
-0.004157 -0.065683 0.873000 15393524
-0.004190 -0.061181 0.880000 13945312
-0.004224 -0.056599 0.887000 13750506
-0.004257 -0.051937 0.894000 14334441
-0.004290 -0.047195 0.901000 14868723
-0.004310 -0.042233 0.905000 14871028
-0.004348 -0.037390 0.913000 14801647
-0.004381 -0.032419 0.920000 14668513
-0.002554 -0.128566 0.894000 15000051
-0.002540 -0.122767 0.889000 14934511
-0.002534 -0.117422 0.887000 14934258
-0.002520 -0.111720 0.882000 13809896
-0.002509 -0.106196 0.878000 12229816
-0.002500 -0.100833 0.875000 12427980
-0.002489 -0.095395 0.871000 14403800
-0.002483 -0.090210 0.869000 15131630
-0.002471 -0.084852 0.865000 15131886
-0.002463 -0.079632 0.862000 15462138
-0.002463 -0.074707 0.862000 15064822
-0.002471 -0.070024 0.865000 14868206
-0.002500 -0.065833 0.875000 15394547
-0.002514 -0.061181 0.880000 14273765
-0.002534 -0.056599 0.887000 13818860
-0.002554 -0.051937 0.894000 14203619
-0.002574 -0.047195 0.901000 15197942
-0.002586 -0.042233 0.905000 15066613
-0.002609 -0.037390 0.913000 14866923
-0.002629 -0.032419 0.920000 14140877
-0.000851 -0.128566 0.894000 15000562
-0.000847 -0.122767 0.889000 14934511
-0.000845 -0.117422 0.887000 14868977
-0.000840 -0.111720 0.882000 13680622
-0.000838 -0.106438 0.880000 11643346
-0.000833 -0.100833 0.875000 11573190
-0.000830 -0.095395 0.871000 14664923
-0.000828 -0.090210 0.869000 15065583
-0.000824 -0.084852 0.865000 15066094
-0.000821 -0.079632 0.862000 15528953
-0.000821 -0.074707 0.862000 15132148
-0.000824 -0.070024 0.865000 14999535
-0.000833 -0.065833 0.875000 15394802
-0.000838 -0.061181 0.880000 14600677
-0.000842 -0.056408 0.884000 13881325
-0.000851 -0.051937 0.894000 14062825
-0.000858 -0.047195 0.901000 15460597
-0.000862 -0.042233 0.905000 15262453
-0.000870 -0.037390 0.913000 14930926
-0.000876 -0.032419 0.920000 13612768
0.000849 -0.128134 0.891000 15000050
0.000847 -0.122767 0.889000 14934511
0.000845 -0.117422 0.887000 14934256
0.000842 -0.111973 0.884000 14341620
0.000838 -0.106438 0.880000 13290477
0.000833 -0.100833 0.875000 11573952
0.000830 -0.095395 0.871000 14865631
0.000828 -0.090210 0.869000 15131631
0.000824 -0.084852 0.865000 15000814
0.000821 -0.079632 0.862000 15593720
0.000821 -0.074707 0.862000 15329523
0.000826 -0.070186 0.867000 15065583
0.000833 -0.065833 0.875000 15394290
0.000838 -0.061181 0.880000 14669028
0.000842 -0.056408 0.884000 14275055
0.000849 -0.051763 0.891000 14665199
0.000858 -0.047195 0.901000 15525876
0.000865 -0.042373 0.908000 15263477
0.000871 -0.037471 0.915000 15130865
0.000876 -0.032419 0.920000 13616882
0.002546 -0.128134 0.891000 14935027
0.002540 -0.122767 0.889000 14999791
0.002534 -0.117422 0.887000 14934512
0.002520 -0.111720 0.882000 15000819
0.002514 -0.106438 0.880000 14933232
0.002500 -0.100833 0.875000 11587036
0.002489 -0.095395 0.871000 15063528
0.002483 -0.090210 0.869000 15131375
0.002471 -0.084852 0.865000 14933997
0.002463 -0.079632 0.862000 15661563
0.002463 -0.074707 0.862000 15526899
0.002477 -0.070186 0.867000 15196912
0.002500 -0.065833 0.875000 15328497
0.002514 -0.061181 0.880000 14799337
0.002526 -0.056408 0.884000 14606834
0.002554 -0.051937 0.894000 15333107
0.002574 -0.047195 0.901000 15526644
0.002594 -0.042373 0.908000 15330024
0.002614 -0.037471 0.915000 15327986
0.002629 -0.032419 0.920000 13624305
0.004243 -0.128134 0.891000 15066101
0.004233 -0.122767 0.889000 14934511
0.004224 -0.117422 0.887000 14934512
0.004200 -0.111720 0.882000 15066354
0.004181 -0.106196 0.878000 15001075
0.004167 -0.100833 0.875000 13491960
0.004148 -0.095395 0.871000 15133170
0.004138 -0.090210 0.869000 15131631
0.004129 -0.085049 0.867000 14473708
0.004105 -0.079632 0.862000 15988478
0.004105 -0.074707 0.862000 15592180
0.004129 -0.070186 0.867000 15394289
0.004167 -0.065833 0.875000 15264240
0.004190 -0.061181 0.880000 15065069
0.004210 -0.056408 0.884000 15264758
0.004257 -0.051937 0.894000 15528183
0.004300 -0.047300 0.903000 15723509
0.004324 -0.042373 0.908000 14467290
0.004357 -0.037471 0.915000 15657972
0.004390 -0.032490 0.922000 13749999
0.005940 -0.128134 0.891000 15131888
0.005927 -0.122767 0.889000 14934511
0.005913 -0.117422 0.887000 14934511
0.005880 -0.111720 0.882000 15066353
0.005853 -0.106196 0.878000 15066097
0.005833 -0.100833 0.875000 15395316
0.005807 -0.095395 0.871000 15197681
0.005793 -0.090210 0.869000 15197168
0.005767 -0.084852 0.865000 14013933
0.005747 -0.079632 0.862000 16318206
0.005747 -0.074707 0.862000 15658227
0.005793 -0.070348 0.869000 15592947
0.005853 -0.066059 0.878000 15197168
0.005867 -0.061181 0.880000 15396594
0.005893 -0.056408 0.884000 15854837
0.005960 -0.051937 0.894000 15789046
0.006033 -0.047405 0.905000 15855093
0.006053 -0.042373 0.908000 13599712
0.006100 -0.037471 0.915000 15920630
0.006147 -0.032490 0.922000 13940207
0.007637 -0.128134 0.891000 15131372
0.007620 -0.122767 0.889000 14934511
0.007603 -0.117422 0.887000 15000047
0.007560 -0.111720 0.882000 15066095
0.007526 -0.106196 0.878000 15000047
0.007500 -0.100833 0.875000 15197424
0.007466 -0.095395 0.871000 15131632
0.007449 -0.090210 0.869000 15197425
0.007414 -0.084852 0.865000 14469613
0.007389 -0.079632 0.862000 16316670
0.007389 -0.074707 0.862000 15592434
0.007449 -0.070348 0.869000 15658741
0.007500 -0.065833 0.875000 14867696
0.007543 -0.061181 0.880000 15593207
0.007577 -0.056408 0.884000 15789556
0.007680 -0.052053 0.896000 15789556
0.007757 -0.047405 0.905000 15920630
0.007800 -0.042467 0.910000 13870821
0.007860 -0.037553 0.917000 15921656
0.007929 -0.032595 0.925000 14866158
0.009313 -0.127847 0.889000 15064551
0.009313 -0.122767 0.889000 14934256
0.009292 -0.117422 0.887000 15000303
0.009240 -0.111720 0.882000 15000303
0.009198 -0.106196 0.878000 14934511
0.009167 -0.100833 0.875000 15000048
0.009125 -0.095395 0.871000 15066352
0.009104 -0.090210 0.869000 15197169
0.009062 -0.084852 0.865000 14869743
0.009030 -0.079632 0.862000 16251385
0.009062 -0.074967 0.865000 15460593
0.009104 -0.070348 0.869000 15725044
0.009198 -0.066059 0.878000 14475504
0.009240 -0.061320 0.882000 15790328
0.009313 -0.056727 0.889000 15724278
0.009408 -0.052170 0.898000 15855603
0.009481 -0.047405 0.905000 15920886
0.009533 -0.042467 0.910000 14193383
0.009607 -0.037553 0.917000 15921912
0.009690 -0.032595 0.925000 15788785
0.011007 -0.127847 0.889000 14802658
0.011007 -0.122767 0.889000 14934512
0.010982 -0.117422 0.887000 15065840
0.010920 -0.111720 0.882000 15000047
0.010870 -0.106196 0.878000 15000047
0.010833 -0.100833 0.875000 15065839
0.010784 -0.095395 0.871000 15131888
0.010759 -0.090210 0.869000 14934256
0.010710 -0.084852 0.865000 15724530
0.010672 -0.079632 0.862000 15987187
0.010710 -0.074967 0.865000 15393777
0.010784 -0.070510 0.871000 15658226
0.010870 -0.066059 0.878000 14736881
0.010945 -0.061459 0.884000 15855864
0.011007 -0.056727 0.889000 15856376
0.011118 -0.052170 0.898000 15460849
0.011205 -0.047405 0.905000 15986678
0.011304 -0.042607 0.913000 14996200
0.011390 -0.037676 0.920000 15920887
0.011477 -0.032666 0.927000 15789044
0.012700 -0.127847 0.889000 14537433
0.012700 -0.122767 0.889000 14934768
0.012671 -0.117422 0.887000 15065840
0.012600 -0.111720 0.882000 14999792
0.012543 -0.106196 0.878000 15065840
0.012471 -0.100603 0.873000 15065839
0.012443 -0.095395 0.871000 15197424
0.012414 -0.090210 0.869000 14738157
0.012357 -0.084852 0.865000 16511221
0.012314 -0.079632 0.862000 15723251
0.012386 -0.075140 0.867000 15263986
0.012471 -0.070671 0.873000 15526644
0.012571 -0.066210 0.880000 15000046
0.012671 -0.061668 0.887000 15986676
0.012729 -0.056854 0.891000 15984620
0.012829 -0.052170 0.898000 15064037
0.012971 -0.047562 0.908000 15986422
0.013043 -0.042607 0.913000 15789295
0.013171 -0.037758 0.922000 15920630
0.013243 -0.032666 0.927000 15789044
0.014393 -0.127847 0.889000 14207697
0.014393 -0.122767 0.889000 14868720
0.014361 -0.117422 0.887000 15000048
0.014248 -0.111467 0.880000 15000048
0.014215 -0.106196 0.878000 15065840
0.014134 -0.100603 0.873000 15066095
0.014070 -0.095176 0.869000 15132144
0.014037 -0.090003 0.867000 14933225
0.014005 -0.084852 0.865000 16317944
0.014005 -0.079910 0.865000 15591922
0.014070 -0.075313 0.869000 15329010
0.014134 -0.070671 0.873000 15263733
0.014248 -0.066210 0.880000 14671851
0.014361 -0.061668 0.887000 15524591
0.014474 -0.057046 0.894000 14535136
0.014588 -0.052344 0.901000 14864344
0.014701 -0.047562 0.908000 15854582
0.014814 -0.042700 0.915000 15724533
0.014976 -0.037881 0.925000 15724021
0.015009 -0.032666 0.927000 15789555
0.016087 -0.127847 0.889000 13812422
0.016087 -0.122767 0.889000 14803186
0.016050 -0.117422 0.887000 14934512
0.015960 -0.111720 0.882000 15065840
0.015888 -0.106196 0.878000 15066096
0.015833 -0.100833 0.875000 15131633
0.015725 -0.095176 0.869000 15000044
0.015689 -0.090003 0.867000 15192815
0.015652 -0.084852 0.865000 16118774
0.015689 -0.080094 0.867000 15460849
0.015725 -0.075313 0.869000 15394802
0.015833 -0.070833 0.875000 15067888
0.015996 -0.066510 0.884000 14273515
0.016087 -0.061807 0.889000 15063279
0.016177 -0.057046 0.894000 13027297
0.016304 -0.052344 0.901000 14673643
0.016430 -0.047562 0.908000 15658230
0.016557 -0.042700 0.915000 15725555
0.016738 -0.037881 0.925000 15525873
0.017780 -0.127847 0.889000 13612476
0.017740 -0.122490 0.887000 14605300
0.017740 -0.117422 0.887000 14868720
0.017600 -0.111467 0.880000 15000048
0.017560 -0.106196 0.878000 15066097
0.017500 -0.100833 0.875000 15000562
0.017380 -0.095176 0.869000 14735593
0.017340 -0.090003 0.867000 15723509
0.017300 -0.084852 0.865000 15788021
0.017340 -0.080094 0.867000 15328239
0.017420 -0.075487 0.871000 15525875
0.017500 -0.070833 0.875000 14800363
0.017740 -0.066736 0.887000 14469099
0.017820 -0.061946 0.891000 15064303
0.017920 -0.057173 0.896000 13348579
0.018020 -0.052344 0.901000 15134206
0.018200 -0.047667 0.910000 15658229
0.018340 -0.042793 0.917000 15063536
0.018500 -0.037881 0.925000 15522797
0.019473 -0.127847 0.889000 13349812
0.019430 -0.122490 0.887000 14342631
0.019364 -0.117025 0.884000 14802672
0.019276 -0.111467 0.880000 14868718
0.019232 -0.106196 0.878000 14999790
0.019167 -0.100833 0.875000 14934765
0.019079 -0.095395 0.871000 14409455
0.019035 -0.090210 0.869000 16252664
0.018991 -0.085049 0.867000 15460339
0.019035 -0.080279 0.869000 15196400
0.019079 -0.075487 0.871000 15592181
0.019232 -0.071076 0.878000 14531047
0.019430 -0.066736 0.887000 14604530
0.019583 -0.062154 0.894000 15070451
0.019670 -0.057301 0.898000 13686509
0.019780 -0.052460 0.903000 15660018
0.019999 -0.047824 0.913000 15591922
0.020152 -0.042933 0.920000 14470895
0.020306 -0.037963 0.927000 15459313
0.021167 -0.127847 0.889000 13413549
0.021119 -0.122490 0.887000 14142681
0.021048 -0.117025 0.884000 14736369
0.020952 -0.111467 0.880000 14736620
0.020905 -0.106196 0.878000 14669291
0.020786 -0.100603 0.873000 14801384
0.020738 -0.095395 0.871000 15265269
0.020690 -0.090210 0.869000 16053242
0.020643 -0.085049 0.867000 15394290
0.020690 -0.080279 0.869000 15196656
0.020786 -0.075660 0.873000 15528184
0.020952 -0.071238 0.880000 14732770
0.021167 -0.066887 0.889000 15333881
0.021333 -0.062293 0.896000 15330807
0.021452 -0.057492 0.901000 14740983
0.021548 -0.052576 0.905000 14864870
0.021786 -0.047929 0.915000 15722479
0.021952 -0.043027 0.922000 14604270
0.022071 -0.037963 0.927000 15526901
0.022809 -0.122490 0.887000 13942466
0.022731 -0.117025 0.884000 14605289
0.022629 -0.111467 0.880000 14605041
0.022577 -0.106196 0.878000 14343409
0.022449 -0.100603 0.873000 14670578
0.022346 -0.095176 0.869000 16118262
0.022346 -0.090210 0.869000 15853301
0.022294 -0.085049 0.867000 15327986
0.022397 -0.080464 0.871000 15196658
0.022449 -0.075660 0.873000 15455977
0.022731 -0.071562 0.884000 14929645
0.022911 -0.067037 0.891000 16050675
0.023091 -0.062432 0.898000 15525878
0.023220 -0.057620 0.903000 15722229
0.023271 -0.052576 0.905000 14008806
0.023529 -0.047929 0.915000 15853554
0.023709 -0.043027 0.922000 14802671
0.023837 -0.037963 0.927000 15524843
0.024415 -0.122076 0.884000 13809322
0.024415 -0.117025 0.884000 14276578
0.024305 -0.111467 0.880000 15000566
0.024250 -0.106196 0.878000 15199479
0.024111 -0.100603 0.873000 15330555
0.024056 -0.095395 0.871000 15658743
0.024001 -0.090210 0.869000 15327216
0.024001 -0.085245 0.869000 14801906
0.024056 -0.080464 0.871000 14407668
0.024167 -0.075833 0.875000 14197979
0.024498 -0.071805 0.887000 14605303
0.024691 -0.067263 0.894000 14798573
0.024885 -0.062641 0.901000 15393780
0.024995 -0.057748 0.905000 15524596
0.025133 -0.052867 0.910000 14405094
0.025327 -0.048033 0.917000 15590902
0.025548 -0.043167 0.925000 14603247
0.026099 -0.122076 0.884000 13610927
0.026099 -0.117025 0.884000 13943243
0.025981 -0.111467 0.880000 15395044
0.025922 -0.106196 0.878000 15985648
0.025774 -0.100603 0.873000 15987956
0.025715 -0.095395 0.871000 15196656
0.025715 -0.090418 0.871000 14802154
0.025715 -0.085441 0.871000 14272995
0.025774 -0.080649 0.873000 13615575
0.026040 -0.076440 0.882000 12888533
0.026247 -0.071967 0.889000 14346739
0.026394 -0.067263 0.894000 13550312
0.026719 -0.062919 0.905000 15262709
0.026808 -0.057939 0.908000 15260910
0.026867 -0.052867 0.910000 14798303
0.027221 -0.048295 0.922000 15328244
0.027369 -0.043260 0.927000 14403314
0.027720 -0.116760 0.882000 13477556
0.027657 -0.111467 0.880000 14404562
0.027594 -0.106196 0.878000 14932970
0.027437 -0.100603 0.873000 14735853
0.027311 -0.095176 0.869000 14209257
0.027374 -0.090418 0.871000 14077411
0.027437 -0.085637 0.873000 13542355
0.027594 -0.081110 0.878000 13345466
0.027877 -0.076873 0.887000 13288656
0.028003 -0.072129 0.891000 14274286
0.028160 -0.067413 0.896000 13945315
0.028443 -0.062919 0.905000 14933494
0.028600 -0.058067 0.910000 14668520
0.028757 -0.053157 0.915000 14338008
0.029071 -0.048452 0.925000 14933747
0.029134 -0.043260 0.927000 14537972
0.029400 -0.116760 0.882000 13020084
0.029267 -0.111213 0.878000 13349055
0.029167 -0.105833 0.875000 13812172
0.029033 -0.100372 0.871000 13549008
0.028967 -0.095176 0.869000 13221073
0.029033 -0.090418 0.871000 13417677
0.029167 -0.085833 0.875000 12756163
0.029333 -0.081295 0.880000 13082296
0.029567 -0.076873 0.887000 13679299
0.029700 -0.072129 0.891000 14204624
0.029867 -0.067413 0.896000 14270925
0.030333 -0.063267 0.910000 14603479
0.030333 -0.058067 0.910000 14075346
0.030500 -0.053157 0.915000 13876172
0.030900 -0.048557 0.927000 14537187
0.030900 -0.043260 0.927000 14604773
0.030939 -0.111213 0.878000 13347756
0.030939 -0.106196 0.878000 13544366
0.030763 -0.100603 0.873000 13414579
0.030622 -0.095176 0.869000 13349306
0.030692 -0.090418 0.871000 13349046
0.030833 -0.085833 0.875000 13019828
0.030939 -0.081110 0.878000 13150390
0.031327 -0.077047 0.889000 13480118
0.031397 -0.072129 0.891000 13544625
0.031573 -0.067413 0.896000 13609142
0.032067 -0.063267 0.910000 13744311
0.032067 -0.058067 0.910000 13613245
0.031996 -0.052750 0.908000 13479103
0.032666 -0.048557 0.927000 14074322
0.032611 -0.106196 0.878000 13282478
0.032426 -0.100603 0.873000 13282481
0.032277 -0.095176 0.869000 13414584
0.032351 -0.090418 0.871000 13282999
0.032500 -0.085833 0.875000 13217460
0.032611 -0.081110 0.878000 13217461
0.033020 -0.077047 0.889000 13282743
0.033280 -0.067413 0.896000 12888503
0.033911 -0.063475 0.913000 12888249
0.033911 -0.058258 0.913000 13086906
0.033726 -0.052750 0.908000 13018552
0.034431 -0.048557 0.927000 13613510
0.035650 -0.063475 0.913000 13085626
0.035650 -0.058258 0.913000 13348535
-0.046305 -0.095135 0.884000 11572624
-0.044520 -0.105000 0.882000 11968193
-0.044520 -0.099960 0.882000 11574970
-0.044621 -0.095135 0.884000 11113645
-0.044419 -0.089676 0.880000 11636629
-0.042840 -0.105000 0.882000 13088998
-0.042840 -0.099960 0.882000 12693980
-0.042840 -0.094920 0.882000 11576521
-0.042743 -0.089676 0.880000 11176092
-0.041253 -0.110290 0.884000 12829918
-0.041160 -0.105000 0.882000 14213103
-0.041160 -0.099960 0.882000 13751016
-0.041067 -0.094705 0.880000 12041183
-0.041067 -0.089676 0.880000 10722491
-0.039570 -0.110290 0.884000 14281464
-0.039480 -0.105000 0.882000 14739448
-0.039390 -0.099733 0.880000 14477045
-0.039390 -0.094705 0.880000 13488629
-0.039167 -0.089167 0.875000 11776218
-0.039167 -0.084167 0.875000 10851228
-0.039390 -0.079619 0.880000 11243422
-0.037886 -0.110290 0.884000 15723252
-0.037800 -0.105000 0.882000 15262963
-0.037714 -0.099733 0.880000 15197426
-0.037629 -0.094490 0.878000 14869236
-0.037500 -0.089167 0.875000 12764902
-0.037414 -0.083974 0.873000 11116223
-0.037629 -0.079438 0.878000 10981793
-0.038314 -0.075777 0.894000 11112082
-0.036611 -0.121754 0.894000 13350082
-0.036407 -0.115993 0.889000 15002362
-0.036325 -0.110664 0.887000 15328241
-0.036120 -0.105000 0.882000 15065582
-0.036038 -0.099733 0.880000 15131120
-0.035956 -0.094490 0.878000 14935027
-0.035751 -0.088963 0.873000 13949939
-0.035751 -0.083974 0.873000 11841505
-0.035956 -0.079438 0.878000 11047332
-0.036407 -0.075353 0.889000 11179169
-0.036489 -0.070431 0.891000 11243932
-0.037267 -0.066733 0.910000 11308694
-0.037390 -0.061736 0.913000 10847893
-0.034791 -0.121346 0.891000 14472667
-0.034713 -0.115993 0.889000 15460596
-0.034635 -0.110664 0.887000 14934512
-0.034440 -0.105000 0.882000 14868206
-0.034362 -0.099733 0.880000 15000048
-0.034167 -0.094167 0.875000 15065841
-0.034089 -0.088963 0.873000 15130610
-0.034089 -0.083974 0.873000 12567017
-0.034167 -0.079167 0.875000 11048885
-0.034518 -0.074930 0.884000 11247278
-0.034791 -0.070431 0.891000 11112094
-0.035533 -0.066733 0.910000 11176846
-0.035533 -0.061533 0.910000 10324887
-0.035729 -0.056643 0.915000 11110806
-0.033094 -0.126437 0.891000 13084058
-0.033094 -0.121346 0.891000 15135477
-0.033020 -0.115993 0.889000 15131374
-0.032946 -0.110664 0.887000 15000047
-0.032760 -0.105000 0.882000 14868462
-0.032686 -0.099733 0.880000 15000048
-0.032500 -0.094167 0.875000 15065839
-0.032426 -0.088963 0.873000 15065842
-0.032426 -0.083974 0.873000 13422576
-0.032500 -0.079167 0.875000 11180486
-0.032760 -0.074760 0.882000 11444923
-0.033020 -0.070273 0.889000 11111583
-0.033094 -0.065340 0.891000 11044485
-0.033800 -0.061533 0.910000 10849945
-0.034060 -0.056767 0.917000 11177115
-0.034246 -0.051808 0.922000 11376802
-0.031503 -0.126863 0.894000 13477560
-0.031397 -0.121346 0.891000 15789558
-0.031327 -0.115993 0.889000 14868207
-0.031256 -0.110664 0.887000 15000047
-0.031080 -0.105000 0.882000 14868719
-0.031010 -0.099733 0.880000 15000048
-0.030833 -0.094167 0.875000 15065839
-0.030763 -0.088963 0.873000 14934769
-0.030763 -0.083974 0.873000 14277618
-0.030763 -0.078986 0.873000 11251665
-0.031010 -0.074590 0.880000 11707588
-0.031327 -0.070273 0.889000 11049391
-0.031397 -0.065340 0.891000 10912672
-0.032067 -0.061533 0.910000 11311275
-0.032313 -0.056767 0.917000 11243689
-0.032490 -0.051808 0.922000 11508903
-0.029800 -0.126863 0.894000 13878998
-0.029700 -0.121346 0.891000 15328503
-0.029633 -0.115993 0.889000 14868463
-0.029567 -0.110664 0.887000 15000047
-0.029400 -0.105000 0.882000 14934511
-0.029333 -0.099733 0.880000 15000048
-0.029167 -0.094167 0.875000 15065839
-0.029100 -0.088963 0.873000 15000304
-0.029033 -0.083782 0.871000 14540019
-0.029100 -0.078986 0.873000 12238300
-0.029267 -0.074421 0.878000 11904972
-0.029567 -0.070115 0.887000 11709632
-0.029700 -0.065340 0.891000 11376314
-0.030267 -0.061398 0.908000 11774397
-0.030333 -0.056333 0.910000 11705783
-0.030667 -0.051695 0.920000 11838381
-0.030900 -0.046791 0.927000 11178915
-0.028097 -0.126863 0.894000 14345962
-0.028003 -0.121346 0.891000 14869234
-0.027940 -0.115993 0.889000 14933742
-0.027877 -0.110664 0.887000 14934511
-0.027720 -0.105000 0.882000 15000047
-0.027594 -0.099507 0.878000 15000304
-0.027437 -0.093951 0.873000 15065839
-0.027437 -0.088963 0.873000 15065840
-0.027374 -0.083782 0.871000 14804210
-0.027374 -0.078805 0.871000 13223910
-0.027500 -0.074167 0.875000 12166601
-0.027783 -0.069878 0.884000 12365516
-0.027940 -0.065193 0.889000 11902401
-0.028380 -0.061060 0.903000 12233919
-0.028537 -0.056210 0.908000 12231871
-0.028757 -0.051414 0.915000 12101305
-0.029134 -0.046791 0.927000 10978958
-0.026394 -0.126863 0.894000 14870782
-0.026306 -0.121346 0.891000 14802414
-0.026247 -0.115993 0.889000 14868461
-0.026188 -0.110664 0.887000 14934512
-0.026040 -0.105000 0.882000 15000047
-0.025922 -0.099507 0.878000 15000560
-0.025774 -0.093951 0.873000 15066095
-0.025715 -0.088759 0.871000 15066096
-0.025715 -0.083782 0.871000 15000560
-0.025715 -0.078805 0.871000 13684465
-0.025833 -0.074167 0.875000 12300485
-0.026040 -0.069720 0.882000 12496600
-0.026247 -0.065193 0.889000 12035015
-0.026394 -0.060451 0.894000 12694722
-0.026601 -0.055776 0.901000 12365255
-0.026955 -0.051302 0.913000 12364996
-0.027162 -0.046438 0.920000 11174777
-0.027605 -0.041852 0.935000 11509179
-0.024747 -0.127147 0.896000 15465981
-0.024609 -0.121346 0.891000 14737134
-0.024553 -0.115993 0.889000 14868462
-0.024498 -0.110664 0.887000 14934769
-0.024305 -0.104762 0.880000 15000050
-0.024250 -0.099507 0.878000 15000561
-0.024111 -0.093951 0.873000 15131632
-0.024056 -0.088759 0.871000 15000304
-0.024001 -0.083590 0.869000 15196143
-0.024001 -0.078624 0.869000 14145778
-0.024111 -0.073997 0.873000 12497875
-0.024360 -0.069720 0.882000 12630233
-0.024553 -0.065193 0.889000 12230091
-0.024691 -0.060451 0.894000 13087931
-0.024802 -0.055590 0.898000 12563652
-0.025133 -0.051133 0.910000 12627393
-0.025327 -0.046287 0.917000 11433893
-0.025603 -0.041494 0.927000 12430276
-0.023040 -0.127147 0.896000 15396604
-0.022911 -0.121346 0.891000 14802671
-0.022860 -0.115993 0.889000 14934255
-0.022809 -0.110664 0.887000 15066867
-0.022629 -0.104762 0.880000 15132149
-0.022500 -0.099167 0.875000 15066098
-0.022397 -0.093736 0.871000 15131888
-0.022346 -0.088555 0.869000 15065840
-0.022294 -0.083397 0.867000 15065325
-0.022243 -0.078262 0.865000 14737140
-0.022346 -0.073658 0.869000 12959200
-0.022449 -0.069009 0.873000 12828378
-0.022809 -0.065047 0.887000 12097486
-0.022911 -0.060249 0.891000 13025461
-0.023091 -0.055590 0.898000 12495041
-0.023349 -0.051021 0.908000 12759230
-0.023529 -0.046186 0.915000 12296912
-0.023786 -0.041405 0.925000 12693965
-0.021286 -0.126863 0.894000 15394294
-0.021167 -0.121073 0.889000 14868462
-0.021119 -0.115732 0.887000 15000049
-0.021048 -0.110290 0.884000 15129321
-0.020905 -0.104524 0.878000 15328487
-0.020833 -0.099167 0.875000 15131118
-0.020738 -0.093736 0.871000 15197424
-0.020690 -0.088555 0.869000 15131632
-0.020595 -0.083205 0.865000 14933742
-0.020595 -0.078262 0.865000 15262451
-0.020643 -0.073489 0.867000 13420006
-0.020738 -0.068850 0.871000 12959966
-0.021000 -0.064680 0.882000 11967182
-0.021167 -0.060113 0.889000 12953517
-0.021333 -0.055467 0.896000 12429270
-0.021500 -0.050740 0.903000 12822963
-0.021738 -0.046085 0.913000 13154775
-0.021833 -0.041047 0.917000 12891855
-0.022071 -0.036197 0.927000 12433857
-0.019627 -0.132267 0.896000 14009045
-0.019583 -0.126863 0.894000 15197167
-0.019517 -0.121346 0.891000 14868462
-0.019430 -0.115732 0.887000 15066611
-0.019320 -0.110040 0.882000 14007007
-0.019232 -0.104524 0.878000 13551320
-0.019167 -0.099167 0.875000 14539498
-0.019079 -0.093736 0.871000 15263216
-0.018991 -0.088351 0.867000 15131888
-0.018948 -0.083205 0.865000 14934255
-0.018948 -0.078262 0.865000 15394802
-0.018991 -0.073489 0.867000 13683948
-0.019079 -0.068850 0.871000 13223650
-0.019276 -0.064533 0.880000 12097997
-0.019430 -0.059978 0.887000 11573414
-0.019627 -0.055467 0.896000 12758763
-0.019736 -0.050628 0.901000 12888487
-0.019999 -0.046085 0.913000 13287645
-0.020087 -0.041047 0.917000 13220818
-0.020306 -0.036197 0.927000 12298422
-0.017920 -0.132267 0.896000 14996951
-0.017820 -0.126437 0.891000 15065071
-0.017780 -0.121073 0.889000 14868719
-0.017740 -0.115732 0.887000 15197937
-0.017640 -0.110040 0.882000 12885466
-0.017560 -0.104524 0.878000 11840480
-0.017500 -0.099167 0.875000 13945563
-0.017420 -0.093736 0.871000 15262960
-0.017380 -0.088555 0.869000 15131888
-0.017240 -0.082916 0.862000 14934254
-0.017240 -0.077990 0.862000 15460594
-0.017300 -0.073319 0.865000 13947886
-0.017380 -0.068692 0.869000 13420265
-0.017600 -0.064533 0.880000 12232386
-0.017740 -0.059978 0.887000 10191783
-0.017880 -0.055343 0.894000 13093873
-0.018020 -0.050628 0.901000 12956361
-0.018200 -0.045933 0.910000 13486306
-0.018300 -0.040957 0.915000 13481695
-0.018500 -0.036119 0.925000 12234412
-0.016250 -0.132562 0.898000 15461338
-0.016123 -0.126437 0.891000 14999791
-0.016087 -0.121073 0.889000 14934257
-0.016050 -0.115732 0.887000 14605551
-0.015924 -0.109790 0.880000 13273302
-0.015888 -0.104524 0.878000 12430312
-0.015833 -0.099167 0.875000 14074573
-0.015761 -0.093736 0.871000 15328752
-0.015725 -0.088555 0.869000 15197424
-0.015598 -0.082916 0.862000 14868461
-0.015598 -0.077990 0.862000 15790834
-0.015652 -0.073319 0.865000 14145007
-0.015725 -0.068692 0.869000 13617393
-0.015888 -0.064387 0.878000 12424886
-0.016050 -0.059978 0.887000 10645161
-0.016123 -0.055157 0.891000 13683959
-0.016304 -0.050628 0.901000 13747692
-0.016430 -0.045832 0.908000 13683686
-0.016557 -0.040957 0.915000 13683692
-0.016684 -0.036002 0.922000 12625057
-0.014539 -0.132562 0.898000 15851997
-0.014426 -0.126437 0.891000 14933999
-0.014393 -0.121073 0.889000 15000305
-0.014361 -0.115732 0.887000 14074083
-0.014280 -0.110040 0.882000 13608143
-0.014215 -0.104524 0.878000 13091797
-0.014167 -0.099167 0.875000 14203602
-0.014102 -0.093736 0.871000 15394289
-0.014070 -0.088555 0.869000 15197680
-0.013956 -0.082916 0.862000 14803438
-0.013956 -0.077990 0.862000 16118003
-0.013956 -0.073065 0.862000 14277103
-0.014070 -0.068692 0.869000 13750513
-0.014215 -0.064387 0.878000 12687054
-0.014312 -0.059775 0.884000 11105959
-0.014426 -0.055157 0.891000 14346483
-0.014539 -0.050459 0.898000 14472174
-0.014652 -0.045681 0.905000 13880550
-0.014782 -0.040868 0.913000 13880299
-0.014895 -0.035924 0.920000 13024711
-0.012800 -0.132267 0.896000 15724000
-0.012729 -0.126437 0.891000 14934255
-0.012700 -0.121073 0.889000 15066098
-0.012671 -0.115732 0.887000 13477079
-0.012600 -0.110040 0.882000 13020361
-0.012543 -0.104524 0.878000 13016257
-0.012500 -0.099167 0.875000 14334935
-0.012443 -0.093736 0.871000 15460337
-0.012414 -0.088555 0.869000 15197937
-0.012314 -0.082916 0.862000 14737391
-0.012314 -0.077990 0.862000 16383220
-0.012314 -0.073065 0.862000 14474479
-0.012386 -0.068534 0.867000 13947121
-0.012500 -0.064167 0.875000 13017829
-0.012600 -0.059640 0.882000 11104165
-0.012729 -0.055157 0.891000 14277615
-0.012829 -0.050459 0.898000 14538737
-0.012929 -0.045681 0.905000 13880549
-0.013000 -0.040733 0.910000 14145002
-0.013143 -0.035924 0.920000 13815020
-0.011118 -0.132562 0.898000 15590114
-0.011031 -0.126437 0.891000 14933999
-0.011007 -0.121073 0.889000 15131891
-0.010982 -0.115732 0.887000 12943825
-0.010895 -0.109790 0.880000 12360899
-0.010870 -0.104524 0.878000 13014212
-0.010809 -0.098940 0.873000 14395332
-0.010784 -0.093736 0.871000 15525876
-0.010759 -0.088555 0.869000 15131888
-0.010672 -0.082916 0.862000 14738416
-0.010672 -0.077990 0.862000 16643060
-0.010672 -0.073065 0.862000 14606831
-0.010734 -0.068534 0.867000 14144753
-0.010833 -0.064167 0.875000 13343204
-0.010920 -0.059640 0.882000 11038387
-0.011007 -0.055033 0.889000 14214645
-0.011118 -0.050459 0.898000 14539761
-0.011180 -0.045580 0.903000 13943511
-0.011267 -0.040733 0.910000 14407142
-0.011353 -0.035807 0.917000 14602991
-0.011477 -0.030900 0.927000 13087971
-0.009408 -0.132562 0.898000 15657187
-0.009334 -0.126437 0.891000 14933999
-0.009313 -0.121073 0.889000 15131380
-0.009292 -0.115732 0.887000 13082827
-0.009219 -0.109790 0.880000 12490940
-0.009198 -0.104524 0.878000 13408198
-0.009146 -0.098940 0.873000 13533617
-0.009125 -0.093736 0.871000 15329527
-0.009104 -0.088555 0.869000 15131632
-0.009030 -0.082916 0.862000 14671856
-0.009030 -0.077990 0.862000 16711413
-0.009030 -0.073065 0.862000 14671598
-0.009083 -0.068534 0.867000 14145009
-0.009167 -0.064167 0.875000 13282530
-0.009240 -0.059640 0.882000 11357377
-0.009313 -0.055033 0.889000 14672122
-0.009408 -0.050459 0.898000 14737138
-0.009460 -0.045580 0.903000 13742281
-0.009512 -0.040644 0.908000 14538210
-0.009586 -0.035729 0.915000 14735602
-0.009711 -0.030900 0.927000 12957166
-0.007697 -0.132562 0.898000 15721955
-0.007637 -0.126437 0.891000 14999279
-0.007620 -0.121073 0.889000 15131378
-0.007577 -0.115341 0.884000 13280479
-0.007543 -0.109790 0.880000 12561866
-0.007526 -0.104524 0.878000 13803717
-0.007483 -0.098940 0.873000 12684729
-0.007466 -0.093736 0.871000 15201016
-0.007449 -0.088555 0.869000 15131632
-0.007389 -0.082916 0.862000 14672880
-0.007389 -0.077990 0.862000 16709624
-0.007389 -0.073065 0.862000 14802926
-0.007414 -0.068376 0.865000 14079471
-0.007500 -0.064167 0.875000 13220334
-0.007560 -0.059640 0.882000 11637966
-0.007620 -0.055033 0.889000 15197176
-0.007697 -0.050459 0.898000 14933489
-0.007740 -0.045580 0.903000 13603291
-0.007783 -0.040644 0.908000 14667242
-0.007843 -0.035729 0.915000 14867186
-0.007929 -0.030833 0.925000 12759786
-0.005987 -0.132562 0.898000 15593444
-0.005940 -0.126437 0.891000 14999790
-0.005927 -0.121073 0.889000 15065841
-0.005893 -0.115341 0.884000 14143474
-0.005867 -0.109790 0.880000 12628952
-0.005853 -0.104524 0.878000 13475524
-0.005820 -0.098940 0.873000 12816064
-0.005807 -0.093736 0.871000 14935289
-0.005793 -0.088555 0.869000 15131633
-0.005747 -0.082916 0.862000 14671599
-0.005747 -0.077990 0.862000 16711420
-0.005747 -0.073065 0.862000 14933998
-0.005780 -0.068534 0.867000 14143982
-0.005833 -0.064167 0.875000 14012922
-0.005880 -0.059640 0.882000 12763354
-0.005927 -0.055033 0.889000 14473461
-0.005987 -0.050459 0.898000 14932977
-0.006020 -0.045580 0.903000 14137068
-0.006053 -0.040644 0.908000 14933491
-0.006100 -0.035729 0.915000 14735858
-0.006167 -0.030833 0.925000 13812967
-0.004276 -0.132562 0.898000 15459042
-0.004243 -0.126437 0.891000 14999791
-0.004224 -0.120801 0.887000 14934512
-0.004210 -0.115341 0.884000 15066355
-0.004200 -0.110040 0.882000 12622547
-0.004181 -0.104524 0.878000 13147073
-0.004157 -0.098940 0.873000 12950721
-0.004148 -0.093736 0.871000 14740730
-0.004138 -0.088555 0.869000 15066096
-0.004105 -0.082916 0.862000 14738158
-0.004105 -0.077990 0.862000 16711163
-0.004105 -0.073065 0.862000 15065583
-0.004129 -0.068534 0.867000 14145774
-0.004167 -0.064167 0.875000 14741241
-0.004200 -0.059640 0.882000 13813988
-0.004233 -0.055033 0.889000 13751276
-0.004267 -0.050347 0.896000 14932207
-0.004300 -0.045580 0.903000 14671088
-0.004324 -0.040644 0.908000 15196659
-0.004357 -0.035729 0.915000 14669804
-0.004390 -0.030733 0.922000 14800614
-0.002560 -0.132267 0.896000 15394785
-0.002546 -0.126437 0.891000 15000047
-0.002534 -0.120801 0.887000 14934255
-0.002526 -0.115341 0.884000 15000820
-0.002514 -0.109790 0.880000 12479182
-0.002509 -0.104524 0.878000 12165053
-0.002494 -0.098940 0.873000 12752065
-0.002489 -0.093736 0.871000 14804218
-0.002483 -0.088555 0.869000 15065839
-0.002463 -0.082916 0.862000 14802412
-0.002463 -0.077990 0.862000 16580347
-0.002463 -0.073065 0.862000 15066096
-0.002477 -0.068534 0.867000 14538223
-0.002500 -0.064167 0.875000 14672887
-0.002520 -0.059640 0.882000 14668782
-0.002534 -0.054910 0.887000 13549794
-0.002560 -0.050347 0.896000 15131630
-0.002580 -0.045580 0.903000 15066356
-0.002594 -0.040644 0.908000 15131379
-0.002614 -0.035729 0.915000 14074597
-0.002634 -0.030733 0.922000 14935781
-0.000853 -0.132267 0.896000 15261151
-0.000849 -0.126437 0.891000 15000047
-0.000845 -0.120801 0.887000 14934255
-0.000842 -0.115341 0.884000 14935282
-0.000840 -0.110040 0.882000 12297436
-0.000836 -0.104524 0.878000 11182810
-0.000831 -0.098940 0.873000 12487617
-0.000830 -0.093736 0.871000 14939899
-0.000826 -0.088351 0.867000 15000303
-0.000821 -0.082916 0.862000 14868460
-0.000821 -0.077990 0.862000 16381176
-0.000821 -0.073065 0.862000 15132401
-0.000826 -0.068534 0.867000 14933999
-0.000833 -0.064167 0.875000 14609141
-0.000840 -0.059640 0.882000 15458286
-0.000845 -0.054910 0.887000 13343459
-0.000853 -0.050347 0.896000 15324400
-0.000860 -0.045580 0.903000 15459827
-0.000865 -0.040644 0.908000 15066099
-0.000871 -0.035729 0.915000 13545707
-0.000878 -0.030733 0.922000 14995172
0.000853 -0.132267 0.896000 15131358
0.000849 -0.126437 0.891000 14934511
0.000847 -0.121073 0.889000 15000047
0.000842 -0.115341 0.884000 14934512
0.000840 -0.110040 0.882000 13684459
0.000836 -0.104524 0.878000 12170743
0.000831 -0.098940 0.873000 12091841
0.000830 -0.093736 0.871000 15002108
0.000826 -0.088351 0.867000 15066096
0.000824 -0.083205 0.865000 14933996
0.000821 -0.077990 0.862000 16316150
0.000824 -0.073319 0.865000 15197682
0.000828 -0.068692 0.869000 15066352
0.000836 -0.064387 0.878000 14606066
0.000838 -0.059505 0.880000 15592687
0.000845 -0.054910 0.887000 14006755
0.000853 -0.050347 0.896000 15657970
0.000860 -0.045580 0.903000 15526130
0.000865 -0.040644 0.908000 15066611
0.000871 -0.035729 0.915000 14339824
0.000878 -0.030733 0.922000 13613796
0.002560 -0.132267 0.896000 14997468
0.002546 -0.126437 0.891000 14934512
0.002534 -0.120801 0.887000 15000047
0.002526 -0.115341 0.884000 14999536
0.002520 -0.110040 0.882000 14998767
0.002509 -0.104524 0.878000 13166582
0.002500 -0.099167 0.875000 11712731
0.002489 -0.093736 0.871000 15135479
0.002483 -0.088555 0.869000 15066096
0.002471 -0.083205 0.865000 14998506
0.002463 -0.077990 0.862000 16250616
0.002463 -0.073065 0.862000 15329266
0.002483 -0.068692 0.869000 15197425
0.002509 -0.064387 0.878000 14606064
0.002514 -0.059505 0.880000 15656944
0.002534 -0.054910 0.887000 14671085
0.002566 -0.050459 0.898000 15986419
0.002580 -0.045580 0.903000 15592437
0.002594 -0.040644 0.908000 14996971
0.002620 -0.035807 0.917000 15197429
0.002634 -0.030733 0.922000 12172003
0.004257 -0.131971 0.894000 14735322
0.004233 -0.126153 0.889000 15000304
0.004224 -0.120801 0.887000 15000048
0.004210 -0.115341 0.884000 14999791
0.004190 -0.109790 0.880000 15001074
0.004181 -0.104524 0.878000 14214644
0.004167 -0.099167 0.875000 13557493
0.004148 -0.093736 0.871000 15132914
0.004138 -0.088555 0.869000 15131888
0.004119 -0.083205 0.865000 15129575
0.004105 -0.077990 0.862000 16185338
0.004119 -0.073319 0.865000 15460337
0.004138 -0.068692 0.869000 15394290
0.004181 -0.064387 0.878000 14802158
0.004190 -0.059505 0.880000 15790322
0.004224 -0.054910 0.887000 15264246
0.004276 -0.050459 0.898000 15855093
0.004310 -0.045681 0.905000 15265015
0.004333 -0.040733 0.910000 14068964
0.004367 -0.035807 0.917000 15527162
0.004405 -0.030833 0.925000 12169186
0.005973 -0.132267 0.896000 14470354
0.005927 -0.126153 0.889000 15065841
0.005913 -0.120801 0.887000 14934511
0.005893 -0.115341 0.884000 15065327
0.005880 -0.110040 0.882000 15000561
0.005853 -0.104524 0.878000 15262962
0.005820 -0.098940 0.873000 15328498
0.005807 -0.093736 0.871000 15196913
0.005793 -0.088555 0.869000 15197424
0.005767 -0.083205 0.865000 15257577
0.005747 -0.077990 0.862000 16119033
0.005767 -0.073319 0.865000 15592178
0.005807 -0.068850 0.871000 15592435
0.005853 -0.064387 0.878000 15063788
0.005867 -0.059505 0.880000 15920883
0.005913 -0.054910 0.887000 15855094
0.006007 -0.050628 0.901000 15658228
0.006033 -0.045681 0.905000 14938872
0.006067 -0.040733 0.910000 13153770
0.006113 -0.035807 0.917000 15855864
0.006167 -0.030833 0.925000 12106217
0.007663 -0.131971 0.894000 14074570
0.007620 -0.126153 0.889000 15000049
0.007603 -0.120801 0.887000 15000047
0.007577 -0.115341 0.884000 15000047
0.007543 -0.109790 0.880000 15000303
0.007526 -0.104524 0.878000 15065839
0.007483 -0.098940 0.873000 15196912
0.007449 -0.093521 0.869000 15197168
0.007431 -0.088351 0.867000 15132144
0.007389 -0.082916 0.862000 15525099
0.007389 -0.077990 0.862000 15985144
0.007414 -0.073319 0.865000 15592178
0.007466 -0.068850 0.871000 15658229
0.007526 -0.064387 0.878000 15065066
0.007560 -0.059640 0.882000 15920885
0.007603 -0.054910 0.887000 15855093
0.007723 -0.050628 0.901000 15789300
0.007757 -0.045681 0.905000 14673144
0.007826 -0.040868 0.913000 14270448
0.007860 -0.035807 0.917000 15855349
0.007929 -0.030833 0.925000 14012401
0.009334 -0.131529 0.891000 13680582
0.009313 -0.126153 0.889000 14999794
0.009292 -0.120801 0.887000 15000048
0.009261 -0.115341 0.884000 15000303
0.009219 -0.109790 0.880000 15000303
0.009198 -0.104524 0.878000 14934255
0.009146 -0.098940 0.873000 15065839
0.009104 -0.093521 0.869000 15197425
0.009083 -0.088351 0.867000 15065069
0.009062 -0.083205 0.865000 15792373
0.009030 -0.077990 0.862000 15790069
0.009062 -0.073319 0.865000 15591154
0.009125 -0.068850 0.871000 15724020
0.009198 -0.064387 0.878000 15129580
0.009261 -0.059775 0.884000 15855350
0.009334 -0.055157 0.891000 15789816
0.009439 -0.050628 0.901000 15855604
0.009512 -0.045832 0.908000 14478840
0.009565 -0.040868 0.913000 15389169
0.009638 -0.035924 0.920000 15788788
0.011031 -0.131529 0.891000 13612226
0.011007 -0.126153 0.889000 14802931
0.010982 -0.120801 0.887000 15065840
0.010945 -0.115341 0.884000 15000303
0.010895 -0.109790 0.880000 15000047
0.010870 -0.104524 0.878000 15000047
0.010809 -0.098940 0.873000 15066095
0.010759 -0.093521 0.869000 15197425
0.010734 -0.088351 0.867000 14669291
0.010710 -0.083205 0.865000 15988478
0.010672 -0.077990 0.862000 15658482
0.010734 -0.073489 0.867000 15526385
0.010809 -0.069009 0.873000 15592179
0.010895 -0.064533 0.880000 15262702
0.010982 -0.059978 0.887000 15921142
0.011031 -0.055157 0.891000 15396347
0.011180 -0.050740 0.903000 15987187
0.011242 -0.045832 0.908000 15132919
0.011329 -0.040957 0.915000 15726322
0.011415 -0.036002 0.922000 15789043
0.012700 -0.126153 0.889000 14671860
0.012671 -0.120801 0.887000 15065840
0.012629 -0.115341 0.884000 15000303
0.012571 -0.109790 0.880000 15000048
0.012543 -0.104524 0.878000 15065840
0.012471 -0.098940 0.873000 15066095
0.012414 -0.093521 0.869000 15197680
0.012386 -0.088351 0.867000 14277357
0.012357 -0.083205 0.865000 16252668
0.012314 -0.077990 0.862000 15526386
0.012386 -0.073489 0.867000 15462642
0.012471 -0.069009 0.873000 15394546
0.012600 -0.064680 0.882000 15459308
0.012671 -0.059978 0.887000 15987189
0.012771 -0.055343 0.894000 15068897
0.012900 -0.050740 0.903000 16051181
0.012971 -0.045832 0.908000 15790070
0.013071 -0.040957 0.915000 16052468
0.013214 -0.036119 0.925000 15854579
0.014393 -0.126153 0.889000 14473204
0.014361 -0.120801 0.887000 15000048
0.014312 -0.115341 0.884000 15000047
0.014248 -0.109790 0.880000 15131120
0.014215 -0.104524 0.878000 15131632
0.014102 -0.098713 0.871000 15066096
0.014070 -0.093521 0.869000 15000559
0.014037 -0.088351 0.867000 15064048
0.014005 -0.083205 0.865000 16053754
0.014005 -0.078262 0.865000 15460082
0.014070 -0.073658 0.869000 15526899
0.014167 -0.069167 0.875000 14868209
0.014312 -0.064827 0.884000 14799338
0.014393 -0.060113 0.889000 16118261
0.014507 -0.055467 0.896000 14073030
0.014620 -0.050740 0.903000 16052968
0.014733 -0.045933 0.910000 15723765
0.014847 -0.041047 0.917000 15921398
0.014976 -0.036119 0.925000 15723507
0.016087 -0.126153 0.889000 14276828
0.016050 -0.120801 0.887000 14934257
0.015996 -0.115341 0.884000 14934256
0.015924 -0.109790 0.880000 15196912
0.015888 -0.104524 0.878000 15131633
0.015797 -0.098940 0.873000 15000560
0.015725 -0.093521 0.869000 14803434
0.015689 -0.088351 0.867000 15788787
0.015652 -0.083205 0.865000 15854582
0.015689 -0.078443 0.867000 15328497
0.015761 -0.073828 0.871000 15591924
0.015888 -0.069404 0.878000 14342639
0.016050 -0.065047 0.887000 14136040
0.016123 -0.060249 0.891000 16182261
0.016213 -0.055467 0.896000 13152713
0.016376 -0.050852 0.905000 15986417
0.016467 -0.045933 0.910000 15657717
0.016648 -0.041181 0.920000 15720944
0.016738 -0.036119 0.925000 15657716
0.017780 -0.126153 0.889000 13945284
0.017740 -0.120801 0.887000 14801906
0.017680 -0.115341 0.884000 14868720
0.017600 -0.109790 0.880000 15065840
0.017560 -0.104524 0.878000 15066353
0.017460 -0.098940 0.873000 14934768
0.017380 -0.093521 0.869000 14998500
0.017340 -0.088351 0.867000 16252663
0.017340 -0.083397 0.867000 15591665
0.017380 -0.078624 0.869000 15261424
0.017420 -0.073828 0.871000 15264501
0.017600 -0.069562 0.880000 14534125
0.017780 -0.065193 0.889000 14202854
0.017880 -0.060451 0.894000 16118261
0.017960 -0.055590 0.898000 13944267
0.018100 -0.050852 0.905000 15790842
0.018260 -0.046085 0.913000 15658228
0.018440 -0.041270 0.922000 14530538
0.018540 -0.036197 0.927000 15591925
0.019473 -0.126153 0.889000 13679796
0.019430 -0.120801 0.887000 14670828
0.019364 -0.115341 0.884000 14868719
0.019276 -0.109790 0.880000 14868462
0.019232 -0.104524 0.878000 15066349
0.019123 -0.098940 0.873000 14802413
0.019035 -0.093521 0.869000 15128305
0.018991 -0.088351 0.867000 16643062
0.018991 -0.083397 0.867000 15395570
0.019035 -0.078624 0.869000 15131378
0.019123 -0.073997 0.873000 15002871
0.019276 -0.069562 0.880000 14669807
0.019473 -0.065193 0.889000 14332397
0.019627 -0.060587 0.896000 16052470
0.019670 -0.055590 0.898000 14732513
0.019890 -0.051021 0.908000 15589872
0.020043 -0.046186 0.915000 15593206
0.020196 -0.041270 0.922000 13290476
0.020306 -0.036197 0.927000 15527416
0.021119 -0.125870 0.887000 13612452
0.021119 -0.120801 0.887000 14473959
0.021000 -0.115080 0.882000 14736877
0.020952 -0.109790 0.880000 14735852
0.020905 -0.104524 0.878000 14736105
0.020738 -0.098713 0.871000 14799595
0.020690 -0.093521 0.869000 15659005
0.020643 -0.088351 0.867000 16050678
0.020643 -0.083397 0.867000 15197170
0.020738 -0.078805 0.871000 15394292
0.020833 -0.074167 0.875000 14867704
0.021048 -0.069878 0.884000 15265008
0.021214 -0.065340 0.891000 15130868
0.021381 -0.060722 0.898000 15723511
0.021452 -0.055776 0.901000 14801911
0.021619 -0.051021 0.908000 14793446
0.021833 -0.046287 0.917000 15657463
0.022024 -0.041405 0.925000 13750255
0.022071 -0.036197 0.927000 15394554
0.022809 -0.125870 0.887000 13610668
0.022731 -0.120392 0.884000 14208209
0.022680 -0.115080 0.882000 14671603
0.022629 -0.109790 0.880000 14540017
0.022500 -0.104167 0.875000 14473457
0.022397 -0.098713 0.871000 14803955
0.022346 -0.093521 0.869000 16186616
0.022346 -0.088555 0.869000 15394035
0.022346 -0.083590 0.869000 15065331
0.022397 -0.078805 0.871000 15590896
0.022577 -0.074421 0.878000 14734309
0.022860 -0.070273 0.889000 15853297
0.022989 -0.065560 0.894000 15853553
0.023169 -0.060925 0.901000 15394805
0.023271 -0.056024 0.905000 14868470
0.023400 -0.051133 0.910000 14012138
0.023580 -0.046287 0.917000 15658743
0.023786 -0.041405 0.925000 14143718
0.024415 -0.120392 0.884000 13941946
0.024360 -0.115080 0.882000 14605561
0.024305 -0.109790 0.880000 15066870
0.024167 -0.104167 0.875000 15264248
0.024056 -0.098713 0.871000 15332859
0.024056 -0.093736 0.871000 15657715
0.024001 -0.088555 0.869000 15063537
0.024001 -0.083590 0.869000 14604787
0.024111 -0.078986 0.873000 14474989
0.024360 -0.074760 0.882000 14203857
0.024553 -0.070273 0.889000 15067890
0.024747 -0.065707 0.896000 15128813
0.024940 -0.061060 0.903000 15327220
0.025078 -0.056210 0.908000 14932724
0.025216 -0.051302 0.913000 14473966
0.025410 -0.046438 0.920000 15460342
0.025548 -0.041405 0.925000 13944029
0.026099 -0.120392 0.884000 13677495
0.026040 -0.115080 0.882000 14603735
0.025981 -0.109790 0.880000 15525096
0.025833 -0.104167 0.875000 16053237
0.025715 -0.098713 0.871000 15788531
0.025715 -0.093736 0.871000 15064301
0.025715 -0.088759 0.871000 14669548
0.025715 -0.083782 0.871000 14077654
0.025833 -0.079167 0.875000 13283797
0.026188 -0.075184 0.887000 13675993
0.026394 -0.070669 0.894000 14208491
0.026453 -0.065707 0.896000 14404333
0.026808 -0.061398 0.908000 15262197
0.026867 -0.056333 0.910000 14932968
0.027162 -0.051695 0.920000 14932458
0.027310 -0.046690 0.925000 15197685
0.027369 -0.041494 0.927000 13748201
0.027783 -0.120392 0.884000 13545396
0.027720 -0.115080 0.882000 13875892
0.027657 -0.109790 0.880000 14471642
0.027500 -0.104167 0.875000 14933489
0.027374 -0.098713 0.871000 14537452
0.027311 -0.093521 0.869000 14142695
0.027374 -0.088759 0.871000 14142952
0.027437 -0.083974 0.873000 13413049
0.027783 -0.079981 0.884000 13341885
0.027940 -0.075353 0.889000 13812960
0.028097 -0.070669 0.894000 14202852
0.028160 -0.065707 0.896000 14405868
0.028537 -0.061398 0.908000 14934006
0.028600 -0.056333 0.910000 14338267
0.028914 -0.051695 0.920000 14604518
0.029134 -0.046791 0.927000 14868211
0.029229 -0.041629 0.930000 14211573
0.029400 -0.115080 0.882000 13216948
0.029267 -0.109541 0.878000 13350851
0.029100 -0.103929 0.873000 13813713
0.029033 -0.098713 0.871000 13286609
0.028967 -0.093521 0.869000 13219280
0.029033 -0.088759 0.871000 13547214
0.029167 -0.084167 0.875000 12755127
0.029467 -0.079981 0.884000 13411002
0.029633 -0.075353 0.889000 13945034
0.029800 -0.070669 0.894000 14137548
0.030033 -0.066073 0.901000 14405841
0.030433 -0.061736 0.913000 14602199
0.030333 -0.056333 0.910000 13810125
0.030733 -0.051808 0.922000 14270933
0.030900 -0.046791 0.927000 14605288
0.030939 -0.109541 0.878000 13345963
0.030763 -0.103929 0.873000 13546417
0.030692 -0.098713 0.871000 13281719
0.030622 -0.093521 0.869000 13218233
0.030692 -0.088759 0.871000 13478581
0.030939 -0.084455 0.878000 12953780
0.031256 -0.080252 0.887000 13348023
0.031327 -0.075353 0.889000 13546164
0.031644 -0.070985 0.898000 13542836
0.031890 -0.066367 0.905000 13612213
0.032067 -0.061533 0.910000 13809337
0.032067 -0.056333 0.910000 13415103
0.032490 -0.051808 0.922000 13739972
0.032666 -0.046791 0.927000 14207196
0.032611 -0.104524 0.878000 13282481
0.032351 -0.098713 0.871000 13282484
0.032277 -0.093521 0.869000 13283770
0.032351 -0.088759 0.871000 13414070
0.032611 -0.084455 0.878000 13217204
0.032946 -0.080252 0.887000 13217206
0.033020 -0.075353 0.889000 13150646
0.033354 -0.070985 0.898000 12888246
0.033614 -0.066367 0.905000 12888503
0.033986 -0.061871 0.915000 12955063
0.033911 -0.056519 0.913000 13020094
0.034246 -0.051808 0.922000 13151420
0.034635 -0.080252 0.887000 13282741
0.035338 -0.066367 0.905000 13085369
0.035729 -0.061871 0.915000 13150645
0.035650 -0.056519 0.913000 13348797
-0.046305 -0.093451 0.884000 11441296
-0.044520 -0.098280 0.882000 11507897
-0.044621 -0.093451 0.884000 10851239
-0.042937 -0.108606 0.884000 12890083
-0.042743 -0.103086 0.880000 13088993
-0.042840 -0.098280 0.882000 12431836
-0.042743 -0.093029 0.880000 10983359
-0.042500 -0.087500 0.875000 11177348
-0.041253 -0.108606 0.884000 13489902
-0.041160 -0.103320 0.882000 14276844
-0.041160 -0.098280 0.882000 13423593
-0.041067 -0.093029 0.880000 11055317
-0.040833 -0.087500 0.875000 10457260
-0.039570 -0.108606 0.884000 14542585
-0.039480 -0.103320 0.882000 14739959
-0.039390 -0.098057 0.880000 14344437
-0.039301 -0.092817 0.878000 12765163
-0.039167 -0.087500 0.875000 11379923
-0.039301 -0.082783 0.878000 10783647
-0.040017 -0.074074 0.894000 11439497
-0.038014 -0.114043 0.887000 15656429
-0.037886 -0.108606 0.884000 15525877
-0.037800 -0.103320 0.882000 15131891
-0.037714 -0.098057 0.880000 15263219
-0.037629 -0.092817 0.878000 14473712
