# .PCD v.7 - Point Cloud Data file format
VERSION .7
FIELDS x y z rgb
SIZE 4 4 4 4
TYPE F F F I
COUNT 1 1 1 1
WIDTH 1269
HEIGHT 1
POINTS 1269
DATA ascii
-0.076220 -0.120620 0.777000 12760031
-0.076416 -0.116479 0.779000 12429517
-0.076220 -0.111740 0.777000 11973829
-0.076514 -0.107714 0.780000 11101567
-0.076907 -0.103787 0.784000 10250143
-0.077103 -0.099560 0.786000 10057351
-0.077299 -0.095310 0.788000 12366262
-0.077299 -0.090808 0.788000 12760532
-0.077593 -0.086633 0.791000 12627412
-0.077986 -0.082529 0.795000 12429782
-0.077986 -0.077986 0.795000 10241966
-0.078182 -0.073628 0.797000 11574457
-0.078182 -0.069073 0.797000 12494791
-0.078476 -0.064762 0.800000 12495554
-0.078672 -0.060341 0.802000 12496324
-0.079065 -0.056036 0.806000 11835847
-0.077914 -0.148886 0.810000 13681627
-0.077722 -0.143901 0.808000 13945571
-0.075606 -0.135491 0.786000 14797547
-0.075221 -0.130333 0.782000 14209519
-0.074932 -0.125382 0.779000 13087448
-0.074932 -0.120930 0.779000 13221858
-0.074932 -0.116479 0.779000 12822480
-0.074932 -0.112028 0.779000 11643857
-0.075221 -0.107990 0.782000 11836328
-0.075606 -0.104051 0.786000 9922191
-0.075606 -0.099560 0.786000 10523830
-0.075798 -0.095310 0.788000 14007231
-0.075894 -0.090923 0.789000 13022919
-0.076279 -0.086852 0.793000 12890837
-0.076471 -0.082529 0.795000 12562646
-0.076664 -0.078182 0.797000 8737183
-0.076760 -0.073720 0.798000 11378876
-0.076952 -0.069333 0.800000 12693198
-0.076952 -0.064762 0.800000 12627908
-0.077337 -0.060491 0.804000 12496071
-0.077722 -0.056175 0.808000 11440323
-0.076371 -0.148886 0.810000 13615063
-0.074957 -0.141586 0.795000 13748704
-0.074297 -0.135836 0.788000 14866675
-0.073731 -0.130333 0.782000 14340846
-0.073449 -0.125382 0.779000 13417958
-0.073449 -0.120930 0.779000 13880548
-0.073543 -0.116629 0.780000 13218514
-0.073731 -0.112459 0.782000 13092062
-0.074109 -0.108543 0.786000 12100561
-0.074109 -0.104051 0.786000 9249407
-0.074297 -0.099813 0.788000 11581412
-0.074391 -0.095431 0.789000 13025479
-0.074580 -0.091153 0.791000 12820666
-0.074957 -0.087071 0.795000 13154774
-0.074957 -0.082529 0.795000 12626389
-0.075240 -0.078280 0.798000 10435728
-0.075429 -0.073905 0.800000 12233150
-0.075617 -0.069507 0.802000 12891606
-0.075617 -0.064924 0.802000 12231365
-0.075994 -0.060642 0.806000 12956107
-0.076183 -0.056175 0.808000 11374526
-0.073443 -0.141586 0.795000 13551330
-0.072796 -0.135836 0.788000 15001846
-0.072427 -0.130667 0.784000 14406380
-0.072057 -0.125543 0.780000 13812453
-0.072057 -0.121086 0.780000 14535399
-0.072242 -0.116928 0.782000 13611991
-0.072242 -0.112459 0.782000 14468320
-0.072611 -0.108543 0.786000 12361162
-0.072796 -0.104316 0.788000 8621495
-0.072889 -0.099940 0.789000 12702698
-0.073258 -0.095915 0.793000 11956664
-0.073258 -0.091384 0.793000 12556721
-0.073443 -0.087071 0.795000 13418207
-0.073720 -0.082840 0.798000 12763102
-0.073905 -0.078476 0.800000 12161469
-0.074090 -0.074090 0.802000 13095375
-0.074274 -0.069680 0.804000 13019335
-0.074274 -0.065086 0.804000 11827123
-0.074644 -0.060792 0.808000 13416655
-0.071929 -0.141586 0.795000 14534116
-0.071295 -0.135836 0.788000 15065593
-0.071114 -0.131000 0.786000 14274026
-0.070571 -0.125543 0.780000 13878755
-0.070752 -0.121396 0.782000 14273514
-0.070933 -0.117227 0.784000 13877211
-0.071114 -0.113034 0.786000 13547745
-0.071386 -0.108957 0.789000 12889539
-0.071386 -0.104449 0.789000 11718126
-0.071748 -0.100447 0.793000 13288432
-0.071929 -0.096157 0.795000 11940265
-0.072110 -0.091845 0.797000 12753320
-0.072200 -0.087400 0.798000 13746921
-0.072381 -0.083048 0.800000 13485031
-0.072562 -0.078672 0.802000 13290474
-0.072743 -0.074274 0.804000 13551840
-0.072924 -0.069853 0.806000 11697592
-0.072743 -0.065086 0.804000 11823776
-0.073286 -0.060943 0.810000 13551571
-0.070414 -0.141586 0.795000 15457264
-0.069794 -0.135836 0.788000 15129840
-0.069617 -0.131000 0.786000 14076137
-0.069263 -0.125865 0.782000 13945058
-0.069263 -0.121396 0.782000 13944807
-0.069617 -0.117526 0.786000 14073313
-0.069883 -0.113466 0.789000 12631005
-0.070060 -0.109233 0.791000 13416405
-0.070060 -0.104713 0.791000 14733034
-0.070414 -0.100700 0.795000 13881074
-0.070680 -0.096520 0.798000 11898571
-0.070680 -0.091960 0.798000 12894411
-0.070857 -0.087619 0.800000 14010856
-0.071034 -0.083255 0.802000 14206695
-0.071389 -0.079065 0.806000 14404329
-0.071389 -0.074459 0.806000 14009826
-0.071389 -0.069853 0.806000 10393811
-0.071566 -0.065410 0.808000 11811780
-0.071743 -0.060943 0.810000 13681621
-0.068293 -0.135836 0.788000 14668775
-0.068120 -0.131000 0.786000 13878505
-0.067947 -0.126187 0.784000 13944289
-0.067947 -0.121707 0.784000 13877220
-0.068120 -0.117526 0.786000 13878247
-0.068553 -0.113753 0.791000 12891354
-0.068727 -0.109510 0.793000 13615335
-0.068727 -0.104978 0.793000 14404581
-0.069073 -0.100953 0.797000 14142707
-0.069333 -0.096762 0.800000 13358574
-0.069333 -0.092190 0.800000 13815278
-0.069507 -0.087838 0.802000 14207976
-0.069507 -0.083255 0.802000 14273767
-0.070027 -0.079261 0.808000 14142952
-0.070027 -0.074644 0.808000 13812963
-0.070200 -0.070200 0.810000 12566511
-0.070200 -0.065571 0.810000 13279463
-0.070373 -0.061093 0.812000 13416919
-0.066792 -0.135836 0.788000 14272987
-0.066623 -0.131000 0.786000 13680608
-0.066623 -0.126509 0.786000 13943526
-0.066453 -0.121707 0.784000 13745888
-0.066792 -0.117825 0.788000 13684189
-0.067047 -0.113753 0.791000 13154519
-0.067216 -0.109510 0.793000 13879013
-0.067216 -0.104978 0.793000 14076647
-0.067555 -0.100953 0.797000 14404592
-0.067810 -0.096762 0.800000 14799856
-0.067979 -0.092421 0.802000 14733551
-0.067979 -0.087838 0.802000 14339564
-0.068488 -0.083878 0.808000 14339564
-0.068657 -0.079457 0.810000 13876182
-0.068657 -0.074829 0.810000 13549530
-0.068657 -0.070200 0.810000 14733039
-0.068657 -0.065571 0.810000 14738672
-0.068996 -0.061244 0.814000 13145303
-0.065291 -0.135836 0.788000 13744334
-0.065126 -0.131000 0.786000 13546200
-0.065126 -0.126509 0.786000 13615851
-0.064960 -0.121707 0.784000 13415643
-0.065374 -0.117974 0.789000 13286355
-0.065540 -0.113753 0.791000 13022677
-0.065871 -0.109786 0.795000 13613794
-0.065871 -0.105243 0.795000 14142953
-0.066037 -0.100953 0.797000 14404845
-0.066286 -0.096762 0.800000 14472691
-0.066617 -0.092651 0.804000 14471152
-0.066783 -0.088276 0.806000 14536945
-0.067114 -0.084086 0.810000 14404592
-0.067114 -0.079457 0.810000 12821188
-0.067280 -0.075013 0.812000 14205137
-0.067280 -0.070373 0.812000 14668015
-0.067446 -0.065895 0.814000 14669304
-0.067446 -0.061244 0.814000 13198807
-0.063790 -0.135836 0.788000 13280956
-0.063790 -0.131333 0.788000 13415362
-0.063629 -0.126509 0.786000 13352908
-0.063871 -0.117974 0.789000 12951740
-0.064357 -0.114329 0.795000 12889276
-0.064357 -0.109786 0.795000 13409211
-0.064357 -0.105243 0.795000 14204105
-0.064519 -0.100953 0.797000 14404819
-0.064924 -0.097004 0.802000 14071758
-0.065248 -0.092882 0.806000 14272978
-0.065248 -0.088276 0.806000 14667748
-0.065410 -0.083878 0.808000 14538473
-0.065571 -0.079457 0.810000 11774936
-0.065733 -0.075013 0.812000 14800866
-0.065895 -0.070547 0.814000 14537201
-0.065895 -0.065895 0.814000 14536949
-0.065976 -0.061319 0.815000 13282791
-0.062843 -0.114329 0.795000 12820131
-0.062843 -0.109786 0.795000 12948628
-0.062843 -0.105243 0.795000 13215401
-0.063001 -0.100953 0.797000 13348536
-0.063396 -0.097004 0.802000 13141162
-0.063712 -0.092882 0.806000 13545907
-0.063712 -0.088276 0.806000 13944536
-0.063870 -0.083878 0.808000 14207970
-0.064029 -0.079457 0.810000 13230829
-0.064187 -0.075013 0.812000 14668275
-0.064345 -0.070547 0.814000 14537714
-0.064424 -0.065976 0.815000 14669042
-0.064424 -0.061319 0.815000 14345463
-0.061483 -0.114616 0.797000 12688806
-0.061329 -0.109786 0.795000 12490909
-0.061869 -0.097004 0.802000 12227239
-0.062177 -0.092882 0.806000 12825004
-0.062331 -0.088495 0.808000 13216699
-0.062331 -0.083878 0.808000 13872832
-0.062486 -0.079457 0.810000 14663112
-0.062640 -0.075013 0.812000 14468556
-0.062794 -0.070547 0.814000 14532049
-0.062871 -0.065976 0.815000 14733531
-0.063026 -0.061470 0.817000 15323877
-0.060792 -0.088495 0.808000 13145759
-0.060792 -0.083878 0.808000 13541534
-0.061470 -0.066138 0.817000 14269123
-0.061470 -0.061470 0.817000 14531795
-0.140517 -0.125489 0.789000 12097444
-0.140339 -0.120827 0.788000 13149357
-0.139014 -0.129997 0.789000 11768222
-0.138486 -0.125011 0.786000 10979216
-0.138838 -0.120827 0.788000 13016975
-0.139367 -0.116767 0.791000 13542823
-0.136989 -0.129503 0.786000 10781328
-0.136640 -0.124693 0.784000 10252412
-0.136640 -0.120213 0.784000 11305328
-0.137511 -0.116471 0.789000 12624033
-0.137043 -0.135529 0.795000 11248576
-0.135491 -0.129503 0.786000 9797262
-0.134802 -0.124375 0.782000 9467007
-0.135147 -0.120213 0.784000 9529206
-0.136009 -0.116471 0.789000 11700104
-0.136353 -0.112247 0.791000 11829637
-0.137560 -0.104120 0.798000 13476761
-0.135870 -0.135870 0.797000 12565978
-0.133653 -0.129173 0.784000 9994636
-0.133312 -0.124375 0.782000 9533315
-0.133312 -0.119907 0.782000 9267836
-0.134335 -0.116324 0.788000 10384495
-0.134847 -0.112247 0.791000 10115673
-0.136040 -0.104120 0.798000 11170686
-0.136040 -0.099560 0.798000 12162958
-0.136381 -0.095238 0.800000 12293273
-0.136722 -0.090893 0.802000 12756645
-0.137063 -0.086526 0.804000 12952494
-0.134520 -0.140600 0.798000 14472424
-0.134351 -0.135870 0.797000 13878492
-0.131486 -0.128514 0.780000 10192032
-0.131317 -0.123898 0.779000 9532032
-0.131317 -0.119447 0.779000 9071990
-0.131486 -0.115143 0.780000 9072498
-0.132834 -0.111821 0.788000 8408930
-0.132834 -0.107318 0.788000 8147294
-0.134014 -0.103729 0.795000 8928863
-0.134351 -0.099435 0.797000 10714494
-0.134351 -0.094881 0.797000 11241096
-0.134520 -0.090440 0.798000 12160394
-0.135194 -0.086310 0.802000 12950931
-0.137217 -0.068996 0.814000 12754335
-0.133333 -0.140952 0.800000 14075359
-0.133000 -0.136040 0.798000 13879774
-0.130000 -0.128514 0.780000 10588596
-0.129500 -0.123580 0.777000 9399166
-0.129500 -0.119140 0.777000 9072240
-0.129833 -0.114995 0.779000 9137782
-0.130333 -0.110970 0.782000 8608619
-0.131000 -0.107046 0.786000 8212064
-0.131833 -0.103207 0.791000 8339776
-0.132500 -0.099186 0.795000 10121583
-0.132833 -0.094881 0.797000 10385014
-0.132833 -0.090327 0.797000 10778480
-0.133000 -0.085880 0.798000 11240824
-0.133667 -0.081728 0.802000 11506057
-0.135333 -0.073467 0.812000 11964564
-0.135667 -0.068996 0.814000 12096412
-0.135833 -0.064424 0.815000 12098721
-0.135833 -0.059767 0.815000 11175289
-0.132798 -0.146615 0.806000 14204876
-0.131810 -0.140952 0.800000 13679839
-0.131480 -0.136040 0.798000 13813473
-0.128350 -0.128350 0.779000 10981832
-0.127690 -0.123262 0.775000 9268862
-0.127690 -0.118833 0.775000 9072756
-0.128020 -0.114700 0.777000 9137270
-0.128844 -0.110970 0.782000 8873589
-0.129173 -0.106773 0.784000 8279137
-0.129997 -0.102946 0.789000 7686225
-0.130656 -0.098936 0.793000 9530993
-0.130656 -0.094405 0.793000 9597814
-0.130986 -0.090100 0.795000 9401973
-0.131480 -0.085880 0.798000 9599354
-0.132469 -0.081931 0.804000 9921905
-0.133128 -0.077722 0.808000 10713475
-0.133457 -0.073286 0.810000 11043459
-0.133787 -0.068827 0.812000 11435652
-0.134281 -0.064424 0.815000 12029583
-0.134281 -0.059767 0.815000 11176059
-0.131589 -0.146979 0.808000 14078163
-0.130611 -0.141305 0.802000 13549278
-0.129960 -0.136040 0.798000 13878756
-0.126866 -0.128350 0.779000 11444700
-0.126214 -0.123262 0.775000 9202046
-0.125889 -0.118527 0.773000 8941432
-0.126214 -0.114405 0.775000 9005686
-0.127029 -0.110686 0.780000 9071742
-0.127354 -0.106501 0.782000 8478819
-0.128006 -0.102554 0.786000 8150881
-0.128494 -0.098437 0.789000 9334388
-0.128820 -0.094167 0.791000 9138806
-0.129797 -0.090327 0.797000 9270905
-0.129960 -0.085880 0.798000 9663611
-0.130611 -0.081728 0.802000 8724569
-0.131263 -0.077530 0.806000 9790573
-0.131589 -0.073105 0.808000 10186610
-0.131914 -0.068657 0.810000 10449003
-0.132240 -0.064187 0.812000 10843261
-0.132729 -0.059767 0.815000 10057085
-0.130371 -0.147343 0.810000 13944538
-0.129084 -0.141305 0.802000 13418461
-0.128440 -0.136040 0.798000 13944034
-0.125382 -0.128350 0.779000 11971291
-0.124738 -0.123262 0.775000 9073282
-0.124416 -0.118527 0.773000 8810105
-0.124738 -0.114405 0.775000 8874869
-0.125543 -0.110686 0.780000 9334648
-0.125865 -0.106501 0.782000 8676711
-0.126187 -0.102293 0.784000 8612711
-0.126830 -0.098312 0.788000 9137526
-0.126991 -0.093929 0.789000 8678765
-0.127635 -0.089873 0.793000 9070199
-0.128279 -0.085772 0.797000 9728888
-0.128762 -0.081524 0.800000 7556709
-0.129406 -0.077337 0.804000 8871025
-0.130050 -0.073105 0.808000 9335158
-0.130371 -0.068657 0.810000 9465713
-0.130693 -0.064187 0.812000 9597817
-0.131176 -0.059767 0.815000 8938095
-0.129147 -0.147707 0.812000 13747169
-0.127874 -0.141657 0.804000 13484252
-0.126761 -0.135870 0.797000 13813217
-0.123898 -0.128350 0.779000 12104153
-0.122944 -0.122944 0.773000 9204870
-0.122785 -0.118373 0.772000 8810105
-0.122944 -0.114110 0.773000 8874612
-0.123580 -0.110260 0.777000 9137521
-0.124057 -0.106229 0.780000 8610411
-0.124375 -0.102032 0.782000 8546668
-0.125011 -0.098063 0.786000 9138297
-0.125330 -0.093810 0.788000 8146787
-0.125807 -0.089647 0.791000 8867188
-0.126443 -0.085557 0.795000 9532276
-0.126761 -0.081218 0.797000 8416881
-0.127238 -0.076952 0.800000 9071732
-0.127874 -0.072743 0.804000 9400954
-0.128510 -0.068488 0.808000 9400695
-0.129147 -0.064187 0.812000 9137269
-0.129465 -0.059693 0.814000 9069408
-0.127600 -0.147707 0.812000 13550306
-0.126343 -0.141657 0.804000 13549787
-0.125243 -0.135870 0.797000 13616351
-0.122414 -0.128350 0.779000 12240095
-0.121471 -0.122944 0.773000 9336716
-0.121314 -0.118373 0.772000 8875382
-0.121471 -0.114110 0.773000 8809332
-0.121786 -0.109976 0.775000 9005937
-0.122571 -0.106229 0.780000 8479851
-0.122886 -0.102032 0.782000 8547436
-0.123200 -0.097813 0.784000 9073015
-0.123829 -0.093810 0.788000 7625837
-0.123986 -0.089420 0.789000 8611700
-0.124614 -0.085342 0.793000 9335414
-0.125243 -0.081218 0.797000 9203829
-0.125400 -0.076760 0.798000 9270387
-0.126029 -0.072562 0.802000 9400695
-0.126971 -0.068488 0.808000 9400180
-0.127286 -0.064029 0.810000 8673884
-0.127600 -0.059547 0.812000 9138272
-0.126364 -0.148070 0.814000 13550051
-0.124501 -0.141305 0.802000 13549785
-0.123414 -0.135529 0.795000 13681886
-0.120620 -0.128020 0.777000 12434916
-0.119999 -0.122944 0.773000 9338002
-0.119844 -0.118373 0.772000 8875379
-0.119999 -0.114110 0.773000 8874868
-0.120310 -0.109976 0.775000 9005937
-0.120930 -0.106092 0.779000 8545644
-0.121086 -0.101771 0.780000 8677996
-0.121396 -0.097564 0.782000 9138806
-0.122017 -0.093571 0.786000 8546934
-0.122483 -0.089420 0.789000 8875637
-0.123104 -0.085342 0.793000 9335159
-0.123414 -0.081014 0.795000 9269370
-0.123725 -0.076664 0.797000 9335410
-0.124190 -0.072381 0.800000 9269875
-0.124811 -0.068149 0.804000 9203824
-0.125122 -0.063712 0.806000 8600386
-0.126053 -0.059547 0.812000 8609632
-0.124507 -0.147707 0.812000 13484770
-0.122973 -0.141305 0.802000 13549788
-0.121900 -0.135529 0.795000 13747680
-0.119140 -0.128020 0.777000 12635366
-0.118067 -0.122467 0.770000 9271447
-0.118067 -0.118067 0.770000 8875128
-0.118067 -0.113667 0.770000 8875381
-0.118527 -0.109692 0.773000 9005939
-0.119140 -0.105820 0.777000 8611695
-0.119447 -0.101641 0.779000 8874861
-0.119907 -0.097564 0.782000 9204341
-0.120520 -0.093571 0.786000 9465720
-0.120827 -0.089307 0.788000 9072760
-0.121287 -0.085127 0.791000 9335159
-0.121900 -0.081014 0.795000 9335160
-0.122207 -0.076664 0.797000 9466229
-0.122667 -0.072381 0.800000 9137778
-0.122973 -0.067979 0.802000 9073010
-0.123280 -0.063554 0.804000 8542300
-0.124200 -0.059400 0.810000 8149611
-0.124507 -0.054907 0.812000 8939371
-0.122960 -0.147707 0.812000 13484001
-0.121749 -0.141657 0.804000 13550046
-0.120386 -0.135529 0.795000 13813473
-0.117660 -0.128020 0.777000 12764135
-0.116600 -0.122467 0.770000 9337755
-0.116297 -0.117760 0.768000 8940668
-0.116600 -0.113667 0.770000 8941686
-0.117054 -0.109692 0.773000 8808820
-0.117660 -0.105820 0.777000 8546418
-0.117963 -0.101641 0.779000 8677998
-0.118114 -0.097314 0.780000 9203829
-0.118720 -0.093333 0.784000 9269369
-0.119326 -0.089307 0.788000 9204091
-0.119780 -0.085127 0.791000 9400951
-0.120083 -0.080810 0.793000 9334903
-0.120386 -0.076471 0.795000 9335159
-0.120840 -0.072200 0.798000 8938608
-0.121143 -0.067810 0.800000 8808819
-0.121749 -0.063554 0.804000 8876662
-0.122354 -0.059253 0.808000 8742774
-0.122657 -0.054771 0.810000 7620707
-0.121413 -0.147707 0.812000 13484514
-0.119918 -0.141305 0.802000 13615583
-0.118572 -0.135188 0.793000 13878752
-0.116479 -0.128350 0.779000 12963816
-0.114834 -0.122149 0.768000 9403804
-0.114834 -0.117760 0.768000 9071486
-0.114834 -0.113371 0.768000 8941431
-0.115582 -0.109692 0.773000 8678003
-0.115881 -0.105548 0.775000 8481138
-0.116180 -0.101380 0.777000 8481137
-0.116629 -0.097314 0.780000 9204087
-0.117227 -0.093333 0.784000 9138553
-0.117825 -0.089307 0.788000 9269625
-0.117974 -0.084911 0.789000 9400953
-0.118572 -0.080810 0.793000 9335159
-0.118871 -0.076471 0.795000 9204087
-0.119170 -0.072110 0.797000 8674401
-0.119619 -0.067810 0.800000 8609640
-0.119918 -0.063396 0.802000 9139320
-0.120516 -0.059107 0.806000 9334901
-0.121114 -0.054771 0.810000 6244694
-0.119867 -0.147707 0.812000 13484259
-0.118095 -0.140952 0.800000 13681376
-0.117357 -0.135529 0.795000 13878495
-0.114995 -0.128350 0.779000 13092840
-0.113371 -0.122149 0.768000 9534365
-0.113371 -0.117760 0.768000 9203584
-0.113371 -0.113371 0.768000 9073272
-0.113962 -0.109550 0.772000 8809329
-0.114405 -0.105548 0.775000 8612723
-0.114700 -0.101380 0.777000 8678003
-0.114995 -0.097190 0.779000 9204090
-0.115733 -0.093333 0.784000 9073272
-0.116029 -0.089080 0.786000 9269367
-0.116471 -0.084911 0.789000 9334650
-0.116767 -0.080607 0.791000 9334903
-0.117357 -0.076471 0.795000 9138807
-0.117652 -0.072110 0.797000 8669522
-0.117800 -0.067640 0.798000 8343644
-0.118390 -0.063396 0.802000 9270139
-0.118686 -0.058960 0.804000 9270132
-0.119276 -0.054636 0.808000 7422281
-0.118320 -0.147707 0.812000 13484256
-0.116280 -0.140600 0.798000 13681889
-0.115260 -0.134847 0.791000 13879011
-0.113220 -0.128020 0.777000 13226216
-0.111909 -0.122149 0.768000 9601185
-0.111909 -0.117760 0.768000 9335936
-0.111909 -0.113371 0.768000 9138809
-0.112491 -0.109550 0.772000 8940397
-0.112929 -0.105548 0.775000 8678518
-0.113220 -0.101380 0.777000 8874868
-0.113511 -0.097190 0.779000 9139323
-0.113949 -0.093095 0.782000 9074043
-0.114240 -0.088853 0.784000 9269885
-0.114823 -0.084804 0.788000 9203323
-0.115260 -0.080607 0.791000 9269626
-0.115551 -0.076279 0.793000 9139065
-0.115843 -0.071929 0.795000 8675433
-0.116280 -0.067640 0.798000 8079725
-0.116863 -0.063396 0.802000 9401723
-0.117154 -0.058960 0.804000 9270648
-0.117446 -0.054501 0.806000 8607842
-0.116773 -0.147707 0.812000 13549533
-0.115048 -0.140952 0.800000 13287394
-0.113753 -0.134847 0.791000 14010854
-0.111740 -0.128020 0.777000 13289960
-0.110446 -0.122149 0.768000 9665445
-0.110302 -0.117607 0.767000 9401728
-0.110446 -0.113371 0.768000 9205371
-0.111021 -0.109550 0.772000 8940904
-0.111452 -0.105548 0.775000 8875641
-0.111740 -0.101380 0.777000 8940661
-0.112028 -0.097190 0.779000 9271164
-0.112459 -0.093095 0.782000 9205630
-0.112459 -0.088627 0.782000 9401474
-0.113034 -0.084589 0.786000 9335420
-0.113466 -0.080403 0.789000 9335421
-0.114041 -0.076279 0.793000 9335930
-0.114329 -0.071929 0.795000 9009024
-0.114760 -0.067640 0.798000 8675710
-0.115048 -0.063238 0.800000 9532794
-0.115335 -0.058813 0.802000 9401723
-0.115623 -0.054366 0.804000 9007226
-0.115227 -0.147707 0.812000 13550047
-0.113524 -0.140952 0.800000 12826571
-0.112247 -0.134847 0.791000 14074071
-0.109976 -0.127690 0.775000 13356776
-0.108983 -0.122149 0.768000 9733034
-0.108841 -0.117607 0.767000 9467267
-0.108983 -0.113371 0.768000 9271166
-0.109550 -0.109550 0.772000 8941937
-0.109976 -0.105548 0.775000 9007995
-0.109976 -0.101119 0.775000 9071736
-0.110544 -0.097190 0.779000 9401980
-0.110970 -0.093095 0.782000 9402234
-0.110970 -0.088627 0.782000 9533057
-0.111253 -0.084373 0.784000 9532285
-0.111963 -0.080403 0.789000 9335675
-0.112247 -0.076087 0.791000 9598076
-0.112814 -0.071929 0.795000 9271679
-0.113098 -0.067555 0.797000 9269116
-0.113524 -0.063238 0.800000 9598844
-0.113808 -0.058813 0.802000 9598333
-0.114091 -0.054366 0.804000 9335932
-0.113960 -0.148070 0.814000 13747170
-0.112280 -0.141305 0.802000 12424116
-0.111020 -0.135188 0.793000 14008775
-0.108500 -0.127690 0.775000 13486824
-0.107520 -0.122149 0.768000 9798319
-0.107380 -0.117607 0.767000 9533062
-0.107520 -0.113371 0.768000 9403010
-0.108080 -0.109550 0.772000 9139578
-0.108500 -0.105548 0.775000 9205630
-0.108500 -0.101119 0.775000 9203578
-0.109060 -0.097190 0.779000 9729915
-0.109200 -0.092857 0.780000 9533558
-0.109480 -0.088627 0.782000 9598592
-0.110040 -0.084589 0.786000 9335934
-0.110460 -0.080403 0.789000 9138809
-0.110460 -0.075894 0.789000 9533054
-0.111020 -0.071748 0.793000 9468543
-0.111300 -0.067386 0.795000 9402234
-0.111720 -0.063080 0.798000 9730173
-0.112280 -0.058813 0.802000 9664382
-0.112560 -0.054366 0.804000 9533053
-0.112410 -0.148070 0.814000 13877981
-0.110752 -0.141305 0.802000 11965371
-0.109510 -0.135188 0.793000 13941199
-0.107024 -0.127690 0.775000 13553898
-0.106333 -0.122467 0.770000 9865390
-0.105919 -0.117607 0.767000 9664136
-0.106057 -0.113371 0.768000 9534084
-0.106610 -0.109550 0.772000 9402493
-0.107024 -0.105548 0.775000 9402496
-0.107024 -0.101119 0.775000 9335419
-0.107300 -0.096940 0.777000 10057600
-0.107714 -0.092857 0.780000 9599351
-0.107990 -0.088627 0.782000 9599359
-0.108267 -0.084373 0.784000 9139585
-0.108819 -0.080301 0.788000 8938342
-0.108957 -0.075894 0.789000 9402754
-0.109233 -0.071567 0.791000 9599105
-0.109786 -0.067386 0.795000 9599360
-0.110062 -0.063001 0.797000 9795712
-0.110476 -0.058667 0.800000 9795711
-0.111029 -0.054366 0.804000 9729663
-0.110859 -0.148070 0.814000 12896473
-0.109225 -0.141305 0.802000 12030658
-0.107999 -0.135188 0.793000 14074071
-0.105548 -0.127690 0.775000 13552619
-0.104867 -0.122467 0.770000 9930158
-0.104458 -0.117607 0.767000 9730185
-0.104594 -0.113371 0.768000 9600390
-0.105139 -0.109550 0.772000 9336960
-0.105275 -0.105275 0.773000 9534595
-0.105548 -0.101119 0.775000 9204347
-0.105820 -0.096940 0.777000 9663877
-0.106229 -0.092857 0.780000 9464183
-0.106501 -0.088627 0.782000 9796734
-0.106773 -0.084373 0.784000 8940420
-0.107318 -0.080301 0.788000 8273491
-0.107454 -0.075894 0.789000 9665670
-0.107727 -0.071567 0.791000 9795972
-0.108271 -0.067386 0.795000 9730437
-0.108544 -0.063001 0.797000 9729923
-0.108680 -0.058520 0.798000 9664384
-0.109225 -0.054230 0.802000 9664385
-0.109309 -0.148070 0.814000 11904204
-0.107429 -0.140952 0.800000 12093614
-0.106220 -0.134847 0.791000 14206682
-0.104071 -0.127690 0.775000 13552875
-0.103400 -0.122467 0.770000 9930671
-0.103131 -0.117760 0.768000 9795979
-0.103131 -0.113371 0.768000 9600135
-0.103669 -0.109550 0.772000 9336958
-0.103803 -0.105275 0.773000 9599618
-0.104071 -0.101119 0.775000 9073020
-0.104340 -0.096940 0.777000 9267064
-0.104743 -0.092857 0.780000 9262163
-0.105011 -0.088627 0.782000 9994116
-0.105280 -0.084373 0.784000 8745862
-0.105817 -0.080301 0.788000 7617875
-0.105951 -0.075894 0.789000 9994634
-0.106220 -0.071567 0.791000 9927814
-0.106757 -0.067386 0.795000 9927559
-0.107026 -0.063001 0.797000 9664900
-0.107160 -0.058520 0.798000 9533315
-0.107697 -0.054230 0.802000 9599620
-0.107758 -0.148070 0.814000 11307455
-0.106170 -0.141305 0.802000 12224665
-0.104713 -0.134847 0.791000 14274524
-0.102860 -0.128020 0.777000 13486570
-0.101933 -0.122467 0.770000 9993392
-0.101536 -0.117607 0.767000 9796237
-0.101669 -0.113371 0.768000 9666184
-0.102198 -0.109550 0.772000 9468028
-0.102330 -0.105275 0.773000 9796737
-0.102595 -0.101119 0.775000 9203069
-0.102860 -0.096940 0.777000 9396076
-0.103257 -0.092857 0.780000 8535598
-0.103522 -0.088627 0.782000 10190987
-0.103787 -0.084373 0.784000 9335944
-0.104316 -0.080301 0.788000 7093844
-0.104449 -0.075894 0.789000 10125454
-0.104713 -0.071567 0.791000 10059400
-0.105243 -0.067386 0.795000 10059401
-0.105508 -0.063001 0.797000 9862278
-0.105640 -0.058520 0.798000 9731717
-0.106170 -0.054230 0.802000 9601160
-0.107121 -0.154035 0.821000 13682657
-0.106338 -0.148252 0.815000 10654913
-0.104903 -0.141657 0.804000 12353443
-0.102946 -0.134506 0.789000 14271694
-0.101641 -0.128350 0.779000 13422057
-0.100467 -0.122467 0.770000 9995699
-0.100206 -0.117760 0.768000 9796494
-0.100206 -0.113371 0.768000 9731721
-0.100858 -0.109692 0.773000 9664896
-0.100858 -0.105275 0.773000 9928325
-0.101119 -0.101119 0.775000 9332080
-0.101380 -0.096940 0.777000 9530488
-0.101771 -0.092857 0.780000 7807834
-0.102032 -0.088627 0.782000 10321804
-0.102293 -0.084373 0.784000 9995402
-0.102815 -0.080301 0.788000 6573426
-0.102946 -0.075894 0.789000 10257291
-0.103207 -0.071567 0.791000 10125453
-0.103729 -0.067386 0.795000 10125448
-0.103990 -0.063001 0.797000 10059657
-0.104120 -0.058520 0.798000 9864327
-0.104642 -0.054230 0.802000 9594997
-0.105300 -0.153660 0.819000 13681379
-0.104786 -0.148252 0.815000 11505860
-0.103114 -0.141305 0.802000 12482733
-0.101443 -0.134506 0.789000 14270912
-0.100157 -0.128350 0.779000 13355240
-0.099000 -0.122467 0.770000 10390965
-0.098743 -0.117760 0.768000 9927823
-0.099000 -0.113667 0.770000 9797770
-0.099386 -0.109692 0.773000 9730692
-0.099643 -0.105548 0.775000 9994377
-0.099643 -0.101119 0.775000 9397602
-0.099643 -0.096690 0.775000 9863557
-0.100286 -0.092857 0.780000 9068934
-0.100543 -0.088627 0.782000 10322829
-0.100800 -0.084373 0.784000 10060428
-0.101314 -0.080301 0.788000 8215183
-0.101443 -0.075894 0.789000 10256776
-0.101957 -0.071748 0.793000 10191763
-0.102214 -0.067386 0.795000 10257030
-0.102471 -0.063001 0.797000 10125708
-0.102600 -0.058520 0.798000 9731720
-0.103114 -0.054230 0.802000 9119074
-0.103740 -0.153660 0.819000 13682661
-0.103233 -0.148252 0.815000 12358080
-0.101840 -0.141657 0.804000 12549287
-0.099813 -0.134335 0.788000 14271436
-0.098673 -0.128350 0.779000 13356009
-0.097533 -0.122467 0.770000 10719668
-0.097280 -0.117760 0.768000 9993618
-0.097533 -0.113667 0.770000 9863053
-0.097913 -0.109692 0.773000 9861767
-0.098167 -0.105548 0.775000 10060171
-0.098167 -0.101119 0.775000 9461360
-0.098420 -0.096940 0.777000 10191494
-0.098800 -0.092857 0.780000 10323084
-0.099053 -0.088627 0.782000 10322830
-0.099560 -0.084589 0.786000 10190991
-0.099813 -0.080301 0.788000 9861519
-0.099940 -0.075894 0.789000 10322061
-0.100447 -0.071748 0.793000 10192529
-0.100700 -0.067386 0.795000 10322571
-0.100953 -0.063001 0.797000 10191243
-0.101080 -0.058520 0.798000 9601161
-0.101587 -0.054230 0.802000 8600661
-0.101930 -0.153285 0.817000 13681382
-0.101556 -0.148070 0.814000 12353469
-0.100059 -0.141305 0.802000 12553121
-0.097813 -0.133653 0.784000 14406360
-0.097190 -0.128350 0.779000 13354729
-0.096067 -0.122467 0.770000 10850484
-0.095817 -0.117760 0.768000 9994132
-0.096067 -0.113667 0.770000 9928848
-0.096441 -0.109692 0.773000 9927818
-0.096690 -0.105548 0.775000 10191502
-0.096690 -0.101119 0.775000 9398654
-0.097314 -0.097314 0.780000 10258055
-0.097564 -0.093095 0.782000 10323089
-0.097564 -0.088627 0.782000 10388368
-0.098063 -0.084589 0.786000 10257042
-0.098312 -0.080301 0.788000 10061711
-0.098437 -0.075894 0.789000 10322321
-0.098687 -0.071567 0.791000 10128016
-0.099186 -0.067386 0.795000 9598351
-0.099435 -0.063001 0.797000 10322570
-0.099435 -0.058447 0.797000 9530506
-0.099810 -0.054095 0.800000 8994889
-0.100374 -0.153285 0.817000 13681892
-0.099760 -0.147707 0.812000 12292808
-0.098777 -0.141657 0.804000 12623009
-0.095829 -0.132971 0.780000 14470624
-0.095214 -0.127690 0.775000 13356522
-0.094354 -0.122149 0.768000 10916019
-0.094231 -0.117607 0.767000 9994391
-0.094354 -0.113371 0.768000 9994388
-0.094846 -0.109550 0.772000 9994124
-0.094969 -0.105275 0.773000 10257040
-0.094969 -0.100858 0.773000 9334157
-0.095706 -0.097190 0.779000 10255749
-0.095829 -0.092857 0.780000 10323346
-0.095829 -0.088400 0.780000 10388626
-0.096320 -0.084373 0.784000 10388370
-0.096566 -0.080097 0.786000 10257808
-0.096811 -0.075798 0.788000 10388370
-0.097426 -0.071748 0.793000 10055556
-0.097671 -0.067386 0.795000 8937066
-0.097917 -0.063001 0.797000 10388879
-0.098040 -0.058520 0.798000 9535119
-0.098531 -0.054230 0.802000 9397613
-0.098576 -0.152910 0.815000 13616098
-0.098213 -0.147707 0.812000 12621780
-0.097004 -0.141305 0.802000 12291488
-0.094343 -0.132971 0.780000 14339561
-0.093738 -0.127690 0.775000 13354730
-0.092891 -0.122149 0.768000 10915763
-0.092770 -0.117607 0.767000 10191769
-0.092891 -0.113371 0.768000 10125977
-0.093375 -0.109550 0.772000 10059661
-0.093496 -0.105275 0.773000 10453906
-0.093496 -0.100858 0.773000 9466012
-0.094222 -0.097190 0.779000 10256003
-0.094343 -0.092857 0.780000 10389138
-0.094343 -0.088400 0.780000 10454932
-0.094827 -0.084373 0.784000 10388626
-0.095069 -0.080097 0.786000 10389138
-0.095431 -0.075894 0.789000 10519954
-0.095673 -0.071567 0.791000 9453432
-0.095915 -0.067216 0.793000 9132357
-0.096157 -0.062843 0.795000 10454165
-0.096399 -0.058447 0.797000 10059667
-0.096762 -0.054095 0.800000 10061202
-0.097024 -0.152910 0.815000 13617122
-0.096429 -0.147343 0.810000 12956638
-0.095714 -0.141657 0.804000 11958458
-0.094167 -0.134847 0.791000 14142439
-0.092262 -0.127690 0.775000 13356265
-0.091429 -0.122149 0.768000 10851251
-0.091310 -0.117607 0.767000 10389149
-0.091429 -0.113371 0.768000 10257562
-0.091905 -0.109550 0.772000 10191249
-0.092024 -0.105275 0.773000 10651542
-0.092262 -0.101119 0.775000 9596788
-0.092738 -0.097190 0.779000 10252927
-0.092857 -0.092857 0.780000 10520726
-0.093095 -0.088627 0.782000 10455192
-0.093571 -0.084589 0.786000 10454421
-0.093571 -0.080097 0.786000 10454932
-0.093929 -0.075894 0.789000 10650774
-0.094167 -0.071567 0.791000 8869498
-0.094405 -0.067216 0.793000 9393251
-0.094643 -0.062843 0.795000 10520214
-0.094881 -0.058447 0.797000 10651540
-0.095238 -0.054095 0.800000 10651284
-0.095471 -0.152910 0.815000 13615586
-0.094886 -0.147343 0.810000 13486825
-0.093949 -0.141305 0.802000 12889299
-0.092426 -0.134506 0.789000 14076389
-0.090786 -0.127690 0.775000 13354472
-0.089966 -0.122149 0.768000 10849970
-0.089966 -0.117760 0.768000 10586016
-0.090200 -0.113667 0.770000 10454939
-0.090434 -0.109550 0.772000 10126485
-0.090786 -0.105548 0.775000 10061466
-0.091020 -0.101380 0.777000 8736076
-0.091254 -0.097190 0.779000 10318203
-0.091371 -0.092857 0.780000 10652313
-0.091606 -0.088627 0.782000 10455964
-0.092074 -0.084589 0.786000 10453911
-0.092309 -0.080301 0.788000 10586263
-0.092426 -0.075894 0.789000 10651545
-0.092660 -0.071567 0.791000 9790589
-0.092894 -0.067216 0.793000 9924993
-0.093129 -0.062843 0.795000 10454678
-0.093363 -0.058447 0.797000 10717333
-0.093714 -0.054095 0.800000 10651030
-0.093919 -0.152910 0.815000 13616097
-0.093112 -0.146979 0.808000 13944805
-0.092421 -0.141305 0.802000 13812957
-0.090923 -0.134506 0.789000 13945317
-0.089310 -0.127690 0.775000 13422056
-0.088733 -0.122467 0.770000 10851253
-0.088503 -0.117760 0.768000 10782630
-0.088733 -0.113667 0.770000 10587300
-0.089079 -0.109692 0.773000 10127512
-0.089540 -0.105820 0.777000 9401991
-0.089770 -0.101641 0.779000 7880285
-0.089886 -0.097314 0.780000 10383482
-0.089886 -0.092857 0.780000 10718108
-0.090347 -0.088853 0.784000 10386062
-0.090577 -0.084589 0.786000 10449520
-0.090808 -0.080301 0.788000 10718106
-0.090923 -0.075894 0.789000 10717597
-0.091384 -0.071748 0.793000 10648464
-0.091384 -0.067216 0.793000 10456211
-0.091845 -0.063001 0.797000 10389656
-0.091960 -0.058520 0.798000 10782871
-0.092190 -0.054095 0.800000 10651802
-0.091573 -0.146979 0.808000 13878753
-0.090667 -0.140952 0.800000 13945062
-0.089420 -0.134506 0.789000 13944805
-0.087833 -0.127690 0.775000 13420263
-0.087267 -0.122467 0.770000 10981047
-0.087040 -0.117760 0.768000 10981291
-0.087267 -0.113667 0.770000 10654126
-0.087607 -0.109692 0.773000 9798298
-0.088060 -0.105820 0.777000 9266805
-0.088287 -0.101641 0.779000 8869741
-0.088400 -0.097314 0.780000 10057849
-0.088627 -0.093095 0.782000 11046814
-0.088853 -0.088853 0.784000 9260416
-0.089080 -0.084589 0.786000 9653833
-0.089307 -0.080301 0.788000 10849950
-0.089647 -0.076087 0.791000 10849697
-0.089873 -0.071748 0.793000 10849699
-0.090100 -0.067386 0.795000 10784165
-0.090440 -0.063080 0.798000 10128026
-0.090667 -0.058667 0.800000 10783640
-0.090893 -0.054230 0.802000 10783390
-0.090257 -0.147343 0.810000 13813217
-0.089143 -0.140952 0.800000 14076389
-0.088140 -0.134847 0.791000 13944805
-0.086357 -0.127690 0.775000 13486056
-0.085800 -0.122467 0.770000 11048633
-0.085800 -0.118067 0.770000 11244719
-0.086023 -0.113962 0.772000 10719661
-0.086357 -0.109976 0.775000 9537166
-0.086803 -0.106092 0.779000 9136502
-0.086803 -0.101641 0.779000 9854819
-0.086914 -0.097314 0.780000 9662572
-0.087137 -0.093095 0.782000 11375266
-0.087360 -0.088853 0.784000 8086663
-0.087583 -0.084589 0.786000 8928083
-0.087583 -0.080097 0.786000 10916515
-0.088140 -0.076087 0.791000 10981540
-0.088363 -0.071748 0.793000 10981541
-0.088586 -0.067386 0.795000 11112101
-0.088920 -0.063080 0.798000 9861003
-0.089143 -0.058667 0.800000 10850204
-0.089366 -0.054230 0.802000 10849696
-0.088714 -0.147343 0.810000 13813217
-0.087400 -0.140600 0.798000 14076132
-0.086414 -0.134506 0.789000 13944805
-0.084662 -0.127361 0.773000 13418729
-0.084552 -0.122785 0.772000 11244986
-0.084552 -0.118373 0.772000 11508658
-0.084552 -0.113962 0.772000 10651821
-0.084881 -0.109976 0.775000 9663106
-0.085319 -0.106092 0.779000 9466999
-0.085319 -0.101641 0.779000 9589081
-0.085429 -0.097314 0.780000 8540767
-0.085648 -0.093095 0.782000 11507366
-0.086086 -0.089080 0.786000 9204878
-0.086086 -0.084589 0.786000 9721949
-0.086305 -0.080301 0.788000 11245223
-0.086852 -0.076279 0.793000 11178919
-0.086852 -0.071748 0.793000 11244711
-0.087071 -0.067386 0.795000 11178917
-0.087400 -0.063080 0.798000 8932988
-0.087619 -0.058667 0.800000 11045536
-0.087619 -0.054095 0.800000 11046819
-0.087171 -0.147343 0.810000 13813217
-0.085880 -0.140600 0.798000 14010597
-0.085127 -0.134847 0.791000 13945061
-0.083405 -0.127690 0.775000 13353193
-0.083190 -0.122944 0.773000 11443646
-0.083082 -0.118373 0.772000 11771063
-0.083190 -0.114110 0.773000 10588334
-0.083405 -0.109976 0.775000 9797782
-0.083835 -0.106092 0.779000 9722995
-0.083943 -0.101771 0.780000 9328741
-0.083943 -0.097314 0.780000 7431026
-0.084373 -0.093333 0.784000 11639213
-0.084589 -0.089080 0.786000 10256543
-0.084589 -0.084589 0.786000 10575243
-0.084804 -0.080301 0.788000 11574699
-0.085342 -0.076279 0.793000 11441835
-0.085342 -0.071748 0.793000 11442091
-0.085557 -0.067386 0.795000 11178924
-0.086095 -0.063238 0.800000 7948649
-0.086095 -0.058667 0.800000 11243166
-0.086310 -0.054230 0.802000 11178917
-0.085629 -0.147343 0.810000 13879009
-0.084254 -0.140424 0.797000 14076134
-0.083620 -0.134847 0.791000 14075622
-0.081929 -0.127690 0.775000 13418473
-0.081717 -0.122944 0.773000 11705539
-0.081717 -0.118527 0.773000 11838139
-0.081717 -0.114110 0.773000 10981294
-0.082140 -0.110260 0.777000 10454441
-0.082457 -0.106229 0.780000 10049136
-0.082669 -0.102032 0.782000 9920368
-0.082669 -0.097564 0.782000 8942726
-0.082880 -0.093333 0.784000 11572915
-0.083091 -0.089080 0.786000 11310512
-0.083303 -0.084804 0.788000 11307960
-0.083303 -0.080301 0.788000 11772079
-0.083831 -0.076279 0.793000 11573934
-0.084043 -0.071929 0.795000 11639472
-0.084254 -0.067555 0.797000 11111859
-0.084571 -0.063238 0.800000 8528471
-0.084571 -0.058667 0.800000 11374492
-0.084783 -0.054230 0.802000 11442088
-0.084086 -0.147343 0.810000 13879010
-0.083048 -0.140952 0.800000 14141926
-0.081387 -0.133653 0.784000 14142184
-0.080452 -0.127690 0.775000 13417957
-0.080245 -0.122944 0.773000 11904197
-0.080245 -0.118527 0.773000 11904191
-0.080245 -0.114110 0.773000 11311288
-0.080660 -0.110260 0.777000 11181743
-0.080971 -0.106229 0.780000 10311541
-0.081179 -0.102032 0.782000 10512254
-0.081387 -0.097813 0.784000 10445179
-0.081594 -0.093571 0.786000 11438986
-0.081594 -0.089080 0.786000 12296376
-0.081802 -0.084804 0.788000 12101819
-0.081906 -0.080403 0.789000 11968948
-0.082321 -0.076279 0.793000 11705778
-0.082529 -0.071929 0.795000 11836852
-0.082736 -0.067555 0.797000 11049658
-0.083048 -0.063238 0.800000 9065603
-0.083048 -0.058667 0.800000 11578539
-0.083463 -0.054366 0.804000 11639727
-0.082543 -0.147343 0.810000 13879012
-0.081728 -0.141305 0.802000 14076389
-0.080607 -0.134847 0.791000 14404843
-0.078976 -0.127690 0.775000 13418976
-0.078772 -0.122944 0.773000 12298952
-0.078976 -0.118833 0.775000 12035778
-0.078976 -0.114405 0.775000 11573955
-0.079384 -0.110544 0.779000 11243445
-0.079486 -0.106229 0.780000 10309754
-0.079690 -0.102032 0.782000 10447243
-0.079893 -0.097813 0.784000 9783920
-0.080301 -0.093810 0.788000 11564128
-0.080301 -0.089307 0.788000 12362688
-0.080301 -0.084804 0.788000 12232638
-0.080607 -0.080607 0.791000 12166074
-0.081014 -0.076471 0.795000 11573429
-0.081014 -0.071929 0.795000 12165303
-0.081218 -0.067555 0.797000 11705793
-0.081524 -0.063238 0.800000 10780847
-0.081728 -0.058813 0.802000 11969210
-0.081931 -0.054366 0.804000 11968694
-0.081200 -0.152347 0.812000 13349571
-0.080800 -0.146979 0.808000 13879267
-0.080400 -0.141657 0.804000 14010853
-0.078800 -0.134335 0.788000 14603244
-0.077500 -0.127690 0.775000 13486051
-0.077500 -0.123262 0.775000 12627661
-0.077500 -0.118833 0.775000 12232915
-0.077900 -0.114995 0.779000 11838154
-0.077900 -0.110544 0.779000 11373237
-0.078000 -0.106229 0.780000 10312586
-0.078400 -0.102293 0.784000 10316426
-0.078600 -0.098063 0.786000 9068161
-0.078800 -0.093810 0.788000 11704473
-0.078800 -0.089307 0.788000 12364746
-0.078900 -0.084911 0.789000 12363977
-0.079300 -0.080810 0.793000 12297925
-0.079500 -0.076471 0.795000 11502755
-0.079500 -0.071929 0.795000 12428476
-0.079700 -0.067555 0.797000 12363459
-0.080000 -0.063238 0.800000 12427194
-0.080200 -0.058813 0.802000 12361917
-0.080600 -0.054501 0.806000 12295345
-0.079653 -0.152347 0.812000 13283519
-0.079261 -0.146979 0.808000 13879522
-0.079457 -0.142714 0.810000 13945061
-0.077103 -0.133994 0.786000 15130862
-0.076220 -0.128020 0.777000 13550309
-0.076024 -0.123262 0.775000 12957139
-0.076220 -0.119140 0.777000 12629219
-0.076416 -0.114995 0.779000 12363729
-0.076514 -0.110686 0.780000 11303605
-0.076710 -0.106501 0.782000 11505818
-0.077103 -0.102554 0.786000 9987721
-0.077103 -0.098063 0.786000 10382993
-0.077299 -0.093810 0.788000 12562897
-0.077397 -0.089420 0.789000 12760276
-0.077593 -0.085127 0.791000 12627155
-0.077986 -0.081014 0.795000 12231889
-0.078182 -0.076664 0.797000 10383504
-0.078182 -0.072110 0.797000 12692418
-0.078280 -0.067640 0.798000 12561092
-0.078476 -0.063238 0.800000 12430533
-0.078869 -0.058960 0.804000 12429504
-0.077914 -0.147343 0.810000 13879520
-0.077145 -0.141305 0.802000 13945312
-0.075606 -0.133994 0.786000 15654385
-0.074932 -0.128350 0.779000 13615590
-0.074740 -0.123580 0.777000 13220058
-0.074932 -0.119447 0.779000 13027559
-0.075029 -0.115143 0.780000 12890070
-0.075221 -0.110970 0.782000 11304391
-0.075413 -0.106773 0.784000 12688555
-0.075606 -0.102554 0.786000 9660528
-0.075606 -0.098063 0.786000 11707066
-0.075894 -0.093929 0.789000 13484224
-0.076087 -0.089647 0.791000 13088720
-0.076279 -0.085342 0.793000 12955089
-0.076471 -0.081014 0.795000 12093889
-0.076664 -0.076664 0.797000 9334673
-0.076760 -0.072200 0.798000 12889286
-0.076952 -0.067810 0.800000 12758733
-0.077145 -0.063396 0.802000 12364229
-0.077337 -0.058960 0.804000 12496328
-0.076371 -0.147343 0.810000 13814239
-0.074957 -0.140071 0.795000 14075866
-0.074109 -0.133994 0.786000 15460084
-0.073543 -0.128514 0.780000 13879271
-0.073449 -0.123898 0.779000 13484514
-0.073449 -0.119447 0.779000 13420011
-0.073543 -0.115143 0.780000 13481947
-0.073920 -0.111253 0.784000 12365529
-0.074109 -0.107046 0.786000 12558781
-0.074297 -0.102815 0.788000 10384982
-0.074297 -0.098312 0.788000 11783394
-0.074580 -0.094167 0.791000 12620462
-0.074769 -0.089873 0.793000 13417675
-0.074957 -0.085557 0.795000 13220047
-0.075146 -0.081218 0.797000 12024754
-0.075240 -0.076760 0.798000 10909330
-0.075429 -0.072381 0.800000 13088714
-0.075617 -0.067979 0.802000 12629717
-0.075806 -0.063554 0.804000 12100550
-0.075994 -0.059107 0.806000 12890319
-0.074829 -0.147343 0.810000 13746905
-0.073443 -0.140071 0.795000 14205413
-0.072611 -0.133994 0.786000 15196405
-0.072242 -0.128844 0.782000 14141925
-0.072057 -0.124057 0.780000 13747171
-0.072057 -0.119600 0.780000 13880557
-0.072242 -0.115438 0.782000 14074593
-0.072427 -0.111253 0.784000 13420500
-0.072611 -0.107046 0.786000 12363466
-0.072796 -0.102815 0.788000 11117988
-0.072889 -0.098437 0.789000 11775956
-0.073258 -0.094405 0.793000 11686323
-0.073443 -0.090100 0.795000 13677770
-0.073628 -0.085772 0.797000 13483741
-0.073628 -0.081218 0.797000 11969486
-0.073905 -0.076952 0.800000 12496573
-0.074090 -0.072562 0.802000 13287635
-0.074459 -0.068318 0.806000 12433079
-0.074459 -0.063712 0.806000 11834301
-0.074829 -0.059400 0.810000 13350359
-0.071929 -0.140071 0.795000 14932719
-0.071295 -0.134335 0.788000 14734069
-0.070933 -0.129173 0.784000 14075618
-0.070752 -0.124375 0.782000 13878501
-0.070752 -0.119907 0.782000 13879022
-0.070933 -0.115733 0.784000 14275560
-0.071114 -0.111537 0.786000 12957134
-0.071386 -0.107454 0.789000 13417175
-0.071567 -0.103207 0.791000 12830193
-0.071567 -0.098687 0.791000 12557509
-0.072110 -0.094881 0.797000 11689911
-0.072200 -0.090440 0.798000 14007496
-0.072381 -0.086095 0.800000 13747178
-0.072381 -0.081524 0.800000 13222890
-0.072562 -0.077145 0.802000 13419240
-0.072743 -0.072743 0.804000 13615324
-0.072924 -0.068318 0.806000 11437208
-0.073105 -0.063870 0.808000 12549556
-0.073286 -0.059400 0.810000 13419230
-0.070237 -0.139719 0.793000 15725303
-0.069794 -0.134335 0.788000 14275054
-0.069440 -0.129173 0.784000 14008294
-0.069263 -0.124375 0.782000 14010596
-0.069440 -0.120213 0.784000 13879784
-0.069617 -0.116029 0.786000 14403813
-0.069883 -0.111963 0.789000 12563155
-0.070060 -0.107727 0.791000 14402526
-0.070237 -0.103468 0.793000 14602476
-0.070414 -0.099186 0.795000 13283546
-0.070680 -0.095000 0.798000 11708883
-0.070857 -0.090667 0.800000 14337753
-0.070857 -0.086095 0.800000 14010857
-0.070857 -0.081524 0.800000 14404329
-0.071389 -0.077530 0.806000 14272232
-0.071389 -0.072924 0.806000 13878500
-0.071389 -0.068318 0.806000 10379969
-0.071743 -0.064029 0.810000 13275854
-0.071920 -0.059547 0.812000 13551058
-0.068727 -0.139719 0.793000 15262974
-0.068293 -0.134335 0.788000 14207464
-0.067947 -0.129173 0.784000 13877737
-0.067947 -0.124693 0.784000 14010852
-0.067947 -0.120213 0.784000 13877730
-0.068293 -0.116324 0.788000 13878498
-0.068553 -0.112247 0.791000 13022679
-0.068727 -0.107999 0.793000 14207973
-0.068900 -0.103729 0.795000 14404839
-0.069073 -0.099435 0.797000 13946096
-0.069333 -0.095238 0.800000 13289967
-0.069507 -0.090893 0.802000 14405611
-0.069507 -0.086310 0.802000 14207976
-0.069507 -0.081728 0.802000 14275304
-0.070027 -0.077722 0.808000 13812199
-0.070027 -0.073105 0.808000 14142187
-0.070027 -0.068488 0.808000 12559338
-0.070200 -0.064029 0.810000 14076648
-0.070547 -0.059693 0.814000 13146822
-0.067047 -0.139367 0.791000 14800101
-0.066792 -0.134335 0.788000 14140381
-0.066623 -0.129503 0.786000 13746913
-0.066453 -0.124693 0.784000 14009828
-0.066453 -0.120213 0.784000 13876446
-0.066877 -0.116471 0.789000 13288665
-0.067047 -0.112247 0.791000 13481946
-0.067216 -0.107999 0.793000 13945061
-0.067386 -0.103729 0.795000 14141674
-0.067555 -0.099435 0.797000 14536175
-0.067810 -0.095238 0.800000 14930674
-0.067979 -0.090893 0.802000 14405613
-0.068149 -0.086526 0.804000 14404846
-0.068488 -0.082339 0.808000 14141921
-0.068657 -0.077914 0.810000 13283799
-0.068657 -0.073286 0.810000 14404581
-0.068657 -0.068657 0.810000 14735086
-0.068996 -0.064345 0.814000 14799079
-0.069081 -0.059767 0.815000 12805839
-0.065540 -0.139367 0.791000 14006732
-0.065291 -0.134335 0.788000 13678546
-0.065126 -0.129503 0.786000 13615321
-0.065291 -0.125330 0.788000 13615588
-0.064960 -0.120213 0.784000 13416922
-0.065540 -0.116767 0.791000 13156304
-0.065706 -0.112530 0.793000 13220061
-0.065706 -0.107999 0.793000 13879012
-0.065871 -0.103729 0.795000 14207724
-0.066037 -0.099435 0.797000 14470639
-0.066451 -0.095476 0.802000 14470389
-0.066783 -0.091347 0.806000 14537456
-0.066783 -0.086741 0.806000 14602483
-0.066949 -0.082339 0.808000 14203097
-0.067114 -0.077914 0.810000 13278662
-0.067114 -0.073286 0.810000 14668767
-0.067280 -0.068827 0.812000 14734322
-0.067446 -0.064345 0.814000 14535143
-0.067529 -0.059767 0.815000 13205976
-0.063790 -0.134335 0.788000 13216957
-0.063629 -0.129503 0.786000 13485766
-0.063790 -0.125330 0.788000 13153223
-0.064033 -0.116767 0.791000 13019322
-0.064357 -0.112814 0.795000 13022912
-0.064357 -0.108271 0.795000 13739968
-0.064357 -0.103729 0.795000 14272973
-0.064519 -0.099435 0.797000 14402774
-0.064924 -0.095476 0.802000 14006724
-0.065248 -0.091347 0.806000 14601434
-0.065410 -0.086956 0.808000 14799846
-0.065571 -0.082543 0.810000 14205664
-0.065571 -0.077914 0.810000 13208795
-0.065733 -0.073467 0.812000 14930921
-0.065895 -0.068996 0.814000 14733298
-0.065976 -0.064424 0.815000 14207725
-0.065976 -0.059767 0.815000 13614313
-0.062843 -0.112814 0.795000 12820898
-0.062843 -0.108271 0.795000 13075868
-0.062843 -0.103729 0.795000 13282478
-0.063001 -0.099435 0.797000 13413821
-0.063396 -0.095476 0.802000 13211283
-0.063712 -0.091347 0.806000 13811909
-0.063870 -0.086956 0.808000 14074841
-0.064029 -0.082543 0.810000 14212326
-0.064187 -0.078107 0.812000 13877487
-0.064187 -0.073467 0.812000 14734323
-0.064345 -0.068996 0.814000 14668018
-0.064424 -0.064424 0.815000 14540531
-0.061329 -0.112814 0.795000 12622758
-0.061329 -0.108271 0.795000 12359073
-0.061869 -0.095476 0.802000 12423580
-0.062177 -0.091347 0.806000 13020851
-0.062331 -0.086956 0.808000 13411516
-0.062486 -0.082543 0.810000 14203331
-0.062640 -0.078107 0.812000 14597578
-0.062640 -0.073467 0.812000 14465997
-0.062794 -0.068996 0.814000 14601428
-0.063026 -0.064582 0.817000 14864862
-0.060792 -0.086956 0.808000 13278366
-0.060792 -0.082339 0.808000 13606305
-0.061470 -0.064582 0.817000 14401737
-0.059253 -0.086956 0.808000 13213089
-0.140339 -0.119326 0.788000 13215151
-0.139014 -0.128494 0.789000 11702169
-0.138486 -0.123514 0.786000 11895948
-0.139014 -0.119477 0.789000 13279130
-0.139367 -0.115260 0.791000 13674666
-0.137860 -0.133340 0.791000 11046029
-0.136989 -0.128006 0.786000 10713224
-0.136640 -0.123200 0.784000 10450808
-0.136989 -0.119023 0.786000 11899012
-0.137860 -0.115260 0.791000 12688810
-0.136353 -0.133340 0.791000 10522798
-0.135147 -0.127680 0.784000 9730441
-0.135147 -0.123200 0.784000 9074555
-0.135491 -0.119023 0.786000 10450814
-0.136353 -0.115260 0.791000 11700107
-0.137560 -0.107160 0.798000 12950154
-0.137560 -0.102600 0.798000 13606044
-0.136040 -0.139080 0.798000 13423596
-0.134847 -0.133340 0.791000 11314638
-0.133653 -0.127680 0.784000 9861770
-0.133312 -0.122886 0.782000 9204349
-0.133653 -0.118720 0.784000 9660024
-0.134506 -0.114969 0.789000 10251883
-0.134847 -0.110740 0.791000 10111831
-0.135870 -0.107026 0.797000 10578786
-0.136040 -0.102600 0.798000 11632774
-0.136381 -0.098286 0.800000 12227726
-0.136381 -0.093714 0.800000 12358045
-0.136722 -0.089366 0.802000 12820648
-0.135531 -0.144720 0.804000 13681618
-0.134520 -0.139080 0.798000 14077156
-0.133003 -0.133003 0.789000 12107736
-0.131486 -0.127029 0.780000 9993365
-0.131317 -0.122414 0.779000 9399415
-0.131317 -0.117963 0.779000 8875127
-0.133003 -0.114969 0.789000 8810093
-0.132834 -0.110320 0.788000 8278112
