# .PCD v.7 - Point Cloud Data file format
VERSION .7
FIELDS x y z rgb
SIZE 4 4 4 4
TYPE F F F I
COUNT 1 1 1 1
WIDTH 1265
HEIGHT 1
POINTS 1265
DATA ascii
-0.098690 -0.043424 0.829000 11771322
-0.098929 -0.038780 0.831000 10781855
-0.099405 -0.034195 0.835000 10377073
-0.099405 -0.029424 0.835000 10579831
-0.099881 -0.024770 0.839000 10578046
-0.100119 -0.020024 0.841000 11772860
-0.100357 -0.015254 0.843000 11441322
-0.100952 -0.010499 0.848000 11638956
-0.100952 -0.005653 0.848000 11442344
-0.101429 -0.000811 0.852000 11376041
-0.101667 0.004067 0.854000 11306894
-0.101905 0.008968 0.856000 9791331
-0.102143 0.013891 0.858000 10981786
-0.102266 -0.075660 0.873000 13283532
-0.099806 -0.068971 0.852000 12685733
-0.098517 -0.063275 0.841000 14011105
-0.097111 -0.057635 0.829000 13683178
-0.096643 -0.052643 0.825000 12760274
-0.096877 -0.048045 0.827000 12299465
-0.097111 -0.043424 0.829000 12034750
-0.097346 -0.038780 0.831000 10906537
-0.097580 -0.034113 0.833000 10443631
-0.097814 -0.029424 0.835000 10315909
-0.098283 -0.024770 0.839000 9900381
-0.098283 -0.019976 0.839000 12166593
-0.098517 -0.015218 0.841000 11970236
-0.098986 -0.010462 0.845000 11836853
-0.099337 -0.005653 0.848000 11705516
-0.099571 -0.000810 0.850000 11573938
-0.100040 0.004067 0.854000 11106694
-0.100274 0.008968 0.856000 9722931
-0.100509 0.013891 0.858000 11244196
-0.097952 -0.068810 0.850000 12951209
-0.096685 -0.063125 0.839000 13946595
-0.095532 -0.057635 0.829000 13815786
-0.095071 -0.052643 0.825000 13022677
-0.095302 -0.048045 0.827000 12563162
-0.095532 -0.043424 0.829000 12298435
-0.095763 -0.038780 0.831000 11033254
-0.095993 -0.034113 0.833000 10513541
-0.096224 -0.029424 0.835000 10120569
-0.096685 -0.024770 0.839000 9193855
-0.096685 -0.019976 0.839000 12627650
-0.096915 -0.015218 0.841000 12428993
-0.097376 -0.010462 0.845000 12099516
-0.097722 -0.005653 0.848000 11967664
-0.097952 -0.000810 0.850000 11706295
-0.098183 0.004057 0.852000 10912157
-0.098644 0.008968 0.856000 9709421
-0.097013 -0.074187 0.856000 12821707
-0.096560 -0.068971 0.852000 12885420
-0.095087 -0.063125 0.839000 14010341
-0.093727 -0.057496 0.827000 13945834
-0.093500 -0.052643 0.825000 13220056
-0.093727 -0.048045 0.827000 12762603
-0.093953 -0.043424 0.829000 12628423
-0.094180 -0.038780 0.831000 11035811
-0.094633 -0.034195 0.835000 11836315
-0.094860 -0.029494 0.837000 10054252
-0.095087 -0.024770 0.839000 10111650
-0.095087 -0.019976 0.839000 12759234
-0.095313 -0.015218 0.841000 12560326
-0.095767 -0.010462 0.845000 12298434
-0.096107 -0.005653 0.848000 10588339
-0.096333 -0.000810 0.850000 11969211
-0.096560 0.004057 0.852000 11443892
-0.097013 0.008968 0.856000 10842790
-0.097013 0.013859 0.856000 11704498
-0.098280 -0.081480 0.882000 13752285
-0.095383 -0.074187 0.856000 12624065
-0.094937 -0.068971 0.852000 12879026
-0.093489 -0.063125 0.839000 14011366
-0.092151 -0.057496 0.827000 14077929
-0.091929 -0.052643 0.825000 13351642
-0.092151 -0.048045 0.827000 12964325
-0.092374 -0.043424 0.829000 12890575
-0.092597 -0.038780 0.831000 11037628
-0.092820 -0.034113 0.833000 13082534
-0.093043 -0.029424 0.835000 10050948
-0.093489 -0.024770 0.839000 11048636
-0.093489 -0.019976 0.839000 12955850
-0.093711 -0.015218 0.841000 12627145
-0.094157 -0.010462 0.845000 12563143
-0.094491 -0.005653 0.848000 9142674
-0.094714 -0.000810 0.850000 12167105
-0.094937 0.004057 0.852000 11968955
-0.095160 0.008947 0.854000 11971766
-0.095383 0.013859 0.856000 11902900
-0.096381 -0.081295 0.880000 13815006
-0.093314 -0.068971 0.852000 12819639
-0.091890 -0.063125 0.839000 14338280
-0.090576 -0.057496 0.827000 14143720
-0.090357 -0.052643 0.825000 13549275
-0.090795 -0.048161 0.829000 13222622
-0.091014 -0.043529 0.831000 13154007
-0.091014 -0.038780 0.831000 12167892
-0.091233 -0.034113 0.833000 11511986
-0.091452 -0.029424 0.835000 10646427
-0.091890 -0.024770 0.839000 12569815
-0.091890 -0.019976 0.839000 12759249
-0.092110 -0.015218 0.841000 12890828
-0.092548 -0.010462 0.845000 12429004
-0.092876 -0.005653 0.848000 9198706
-0.093095 -0.000810 0.850000 12101830
-0.093095 0.004048 0.850000 12429762
-0.093533 0.008947 0.854000 12233158
-0.094490 -0.081110 0.878000 13884384
-0.091261 -0.068648 0.848000 12829645
-0.090077 -0.062974 0.837000 14669031
-0.089001 -0.057496 0.827000 14276069
-0.089001 -0.052770 0.827000 13746655
-0.089216 -0.048161 0.829000 13551576
-0.089431 -0.043529 0.831000 13351385
-0.089647 -0.038873 0.833000 13292495
-0.089862 -0.034195 0.835000 9868470
-0.090077 -0.029494 0.837000 11304379
-0.090077 -0.024711 0.837000 14073547
-0.090292 -0.019976 0.839000 12494504
-0.090508 -0.015218 0.841000 13088721
-0.090938 -0.010462 0.845000 12366547
-0.091261 -0.005653 0.848000 9192586
-0.091476 -0.000810 0.850000 12036552
-0.091476 0.004048 0.850000 12823750
-0.091907 0.008947 0.854000 12495302
-0.092817 -0.081110 0.878000 13880802
-0.092500 -0.075833 0.875000 11369665
-0.089646 -0.068648 0.848000 13486050
-0.088060 -0.062673 0.833000 14932199
-0.087426 -0.057496 0.827000 14274529
-0.087426 -0.052770 0.827000 13878499
-0.087637 -0.048161 0.829000 13417169
-0.087849 -0.043529 0.831000 13548764
-0.088060 -0.038873 0.833000 12825546
-0.088060 -0.034113 0.833000 11643835
-0.088483 -0.029494 0.837000 12627162
-0.088694 -0.024770 0.839000 11703232
-0.088906 -0.020024 0.841000 11960959
-0.088906 -0.015218 0.841000 13351638
-0.089117 -0.010437 0.843000 12693209
-0.089646 -0.005653 0.848000 10560675
-0.089857 -0.000810 0.850000 12562377
-0.089857 0.004048 0.850000 13021898
-0.090069 0.008926 0.852000 12626630
-0.090833 -0.080833 0.875000 13880548
-0.090833 -0.075833 0.875000 11637191
-0.088030 -0.068648 0.848000 14146530
-0.086266 -0.062523 0.831000 15129320
-0.085850 -0.057496 0.827000 14273766
-0.086058 -0.052898 0.829000 14010598
-0.086266 -0.048277 0.831000 13281236
-0.086266 -0.043529 0.831000 13747677
-0.086473 -0.038873 0.833000 12361424
-0.086681 -0.034195 0.835000 13416903
-0.086889 -0.029494 0.837000 13948638
-0.087096 -0.024770 0.839000 9339580
-0.087304 -0.020024 0.841000 11426677
-0.087304 -0.015218 0.841000 13550548
-0.087719 -0.010462 0.845000 13026012
-0.088030 -0.005653 0.848000 11897538
-0.088238 -0.000810 0.850000 13093583
-0.088446 0.004057 0.852000 13153482
-0.088653 0.008947 0.854000 12756650
-0.088963 -0.080649 0.873000 13879782
-0.088963 -0.075660 0.873000 12552398
-0.086415 -0.068648 0.848000 14012130
-0.084275 -0.062222 0.827000 15393512
-0.084275 -0.057496 0.827000 14405354
-0.084479 -0.052898 0.829000 14208233
-0.084683 -0.048277 0.831000 13350358
-0.084683 -0.043529 0.831000 14011871
-0.084887 -0.038873 0.833000 12627413
-0.085090 -0.034195 0.835000 13811156
-0.085294 -0.029494 0.837000 14012386
-0.085498 -0.024770 0.839000 11042744
-0.085702 -0.020024 0.841000 11495531
-0.085702 -0.015218 0.841000 13879249
-0.086110 -0.010462 0.845000 13484511
-0.086415 -0.005653 0.848000 12959968
-0.086619 -0.000810 0.850000 13353428
-0.086619 0.004048 0.850000 11575498
-0.086823 0.008926 0.852000 11895182
-0.087300 -0.080649 0.873000 13880293
-0.087300 -0.075660 0.873000 13480663
-0.085000 -0.068810 0.850000 13945055
-0.083100 -0.062523 0.831000 15589357
-0.082900 -0.057635 0.829000 14537196
-0.082900 -0.052898 0.829000 14405355
-0.083100 -0.048277 0.831000 13417691
-0.083300 -0.043633 0.833000 14273762
-0.083300 -0.038873 0.833000 12957909
-0.083500 -0.034195 0.835000 14139360
-0.083900 -0.029565 0.839000 14142182
-0.083900 -0.024770 0.839000 12752845
-0.084100 -0.020024 0.841000 11561895
-0.084100 -0.015218 0.841000 14142172
-0.084500 -0.010462 0.845000 13944032
-0.084800 -0.005653 0.848000 14010081
-0.085000 -0.000810 0.850000 13549784
-0.085000 0.004048 0.850000 9932741
-0.085200 0.008926 0.852000 11034763
-0.085441 -0.080464 0.871000 13945571
-0.085637 -0.075660 0.873000 13748449
-0.083381 -0.068810 0.850000 13944796
-0.081517 -0.062523 0.831000 15788787
-0.081321 -0.057635 0.829000 14668781
-0.081517 -0.053026 0.831000 14472174
-0.081517 -0.048277 0.831000 13614047
-0.081713 -0.043633 0.833000 14669542
-0.081713 -0.038873 0.833000 13022420
-0.081910 -0.034195 0.835000 14471403
-0.082302 -0.029565 0.839000 14274281
-0.082302 -0.024770 0.839000 13609954
-0.082498 -0.020024 0.841000 13152482
-0.082694 -0.015254 0.843000 14208231
-0.082890 -0.010462 0.845000 14010081
-0.083185 -0.005653 0.848000 14010338
-0.083381 -0.000810 0.850000 13747675
-0.083381 0.004048 0.850000 11637696
-0.083577 0.008926 0.852000 11629192
-0.083782 -0.080464 0.871000 14010852
-0.083974 -0.075660 0.873000 13945056
-0.079934 -0.062523 0.831000 15919093
-0.079934 -0.057774 0.831000 14800110
-0.079934 -0.053026 0.831000 14471663
-0.079934 -0.048277 0.831000 13744866
-0.080127 -0.043633 0.833000 14995944
-0.080319 -0.038967 0.835000 13154782
-0.080511 -0.034277 0.837000 14800364
-0.080704 -0.029565 0.839000 14471403
-0.080896 -0.024830 0.841000 14470121
-0.080896 -0.020024 0.841000 14799850
-0.081089 -0.015254 0.843000 14208488
-0.081281 -0.010462 0.845000 14076133
-0.081570 -0.005653 0.848000 14011109
-0.081762 -0.000810 0.850000 14010843
-0.081762 0.004048 0.850000 13281490
-0.081954 0.008926 0.852000 12289724
-0.081934 -0.080279 0.869000 14010596
-0.082123 -0.075487 0.871000 13944800
-0.078163 -0.067110 0.829000 14338009
-0.078351 -0.062523 0.831000 15789047
-0.078351 -0.057774 0.831000 14932207
-0.078351 -0.053026 0.831000 14602481
-0.078540 -0.048393 0.833000 14009829
-0.078540 -0.043633 0.833000 14800363
-0.078917 -0.039060 0.837000 13748199
-0.079106 -0.034359 0.839000 14800620
-0.079106 -0.029565 0.839000 14668781
-0.079294 -0.024830 0.841000 14602736
-0.079483 -0.020071 0.843000 14734321
-0.079671 -0.015290 0.845000 14405354
-0.079954 -0.010499 0.848000 14273768
-0.079954 -0.005653 0.848000 14143464
-0.080143 -0.000810 0.850000 13418458
-0.080143 0.004048 0.850000 13878244
-0.080331 0.008926 0.852000 13482480
-0.080279 -0.080279 0.869000 14011363
-0.080464 -0.075487 0.871000 13944799
-0.076953 -0.067433 0.833000 14730458
-0.076953 -0.062673 0.833000 15658231
-0.076769 -0.057774 0.831000 15063536
-0.076769 -0.053026 0.831000 14735346
-0.076953 -0.048393 0.833000 14274022
-0.076953 -0.043633 0.833000 14604015
-0.077323 -0.039060 0.837000 14339554
-0.077508 -0.034359 0.839000 14800879
-0.077692 -0.029635 0.841000 14866159
-0.077692 -0.024830 0.841000 14734832
-0.077877 -0.020071 0.843000 14603249
-0.078062 -0.015290 0.845000 14537197
-0.078339 -0.010499 0.848000 14471404
-0.078524 -0.005667 0.850000 14202065
-0.078524 -0.000810 0.850000 12887984
-0.078524 0.004048 0.850000 14470889
-0.078709 0.008926 0.852000 14606062
-0.078262 -0.079910 0.865000 13945058
-0.077810 -0.074533 0.860000 13945055
-0.076452 -0.068405 0.845000 14733531
-0.075367 -0.062673 0.833000 15525623
-0.075186 -0.057774 0.831000 15129585
-0.075186 -0.053026 0.831000 14868211
-0.075367 -0.048393 0.833000 14536678
-0.075548 -0.043738 0.835000 14801396
-0.075729 -0.039060 0.837000 14536413
-0.075910 -0.034359 0.839000 14998771
-0.076090 -0.029635 0.841000 14998001
-0.076271 -0.024889 0.843000 14866673
-0.076271 -0.020071 0.843000 14735089
-0.076452 -0.015290 0.845000 14734576
-0.076724 -0.010499 0.848000 14668527
-0.076905 -0.005667 0.850000 13137849
-0.076905 -0.000810 0.850000 12948358
-0.076905 0.004048 0.850000 14536942
-0.077086 0.008926 0.852000 14537195
-0.076791 -0.080094 0.867000 13945312
-0.076614 -0.074967 0.865000 13944541
-0.074843 -0.068405 0.845000 14798310
-0.073780 -0.062673 0.833000 15328501
-0.073780 -0.057913 0.833000 15129329
-0.073780 -0.053153 0.833000 14998514
-0.073780 -0.048393 0.833000 14863592
-0.074134 -0.043843 0.837000 14999540
-0.074311 -0.039153 0.839000 14796514
-0.074311 -0.034359 0.839000 15196407
-0.074489 -0.029635 0.841000 15195378
-0.074666 -0.024889 0.843000 14998259
-0.074666 -0.020071 0.843000 14932469
-0.074843 -0.015290 0.845000 14866929
-0.075109 -0.010499 0.848000 14931440
-0.075286 -0.005667 0.850000 12031675
-0.075286 -0.000810 0.850000 12954289
-0.075463 0.004057 0.852000 14603248
-0.075640 0.008947 0.854000 14471149
-0.075140 -0.080094 0.867000 13879517
-0.074967 -0.074967 0.865000 13813212
-0.073060 -0.068243 0.843000 15064049
-0.072193 -0.062673 0.833000 15194867
-0.072193 -0.057913 0.833000 14998001
-0.072193 -0.053153 0.833000 14998514
-0.072367 -0.048510 0.835000 14733545
-0.072540 -0.043843 0.837000 15065332
-0.072713 -0.039153 0.839000 14668263
-0.072887 -0.034441 0.841000 15329019
-0.073060 -0.029706 0.843000 15392755
-0.073233 -0.024948 0.845000 15327221
-0.073233 -0.020119 0.845000 15130873
-0.073493 -0.015345 0.848000 15130099
-0.073667 -0.010524 0.850000 15129073
-0.073667 -0.005667 0.850000 12099006
-0.073667 -0.000810 0.850000 13876444
-0.073840 0.004057 0.852000 14734321
-0.074013 0.008947 0.854000 14668783
-0.073489 -0.080094 0.867000 13881814
-0.073319 -0.074967 0.865000 13681628
-0.070946 -0.067757 0.837000 15265784
-0.070776 -0.062824 0.835000 14998513
-0.070607 -0.057913 0.833000 14932209
-0.070776 -0.053281 0.835000 14997744
-0.070946 -0.048626 0.837000 14666221
-0.071115 -0.043948 0.839000 15128554
-0.071285 -0.039247 0.841000 14540782
-0.071285 -0.034441 0.841000 15385315
-0.071454 -0.029706 0.843000 15590134
-0.071624 -0.024948 0.845000 15590388
-0.071878 -0.020190 0.848000 15393230
-0.071878 -0.015345 0.848000 15327470
-0.072048 -0.010524 0.850000 15326962
-0.072048 -0.005667 0.850000 12106713
-0.072048 -0.000810 0.850000 14872299
-0.072387 0.004067 0.854000 14866417
-0.072556 0.008968 0.856000 14865904
-0.071837 -0.080094 0.867000 13746895
-0.069020 -0.072193 0.833000 13614813
-0.069517 -0.067919 0.839000 15461630
-0.069186 -0.062824 0.835000 14932208
-0.069020 -0.057913 0.833000 14866417
-0.069186 -0.053281 0.835000 14799854
-0.069351 -0.048626 0.837000 14865648
-0.069683 -0.044052 0.841000 14208992
-0.069849 -0.039340 0.843000 14140661
-0.069849 -0.034523 0.843000 13197770
-0.070014 -0.029776 0.845000 15261945
-0.070263 -0.025036 0.848000 15391986
-0.070263 -0.020190 0.848000 13735331
-0.070429 -0.015381 0.850000 15656681
-0.070594 -0.010549 0.852000 15393011
-0.070594 -0.005680 0.852000 13882613
-0.070594 -0.000811 0.852000 15131641
-0.070760 0.004067 0.854000 15063793
-0.070926 0.008968 0.856000 14931697
-0.070024 -0.079910 0.865000 13548748
-0.067433 -0.072193 0.833000 13487331
-0.067919 -0.067919 0.839000 15725049
-0.067757 -0.062974 0.837000 14866416
-0.067757 -0.058191 0.837000 14800369
-0.067757 -0.053409 0.837000 14602478
-0.067919 -0.048742 0.839000 15130354
-0.068081 -0.044052 0.841000 13285857
-0.068243 -0.039340 0.843000 13815800
-0.068243 -0.034523 0.843000 11037394
-0.068405 -0.029776 0.845000 14936312
-0.068648 -0.025036 0.848000 15194099
-0.068810 -0.020238 0.850000 12137400
-0.068810 -0.015381 0.850000 15982312
-0.068971 -0.010549 0.852000 15524082
-0.069133 -0.005693 0.854000 15589363
-0.069133 -0.000813 0.854000 15458806
-0.069295 0.004076 0.856000 15261683
-0.069295 0.008968 0.856000 14998514
-0.068376 -0.079910 0.865000 13481673
-0.065847 -0.072193 0.833000 14737896
-0.066321 -0.067919 0.839000 15525620
-0.066321 -0.063125 0.839000 14865393
-0.066163 -0.058191 0.837000 14735345
-0.066321 -0.053536 0.839000 14535663
-0.066321 -0.048742 0.839000 15130356
-0.066479 -0.044052 0.841000 13015011
-0.066637 -0.039340 0.843000 14471674
-0.066637 -0.034523 0.843000 11891161
-0.066795 -0.029776 0.845000 14933239
-0.067032 -0.025036 0.848000 15261683
-0.067032 -0.020190 0.848000 12546508
-0.067032 -0.015345 0.848000 15786471
-0.067349 -0.010549 0.852000 15458545
-0.067349 -0.005680 0.852000 15459058
-0.067507 -0.000813 0.854000 15458803
-0.067507 0.004067 0.854000 15656181
-0.067665 0.008968 0.856000 15327219
-0.066497 -0.079632 0.862000 13482674
-0.066034 -0.074187 0.856000 15983858
-0.065031 -0.068243 0.843000 15327732
-0.064877 -0.063275 0.841000 14800626
-0.064723 -0.058330 0.839000 14736114
-0.064877 -0.053664 0.841000 14470637
-0.065186 -0.049090 0.845000 15196152
-0.065186 -0.044262 0.845000 12757471
-0.065186 -0.039433 0.845000 15135226
-0.065186 -0.034605 0.845000 12762857
-0.065417 -0.029882 0.848000 15001589
-0.065417 -0.025036 0.848000 15326707
-0.065417 -0.020190 0.848000 12935899
-0.065571 -0.015381 0.850000 15589871
-0.065880 -0.010573 0.854000 15392756
-0.065880 -0.005693 0.854000 15326962
-0.065880 -0.000813 0.854000 15524083
-0.065880 0.004067 0.854000 16050420
-0.066034 0.008968 0.856000 15656433
-0.064855 -0.079632 0.862000 13349275
-0.064404 -0.074187 0.856000 15524348
-0.063426 -0.068243 0.843000 15195379
-0.063275 -0.063275 0.841000 14866675
-0.063275 -0.058470 0.841000 14670067
-0.063426 -0.053791 0.843000 14667756
-0.063576 -0.049090 0.845000 15394299
-0.063576 -0.044262 0.845000 12814812
-0.063802 -0.039573 0.848000 15131898
-0.063576 -0.034605 0.845000 14085112
-0.063802 -0.029882 0.848000 15130866
-0.063952 -0.025095 0.850000 15260916
-0.063952 -0.020238 0.850000 14137834
-0.064253 -0.015453 0.854000 15392759
-0.064253 -0.010573 0.854000 14999031
-0.064253 -0.005693 0.854000 15391219
-0.064253 -0.000813 0.854000 15327475
-0.064404 0.004076 0.856000 15002355
-0.063213 -0.079632 0.862000 13214616
-0.062773 -0.074187 0.856000 14995678
-0.061967 -0.068405 0.845000 15129316
-0.061820 -0.063426 0.843000 14865643
-0.061820 -0.058609 0.843000 14604526
-0.061820 -0.053791 0.843000 14799851
-0.062187 -0.049265 0.848000 15656686
-0.062187 -0.044419 0.848000 12884934
-0.062187 -0.039573 0.848000 15065594
-0.062333 -0.034810 0.850000 15327733
-0.062480 -0.030023 0.852000 15261428
-0.062480 -0.025154 0.852000 15129844
-0.062480 -0.020286 0.852000 15393519
-0.062627 -0.015453 0.854000 15195892
-0.062773 -0.010598 0.856000 14602471
-0.062773 -0.005707 0.856000 15457515
-0.062773 -0.000815 0.856000 15195891
-0.062773 0.004076 0.856000 13940964
-0.061143 -0.074187 0.856000 14072769
-0.060357 -0.068405 0.845000 14140373
-0.060357 -0.063576 0.845000 14403299
-0.060214 -0.058609 0.843000 14405352
-0.060357 -0.053919 0.845000 14338026
-0.060571 -0.049265 0.848000 13673953
-0.060571 -0.044419 0.848000 12222641
-0.060714 -0.039667 0.850000 14867705
-0.060714 -0.034810 0.850000 15063027
-0.061000 -0.030093 0.854000 14275318
-0.061000 -0.025213 0.854000 15129844
-0.061000 -0.020333 0.854000 15195636
-0.061000 -0.015453 0.854000 15128817
-0.061143 -0.010598 0.856000 13412310
-0.061143 -0.005707 0.856000 15590116
-0.061143 -0.000815 0.856000 15128562
-0.061143 0.004076 0.856000 13341654
-0.058748 -0.068405 0.845000 13215930
-0.058748 -0.063576 0.845000 13876679
-0.058748 -0.058748 0.845000 14270154
-0.058956 -0.054110 0.848000 13870794
-0.059234 -0.049497 0.852000 11693770
-0.059095 -0.044524 0.850000 11503790
-0.059095 -0.039667 0.850000 14737901
-0.059234 -0.034891 0.852000 14734062
-0.059512 -0.030164 0.856000 13348323
-0.059512 -0.025272 0.856000 15128554
-0.059512 -0.020381 0.856000 14998259
-0.059512 -0.015490 0.856000 14995440
-0.059512 -0.010598 0.856000 12240590
-0.059651 -0.005720 0.858000 15720686
-0.059651 -0.000817 0.858000 15064562
-0.059790 0.004095 0.860000 12696295
-0.057138 -0.063576 0.845000 13544876
-0.057138 -0.058748 0.845000 13608619
-0.057476 -0.054238 0.850000 13472169
-0.057611 -0.049497 0.852000 12487346
-0.057476 -0.044524 0.850000 12158380
-0.057476 -0.039667 0.850000 14537185
-0.057747 -0.034973 0.854000 14799338
-0.058017 -0.030234 0.858000 13406927
-0.058017 -0.025331 0.858000 15261665
-0.058017 -0.020429 0.858000 14997745
-0.058017 -0.015526 0.858000 14997744
-0.058017 -0.010623 0.858000 13682117
-0.058152 -0.005733 0.860000 15590136
-0.058288 -0.000821 0.862000 15261170
-0.058490 0.004119 0.865000 14277623
-0.056120 -0.054493 0.854000 13017003
-0.056120 -0.049613 0.854000 13277870
-0.055857 -0.044524 0.850000 12753836
-0.055989 -0.039760 0.852000 14338763
-0.056120 -0.034973 0.854000 14797014
-0.056514 -0.030305 0.860000 13550300
-0.056514 -0.025390 0.860000 15391201
-0.056514 -0.020476 0.860000 15063027
-0.056646 -0.015598 0.862000 14932211
-0.056843 -0.010710 0.865000 15196895
-0.056974 -0.005780 0.867000 15389669
-0.056646 -0.000821 0.862000 15458293
-0.054366 -0.054366 0.852000 13214892
-0.054366 -0.049497 0.852000 13411753
-0.054110 -0.044419 0.848000 13084333
-0.054366 -0.039760 0.852000 13874357
-0.054493 -0.034973 0.854000 14269891
-0.054876 -0.030305 0.860000 13616104
-0.054876 -0.025390 0.860000 14338786
-0.055004 -0.020524 0.862000 14864628
-0.055450 -0.015725 0.869000 14998774
-0.055450 -0.010759 0.869000 14735608
-0.055450 -0.005793 0.869000 14394834
-0.055450 -0.000828 0.869000 15195639
-0.052743 -0.054366 0.852000 13412011
-0.052619 -0.049381 0.850000 13543850
-0.052495 -0.044419 0.848000 13347246
-0.053238 -0.030305 0.860000 13743556
-0.053238 -0.025390 0.860000 13218755
-0.053548 -0.020595 0.865000 14664913
-0.053795 -0.015725 0.869000 14995934
-0.053795 -0.010759 0.869000 14342120
-0.053795 -0.005793 0.869000 13410517
-0.053795 -0.000828 0.869000 15000563
-0.051000 -0.049381 0.850000 13543595
-0.051600 -0.030305 0.860000 13674400
-0.051480 -0.025331 0.858000 13409956
-0.051900 -0.020595 0.865000 13938349
-0.052260 -0.015761 0.871000 14137543
-0.052140 -0.010759 0.869000 14075095
-0.052140 -0.005793 0.869000 13944280
-0.052260 -0.000830 0.871000 14537710
-0.049962 -0.030305 0.860000 13608102
-0.049730 -0.025272 0.856000 13607592
-0.050078 -0.020524 0.862000 13150123
-0.050601 -0.015761 0.871000 13281459
-0.050485 -0.010759 0.869000 13809341
-0.050601 -0.005807 0.871000 14401218
-0.050717 -0.000831 0.873000 14006985
-0.048099 -0.025272 0.856000 13543083
-0.048436 -0.020524 0.862000 13149609
-0.048942 -0.015761 0.871000 13278111
-0.048830 -0.010759 0.869000 13477539
-0.048942 -0.005807 0.871000 13738668
-0.049054 -0.000831 0.873000 13541540
-0.133886 -0.057611 0.852000 13147803
-0.133257 -0.052495 0.848000 13280906
-0.132573 -0.062627 0.854000 11967394
-0.132263 -0.057611 0.852000 11502989
-0.131176 -0.052310 0.845000 11569003
-0.131642 -0.047650 0.848000 13149607
-0.132263 -0.043006 0.852000 13412015
-0.131253 -0.062773 0.856000 11314626
-0.130333 -0.057476 0.850000 9863311
-0.129567 -0.052310 0.845000 9791342
-0.129567 -0.047481 0.845000 13210766
-0.130640 -0.043006 0.852000 13609369
-0.130986 -0.068376 0.865000 13686230
-0.129623 -0.062773 0.856000 12236514
-0.128714 -0.057476 0.850000 9863058
-0.127654 -0.052186 0.843000 9727856
-0.127957 -0.047481 0.845000 11173492
-0.128714 -0.042905 0.850000 12358787
-0.129017 -0.038137 0.852000 12953760
-0.129338 -0.068376 0.865000 14733534
-0.128291 -0.062920 0.858000 13224932
-0.126796 -0.057341 0.848000 9863583
-0.126049 -0.052186 0.843000 9598331
-0.126049 -0.047369 0.843000 9074549
-0.126796 -0.042804 0.848000 11172473
-0.127394 -0.038137 0.852000 12094346
-0.127693 -0.033347 0.854000 13411217
-0.128576 -0.073828 0.871000 12888214
-0.127690 -0.068376 0.865000 14272743
-0.126657 -0.062920 0.858000 13486310
-0.124738 -0.057138 0.845000 9862572
-0.124148 -0.052062 0.841000 9664389
-0.124443 -0.047369 0.843000 9140342
-0.124738 -0.042652 0.845000 10253422
-0.125476 -0.038048 0.850000 10381939
-0.125771 -0.033269 0.852000 11569527
-0.126067 -0.028467 0.854000 12425872
-0.126657 -0.023697 0.858000 12951964
-0.126952 -0.018838 0.860000 13346985
-0.126952 -0.013924 0.860000 13740712
-0.126626 -0.073658 0.869000 13217976
-0.126043 -0.068376 0.865000 13813985
-0.124731 -0.062773 0.856000 13814245
-0.122546 -0.056868 0.841000 9865399
-0.122546 -0.052062 0.841000 9730181
-0.122546 -0.047256 0.841000 9205885
-0.122837 -0.042551 0.843000 9336949
-0.123566 -0.037958 0.848000 8678256
-0.124149 -0.033269 0.852000 9730680
-0.124149 -0.028400 0.852000 11041663
-0.124731 -0.023642 0.856000 12228229
-0.125314 -0.018838 0.860000 13344656
-0.125314 -0.013924 0.860000 13873563
-0.127937 0.005853 0.878000 12360332
-0.124970 -0.073658 0.869000 13549017
-0.124683 -0.068534 0.867000 13813467
-0.123101 -0.062773 0.856000 13880292
-0.120656 -0.056732 0.839000 10126786
-0.120081 -0.051690 0.835000 9862276
-0.120944 -0.047256 0.841000 9468549
-0.121231 -0.042551 0.843000 9599868
-0.121519 -0.037824 0.845000 9005165
-0.122238 -0.033190 0.850000 9334137
-0.122526 -0.028400 0.852000 9591919
-0.122813 -0.023587 0.854000 10715246
-0.123389 -0.018794 0.858000 11241336
-0.123676 -0.013924 0.860000 12227469
-0.123676 -0.009010 0.860000 12822166
-0.126265 0.005853 0.878000 12294282
-0.123315 -0.073658 0.869000 13948383
-0.122748 -0.068376 0.865000 13747676
-0.119910 -0.061967 0.845000 14011107
-0.118490 -0.056462 0.835000 10393283
-0.118490 -0.051690 0.835000 10059142
-0.118774 -0.047031 0.837000 9666184
-0.119342 -0.042450 0.841000 9862528
-0.119626 -0.037734 0.843000 9269624
-0.120619 -0.033190 0.850000 8940920
-0.120903 -0.028400 0.852000 8085073
-0.120903 -0.023531 0.852000 9272186
-0.121470 -0.018750 0.856000 9071976
-0.121754 -0.013891 0.858000 10578759
-0.122038 -0.009010 0.860000 12028037
-0.122322 -0.004105 0.862000 12686731
-0.123599 0.000830 0.871000 13016461
-0.124167 0.005833 0.875000 12294282
-0.124167 0.010833 0.875000 11701378
-0.122220 -0.078986 0.873000 11371940
-0.121940 -0.073828 0.871000 14011364
-0.121100 -0.068376 0.865000 13813213
-0.118020 -0.061820 0.843000 14076641
-0.116900 -0.056462 0.835000 10918596
-0.116620 -0.051567 0.833000 10125704
-0.116900 -0.046919 0.835000 9863563
-0.117460 -0.042350 0.839000 9928324
-0.117740 -0.037645 0.841000 9533059
-0.118300 -0.032995 0.845000 9203062
-0.119000 -0.028333 0.850000 8414515
-0.119280 -0.023531 0.852000 9336454
-0.119840 -0.018750 0.856000 9198424
-0.120120 -0.013891 0.858000 9854209
-0.120400 -0.009010 0.860000 10776181
-0.120680 -0.004105 0.862000 11239027
-0.121660 0.000828 0.869000 11701371
-0.122220 0.005820 0.873000 11570570
-0.122500 0.010833 0.875000 11439230
-0.121800 -0.079800 0.882000 11570089
-0.120557 -0.073997 0.873000 14077155
-0.119452 -0.068376 0.865000 13813214
-0.116414 -0.061820 0.843000 14141666
-0.115310 -0.056462 0.835000 11378888
-0.115033 -0.051567 0.833000 10192015
-0.115310 -0.046919 0.835000 9994895
-0.115586 -0.042249 0.837000 10059400
-0.115862 -0.037555 0.839000 9797508
-0.116414 -0.032917 0.843000 9465713
-0.117105 -0.028267 0.848000 8744287
-0.117381 -0.023476 0.850000 9405063
-0.117933 -0.018707 0.854000 9268854
-0.118486 -0.013891 0.858000 9069099
-0.118762 -0.009010 0.860000 9467515
-0.119038 -0.004105 0.862000 9861756
-0.119729 0.000826 0.867000 10322302
-0.120281 0.005807 0.871000 10848393
-0.120557 0.010809 0.873000 11110015
-0.120120 -0.079800 0.882000 11959727
-0.118894 -0.073997 0.873000 14076129
-0.117805 -0.068376 0.865000 13813216
-0.114809 -0.061820 0.843000 14076387
-0.113719 -0.056462 0.835000 11510732
-0.113447 -0.051567 0.833000 10389397
-0.113719 -0.046919 0.835000 10192532
-0.113991 -0.042249 0.837000 10191244
-0.114264 -0.037555 0.839000 10456453
-0.114809 -0.032917 0.843000 9662572
-0.115490 -0.028267 0.848000 9733515
-0.115490 -0.023421 0.848000 9929352
-0.116034 -0.018663 0.852000 9731731
-0.116851 -0.013891 0.858000 9529429
-0.117124 -0.009010 0.860000 9797250
-0.117396 -0.004105 0.862000 10059909
-0.117805 0.000824 0.865000 10386050
-0.118350 0.005793 0.869000 10649224
-0.118622 0.010784 0.871000 10713728
-0.118440 -0.079800 0.882000 12362677
-0.117500 -0.074167 0.875000 14009309
-0.116157 -0.068376 0.865000 13813215
-0.112934 -0.061673 0.841000 14010336
-0.111860 -0.056327 0.833000 11642574
-0.111591 -0.051443 0.831000 10586777
-0.111591 -0.046694 0.831000 10389656
-0.111860 -0.042047 0.833000 10388111
-0.112397 -0.037466 0.837000 11111559
-0.112666 -0.032761 0.839000 9855062
-0.113203 -0.028100 0.843000 10717578
-0.113471 -0.023338 0.845000 10453900
-0.113874 -0.018575 0.848000 10125970
-0.114411 -0.013794 0.852000 10055027
-0.114680 -0.008947 0.854000 10125958
-0.115217 -0.004086 0.858000 10257539
-0.115754 0.000821 0.862000 10387586
-0.116426 0.005780 0.867000 10452102
-0.116963 0.010784 0.871000 10253695
-0.116760 -0.079800 0.882000 13152699
-0.115304 -0.073828 0.871000 13944281
-0.113848 -0.067981 0.860000 13682142
-0.111068 -0.061527 0.839000 14010844
-0.110009 -0.056191 0.831000 11839696
-0.109744 -0.051319 0.829000 10784413
-0.110009 -0.046694 0.831000 10587036
-0.110273 -0.042047 0.833000 10389138
-0.110538 -0.037376 0.835000 9997705
-0.111068 -0.032761 0.839000 9459008
-0.111332 -0.028033 0.841000 10783882
-0.111597 -0.023283 0.843000 10585487
-0.112259 -0.018575 0.848000 10520208
-0.112524 -0.013762 0.850000 10191504
-0.112789 -0.008926 0.852000 10257547
-0.113318 -0.004076 0.856000 9798017
-0.113583 0.000817 0.858000 10454402
-0.114112 0.005747 0.862000 10387588
-0.114774 0.010734 0.867000 9528190
-0.113645 -0.073828 0.871000 13879003
-0.111688 -0.067665 0.856000 13547984
-0.109730 -0.061673 0.841000 14010588
-0.108426 -0.056191 0.831000 11971537
-0.108165 -0.051319 0.829000 10982052
-0.108426 -0.046694 0.831000 10784670
-0.108687 -0.042047 0.833000 10389656
-0.108948 -0.037376 0.835000 8812417
-0.109470 -0.032761 0.839000 9062740
-0.109730 -0.028033 0.841000 10781575
-0.109991 -0.023283 0.843000 10651282
-0.110252 -0.018510 0.845000 10848144
-0.110905 -0.013762 0.850000 10390928
-0.111166 -0.008926 0.852000 10389134
-0.111427 -0.004067 0.854000 9340798
-0.111949 0.000817 0.858000 10449540
-0.112210 0.005733 0.860000 10322568
-0.112862 0.010710 0.865000 8742520
-0.112243 -0.073997 0.873000 13550044
-0.109800 -0.067507 0.854000 13473985
-0.108129 -0.061673 0.841000 14142171
-0.106843 -0.056191 0.831000 12101842
-0.106586 -0.051319 0.829000 11179690
-0.106843 -0.046694 0.831000 10917025
-0.107100 -0.042047 0.833000 9536670
-0.107357 -0.037376 0.835000 8477561
-0.107871 -0.032761 0.839000 9394791
-0.108129 -0.028033 0.841000 10653060
-0.108386 -0.023283 0.843000 10717588
-0.108386 -0.018466 0.843000 9733520
-0.109029 -0.013730 0.848000 10323599
-0.109286 -0.008905 0.850000 10586256
-0.109543 -0.004057 0.852000 9534331
-0.110057 0.000815 0.856000 10245510
-0.110314 0.005720 0.858000 10454155
-0.110829 0.010672 0.862000 9530482
-0.110833 -0.079167 0.875000 14074056
-0.110580 -0.073997 0.873000 13288671
-0.108173 -0.067507 0.854000 13346499
-0.106780 -0.061820 0.843000 14207195
-0.105007 -0.056056 0.829000 12168914
-0.104753 -0.051195 0.827000 11377071
-0.105260 -0.046694 0.831000 10982826
-0.105260 -0.041946 0.831000 8685221
-0.105513 -0.037287 0.833000 8151923
-0.106020 -0.032683 0.837000 9722725
-0.106527 -0.028033 0.841000 10451056
-0.106527 -0.023228 0.841000 10718875
-0.106780 -0.018466 0.843000 8610704
-0.107413 -0.013730 0.848000 10256512
-0.107667 -0.008905 0.850000 10783639
-0.107920 -0.004057 0.852000 9730190
-0.108427 0.000815 0.856000 9985680
-0.108680 0.005720 0.858000 10585232
-0.108933 0.010648 0.860000 10255232
-0.109167 -0.079167 0.875000 14275786
-0.108668 -0.073828 0.871000 13419233
-0.106547 -0.067507 0.854000 13479366
-0.104925 -0.061673 0.841000 14142427
-0.103178 -0.055921 0.827000 12364754
-0.103178 -0.051195 0.827000 11574708
-0.103428 -0.046582 0.829000 11179444
-0.103677 -0.041946 0.831000 9733803
-0.103927 -0.037287 0.833000 9134445
-0.104426 -0.032683 0.837000 9588579
-0.104925 -0.028033 0.841000 9198940
-0.104925 -0.023228 0.841000 11113378
-0.105174 -0.018466 0.843000 8729744
-0.105424 -0.013681 0.845000 10252657
-0.106048 -0.008905 0.850000 10981021
-0.106297 -0.004057 0.852000 10454944
-0.106796 0.000815 0.856000 10517658
-0.107046 0.005720 0.858000 10717589
-0.107046 0.010623 0.858000 10587022
-0.107500 -0.079167 0.875000 14469586
-0.107009 -0.073828 0.871000 13551064
-0.104674 -0.067349 0.852000 13544132
-0.103323 -0.061673 0.841000 14077147
-0.101603 -0.055921 0.827000 12498131
-0.101357 -0.051071 0.825000 11837115
-0.101603 -0.046470 0.827000 11377593
-0.102094 -0.041946 0.831000 10786479
-0.102340 -0.037287 0.833000 10048376
-0.102831 -0.032683 0.837000 9393517
-0.103077 -0.027967 0.839000 7891563
-0.103323 -0.023228 0.841000 11508395
-0.103323 -0.018422 0.841000 8870296
-0.103814 -0.013681 0.845000 10323851
-0.104183 -0.008884 0.848000 11112864
-0.104429 -0.004048 0.850000 11177890
-0.104920 0.000813 0.854000 10980252
-0.105166 0.005707 0.856000 10915220
-0.105411 0.010623 0.858000 10849680
-0.105833 -0.079167 0.875000 14273241
-0.105350 -0.073828 0.871000 13150159
-0.103051 -0.067349 0.852000 13278914
-0.100995 -0.061233 0.835000 14142427
-0.100028 -0.055921 0.827000 12693972
-0.099786 -0.051071 0.825000 12100546
-0.100028 -0.046470 0.827000 11639999
-0.100511 -0.041946 0.831000 11377330
-0.100753 -0.037287 0.833000 9712003
-0.100995 -0.032605 0.835000 9985398
-0.101479 -0.027967 0.839000 9205114
-0.101721 -0.023228 0.841000 11442099
-0.101721 -0.018422 0.841000 10186657
-0.102205 -0.013681 0.845000 10915237
-0.102568 -0.008884 0.848000 11375524
-0.102810 -0.004048 0.850000 11309987
-0.103293 0.000813 0.854000 11178654
-0.103535 0.005707 0.856000 10388627
-0.103777 0.010623 0.858000 11046802
-0.104167 -0.079167 0.875000 14076633
-0.103929 -0.073997 0.873000 12748228
-0.101190 -0.067190 0.850000 13018306
-0.099405 -0.061233 0.835000 14207199
-0.098452 -0.055921 0.827000 12827353
-0.098214 -0.051071 0.825000 12363979
-0.098452 -0.046470 0.827000 11838402
-0.098929 -0.041946 0.831000 12032950
-0.099167 -0.037287 0.833000 9325190
-0.099405 -0.032605 0.835000 10579317
-0.099643 -0.027900 0.837000 10446709
-0.099881 -0.023172 0.839000 11307913
-0.100119 -0.018422 0.841000 11506864
-0.100357 -0.013649 0.843000 11574703
-0.100952 -0.008884 0.848000 11573419
-0.101190 -0.004048 0.850000 11442341
-0.101429 0.000811 0.852000 11375783
-0.101905 0.005707 0.856000 9864056
-0.102143 0.010623 0.858000 11240064
-0.102500 -0.079167 0.875000 14076633
-0.102266 -0.073997 0.873000 12686009
-0.099337 -0.067032 0.848000 13347266
-0.097580 -0.061087 0.833000 14208227
-0.096877 -0.055921 0.827000 13023966
-0.096643 -0.051071 0.825000 12628179
-0.096877 -0.046470 0.827000 12101830
-0.097346 -0.041946 0.831000 12099769
-0.097580 -0.037287 0.833000 9713289
-0.097580 -0.032527 0.833000 10511732
-0.098049 -0.027900 0.837000 10112368
-0.098283 -0.023172 0.839000 11102814
-0.098517 -0.018422 0.841000 12036032
-0.098751 -0.013649 0.843000 11903673
-0.099337 -0.008884 0.848000 11836851
-0.099337 -0.004038 0.848000 11639975
-0.099571 0.000810 0.850000 11507632
-0.100274 0.005707 0.856000 9792605
-0.100274 0.010598 0.856000 11107950
-0.097722 -0.067032 0.848000 13678532
-0.095993 -0.061087 0.833000 14207974
-0.095302 -0.055921 0.827000 13221855
-0.095071 -0.051071 0.825000 12891351
-0.095302 -0.046470 0.827000 12365262
-0.095763 -0.041946 0.831000 12168131
-0.095993 -0.037287 0.833000 10110869
-0.096224 -0.032605 0.835000 10507910
-0.096454 -0.027900 0.837000 9725557
-0.096685 -0.023172 0.839000 10907790
-0.096915 -0.018422 0.841000 12560834
-0.097146 -0.013649 0.843000 12297151
-0.097722 -0.008884 0.848000 12034491
-0.097722 -0.004038 0.848000 11903142
-0.097952 0.000810 0.850000 11574710
-0.098413 0.005693 0.854000 9719941
-0.098644 0.010598 0.856000 10909326
-0.097013 -0.072556 0.856000 12425912
-0.096107 -0.067032 0.848000 13745095
-0.094407 -0.061087 0.833000 14274280
-0.093727 -0.055921 0.827000 13352672
-0.093500 -0.051071 0.825000 13023194
-0.093727 -0.046470 0.827000 12630486
-0.093953 -0.041845 0.829000 12103373
-0.094407 -0.037287 0.833000 10496160
-0.094633 -0.032605 0.835000 11105432
-0.094860 -0.027900 0.837000 9798777
-0.095087 -0.023172 0.839000 11505341
-0.095313 -0.018422 0.841000 12626629
-0.095540 -0.013649 0.843000 12429252
-0.096107 -0.008884 0.848000 12232642
-0.096107 -0.004038 0.848000 11309732
-0.096333 0.000810 0.850000 11903163
-0.096787 0.005693 0.854000 10779053
-0.097013 0.010598 0.856000 11638959
-0.098280 -0.079800 0.882000 14274011
-0.095383 -0.072556 0.856000 12294056
-0.094714 -0.067190 0.850000 13743561
-0.092597 -0.060940 0.831000 14341611
-0.092151 -0.055921 0.827000 13418976
-0.091929 -0.051071 0.825000 13220572
-0.092151 -0.046470 0.827000 12826582
-0.092597 -0.041946 0.831000 12040406
-0.092820 -0.037287 0.833000 10845622
-0.093043 -0.032605 0.835000 11699612
-0.093266 -0.027900 0.837000 9864087
-0.093489 -0.023172 0.839000 12174541
-0.093711 -0.018422 0.841000 12693450
-0.093934 -0.013649 0.843000 12626631
-0.094491 -0.008884 0.848000 12426933
-0.094491 -0.004038 0.848000 10646915
-0.094714 0.000810 0.850000 12166847
-0.094937 0.005680 0.852000 11835578
-0.095160 0.010573 0.854000 12297399
-0.096381 -0.079619 0.880000 14207707
-0.093752 -0.072556 0.856000 11762584
-0.092876 -0.067032 0.848000 13945548
-0.091233 -0.061087 0.833000 14604782
-0.090576 -0.055921 0.827000 13483489
-0.090576 -0.051195 0.827000 13615325
-0.090795 -0.046582 0.829000 12889558
-0.091014 -0.041946 0.831000 12958687
-0.091233 -0.037287 0.833000 11513293
-0.091452 -0.032605 0.835000 10449823
-0.091671 -0.027900 0.837000 11972278
-0.091890 -0.023172 0.839000 12501725
-0.092110 -0.018422 0.841000 13022416
-0.092329 -0.013649 0.843000 12891081
-0.092876 -0.008884 0.848000 11959207
-0.092876 -0.004038 0.848000 10382433
-0.093095 0.000810 0.850000 12561346
-0.093314 0.005680 0.852000 12232134
-0.093533 0.010573 0.854000 12363712
-0.094490 -0.079438 0.878000 14142683
-0.092122 -0.072556 0.856000 11238051
-0.090723 -0.066637 0.843000 14141397
-0.089431 -0.060940 0.831000 14805234
-0.089001 -0.055921 0.827000 13551329
-0.089001 -0.051195 0.827000 13943520
-0.089431 -0.046694 0.831000 12891348
-0.089431 -0.041946 0.831000 13877731
-0.089647 -0.037287 0.833000 12168390
-0.089862 -0.032605 0.835000 9199024
-0.090077 -0.027900 0.837000 14070467
-0.090292 -0.023172 0.839000 12894923
-0.090508 -0.018422 0.841000 13349310
-0.090508 -0.013616 0.841000 13153998
-0.090938 -0.008852 0.845000 11436720
-0.091261 -0.004038 0.848000 10173576
-0.091476 0.000810 0.850000 12889541
-0.091691 0.005680 0.852000 12691913
-0.091907 0.010573 0.854000 12363970
-0.092500 -0.079167 0.875000 14011867
-0.090491 -0.072556 0.856000 12096174
-0.089117 -0.066637 0.843000 14010846
-0.087637 -0.060793 0.829000 14802933
-0.087426 -0.055921 0.827000 13747938
-0.087637 -0.051319 0.829000 13879267
-0.087849 -0.046694 0.831000 12889809
-0.088060 -0.042047 0.833000 13813990
-0.088060 -0.037287 0.833000 11636672
-0.088271 -0.032605 0.835000 11442624
-0.088483 -0.027900 0.837000 14010065
-0.088694 -0.023172 0.839000 11107000
-0.088906 -0.018422 0.841000 13414828
-0.088906 -0.013616 0.841000 13351635
-0.089329 -0.008852 0.845000 11962553
-0.089646 -0.004038 0.848000 11299502
-0.089857 0.000810 0.850000 13088712
-0.090069 0.005680 0.852000 12825548
-0.090280 0.010573 0.854000 12625860
-0.090833 -0.079167 0.875000 13877210
-0.090833 -0.074167 0.875000 13017279
-0.085850 -0.065372 0.827000 13880542
-0.086058 -0.060793 0.829000 14870262
-0.085850 -0.055921 0.827000 13945318
-0.086058 -0.051319 0.829000 13814246
-0.086266 -0.046694 0.831000 12890579
-0.086473 -0.042047 0.833000 13686503
-0.086473 -0.037287 0.833000 11052744
-0.086889 -0.032683 0.837000 13681871
-0.087096 -0.027967 0.839000 13879515
-0.087096 -0.023172 0.839000 9387937
-0.087304 -0.018422 0.841000 13407906
-0.087511 -0.013649 0.843000 13549017
-0.087719 -0.008852 0.845000 12428748
-0.088030 -0.004038 0.848000 12433095
-0.088238 0.000810 0.850000 13287373
-0.088446 0.005680 0.852000 12959689
-0.088653 0.010573 0.854000 12823738
-0.088963 -0.078986 0.873000 13746905
-0.088963 -0.073997 0.873000 13414607
-0.084275 -0.065372 0.827000 13813726
-0.084275 -0.060647 0.827000 14999542
-0.084275 -0.055921 0.827000 14207722
-0.084479 -0.051319 0.829000 13813480
-0.084683 -0.046694 0.831000 13285846
-0.084887 -0.042047 0.833000 13682664
-0.084887 -0.037287 0.833000 11973584
-0.085090 -0.032605 0.835000 13879262
-0.085498 -0.027967 0.839000 14077669
-0.085498 -0.023172 0.839000 10641289
-0.085702 -0.018422 0.841000 12681112
-0.085906 -0.013649 0.843000 13812446
-0.086110 -0.008852 0.845000 13221088
-0.086415 -0.004038 0.848000 13156319
-0.086619 0.000810 0.850000 13351889
-0.086619 0.005667 0.850000 11108806
-0.087027 0.010573 0.854000 13086129
-0.087300 -0.078986 0.873000 13615069
-0.087300 -0.073997 0.873000 13815257
-0.085000 -0.067190 0.850000 13748450
-0.082900 -0.060793 0.829000 15131639
-0.082900 -0.056056 0.829000 14405611
-0.082900 -0.051319 0.829000 13814763
-0.083100 -0.046694 0.831000 13614299
-0.083300 -0.042047 0.833000 13619177
-0.083500 -0.037376 0.835000 12888790
-0.083500 -0.032605 0.835000 14142952
-0.083900 -0.027967 0.839000 14208489
-0.083900 -0.023172 0.839000 11953838
-0.084100 -0.018422 0.841000 11903423
-0.084300 -0.013649 0.843000 14009569
-0.084500 -0.008852 0.845000 13943776
-0.084800 -0.004038 0.848000 13879522
-0.085000 0.000810 0.850000 13417943
-0.085000 0.005667 0.850000 9328052
-0.085200 0.010549 0.852000 13278384
-0.085441 -0.078805 0.871000 13747938
-0.085637 -0.073997 0.873000 13880034
-0.083381 -0.067190 0.850000 13812965
-0.081517 -0.060940 0.831000 15262711
-0.081517 -0.056191 0.831000 14602989
-0.081517 -0.051443 0.831000 13945326
-0.081517 -0.046694 0.831000 13679841
-0.081713 -0.042047 0.833000 13881065
-0.081910 -0.037376 0.835000 12950748
-0.082106 -0.032683 0.837000 14405618
-0.082302 -0.027967 0.839000 14340077
-0.082498 -0.023228 0.841000 13347794
-0.082498 -0.018422 0.841000 13289190
-0.082694 -0.013649 0.843000 14076131
-0.082890 -0.008852 0.845000 14009824
-0.083185 -0.004038 0.848000 13945060
-0.083381 0.000810 0.850000 13747421
-0.083381 0.005667 0.850000 10709153
-0.083577 0.010549 0.852000 13478064
-0.083782 -0.078805 0.871000 13879266
-0.083974 -0.073997 0.873000 14010593
-0.079742 -0.065530 0.829000 13880807
-0.079934 -0.060940 0.831000 15395062
-0.079934 -0.056191 0.831000 14734830
-0.079934 -0.051443 0.831000 14142960
-0.079934 -0.046694 0.831000 13746405
-0.080127 -0.042047 0.833000 14143721
-0.080511 -0.037466 0.837000 12959970
-0.080704 -0.032761 0.839000 14668528
-0.080704 -0.027967 0.839000 14406125
-0.080896 -0.023228 0.841000 14737378
-0.080896 -0.018422 0.841000 14667754
-0.081089 -0.013649 0.843000 14207975
-0.081281 -0.008852 0.845000 14010340
-0.081762 -0.004048 0.850000 14011367
-0.081762 0.000810 0.850000 14010591
-0.081762 0.005667 0.850000 12091329
-0.081954 0.010549 0.852000 13677773
-0.082123 -0.078805 0.871000 13878498
-0.082123 -0.073828 0.871000 13945056
-0.078163 -0.065530 0.829000 14733033
-0.078351 -0.060940 0.831000 15394037
-0.078351 -0.056191 0.831000 14867184
-0.078351 -0.051443 0.831000 14340082
-0.078540 -0.046807 0.833000 13943785
-0.078729 -0.042148 0.835000 14275049
-0.078917 -0.037466 0.837000 13683945
-0.079106 -0.032761 0.839000 14734830
-0.079106 -0.027967 0.839000 14668782
-0.079294 -0.023228 0.841000 14669297
-0.079483 -0.018466 0.843000 14668526
-0.079671 -0.013681 0.845000 14339818
-0.079954 -0.008884 0.848000 14272999
-0.080143 -0.004048 0.850000 13420010
-0.080143 0.000810 0.850000 14207457
-0.080143 0.005667 0.850000 13349344
-0.080331 0.010549 0.852000 14142699
-0.080279 -0.078624 0.869000 13813473
-0.079263 -0.072726 0.858000 13879776
-0.076953 -0.065847 0.833000 15588843
-0.076769 -0.060940 0.831000 15394291
-0.076769 -0.056191 0.831000 14998513
-0.076769 -0.051443 0.831000 14537970
-0.076953 -0.046807 0.833000 14143211
-0.077138 -0.042148 0.835000 14407150
-0.077323 -0.037466 0.837000 14405865
-0.077508 -0.032761 0.839000 14800880
-0.077692 -0.028033 0.841000 14866159
-0.077877 -0.023283 0.843000 14668785
-0.077877 -0.018466 0.843000 14603247
-0.078062 -0.013681 0.845000 14537197
-0.078339 -0.008884 0.848000 14471143
-0.078524 -0.004048 0.850000 12826047
-0.078524 0.000810 0.850000 14402766
-0.078524 0.005667 0.850000 14537190
-0.078709 0.010549 0.852000 14601959
-0.078262 -0.078262 0.865000 13812704
-0.077629 -0.072726 0.858000 13813728
-0.075367 -0.065847 0.833000 15854061
-0.075367 -0.061087 0.833000 15327728
-0.075186 -0.056191 0.831000 15130099
-0.075186 -0.051443 0.831000 14669809
-0.075367 -0.046807 0.833000 14668526
-0.075548 -0.042148 0.835000 14538482
-0.075729 -0.037466 0.837000 14800105
-0.075910 -0.032761 0.839000 14998001
-0.076090 -0.028033 0.841000 14998001
-0.076271 -0.023283 0.843000 14866160
-0.076271 -0.018466 0.843000 14734833
-0.076452 -0.013681 0.845000 14669039
-0.076724 -0.008884 0.848000 14733543
-0.076905 -0.004048 0.850000 12154003
-0.076905 0.000810 0.850000 14602172
-0.076905 0.005667 0.850000 14536939
-0.077267 0.010573 0.854000 14534372
-0.076614 -0.078262 0.865000 13813726
-0.075640 -0.072387 0.854000 13747678
-0.073957 -0.066005 0.835000 16049904
-0.073780 -0.061087 0.833000 15195632
-0.073780 -0.056327 0.833000 15195122
-0.073780 -0.051567 0.833000 14801138
-0.073957 -0.046919 0.835000 15129327
-0.074134 -0.042249 0.837000 14736369
-0.074311 -0.037555 0.839000 15129069
-0.074489 -0.032839 0.841000 15194870
-0.074489 -0.028033 0.841000 15129586
-0.074843 -0.023338 0.845000 14997747
-0.074666 -0.018466 0.843000 14801652
-0.074843 -0.013681 0.845000 14866928
-0.075286 -0.008905 0.850000 14996461
-0.075286 -0.004048 0.850000 11565966
-0.075286 0.000810 0.850000 14797522
-0.075463 0.005680 0.852000 14536941
-0.075640 0.010573 0.854000 14467818
-0.075140 -0.078443 0.867000 13880029
-0.074013 -0.072387 0.854000 14009307
-0.072540 -0.066163 0.837000 15855604
-0.072193 -0.061087 0.833000 15063535
-0.072193 -0.056327 0.833000 15063537
-0.072193 -0.051567 0.833000 14669299
-0.072367 -0.046919 0.835000 15196657
-0.072713 -0.042350 0.839000 14471152
-0.072713 -0.037555 0.839000 15460338
-0.072887 -0.032839 0.841000 15392762
-0.073060 -0.028100 0.843000 15261428
-0.073233 -0.023338 0.845000 15327990
-0.073233 -0.018510 0.845000 14934519
-0.073493 -0.013730 0.848000 15063793
-0.073667 -0.008905 0.850000 15261170
-0.073667 -0.004048 0.850000 12422536
-0.073667 0.000810 0.850000 14997480
-0.074013 0.005693 0.854000 14668782
-0.073489 -0.078443 0.867000 13945817
-0.070607 -0.070607 0.833000 14270940
-0.070946 -0.066163 0.837000 15657206
-0.070607 -0.061087 0.833000 14931951
-0.070607 -0.056327 0.833000 14932465
-0.070776 -0.051690 0.835000 14538735
-0.070946 -0.047031 0.837000 15260402
-0.071115 -0.042350 0.839000 14207966
-0.071285 -0.037645 0.841000 15782888
-0.071454 -0.032917 0.843000 15588836
-0.071624 -0.028167 0.845000 15393012
-0.071878 -0.023421 0.848000 15658741
-0.071624 -0.018510 0.845000 15059931
-0.072048 -0.013762 0.850000 15261428
-0.072048 -0.008905 0.850000 15458291
-0.072048 -0.004048 0.850000 13278142
-0.072217 0.000811 0.852000 15196142
-0.072387 0.005693 0.854000 14866160
-0.071671 -0.078262 0.865000 13814486
-0.069020 -0.070607 0.833000 14602717
-0.069351 -0.066163 0.837000 15393528
-0.069186 -0.061233 0.835000 14931695
-0.069020 -0.056327 0.833000 14866673
-0.069186 -0.051690 0.835000 14602475
-0.069517 -0.047144 0.839000 15326963
-0.069683 -0.042450 0.841000 13876939
-0.069849 -0.037734 0.843000 14722526
-0.070014 -0.032995 0.845000 14196685
-0.070263 -0.028267 0.848000 15261685
-0.070263 -0.023421 0.848000 14536947
-0.070263 -0.018575 0.848000 13863872
-0.070429 -0.013762 0.850000 15459062
-0.070594 -0.008926 0.852000 15524340
-0.070594 -0.004057 0.852000 14470644
-0.070594 0.000811 0.852000 15195381
-0.070926 0.005707 0.856000 14998513
-0.070024 -0.078262 0.865000 13614802
-0.067433 -0.070607 0.833000 14865901
-0.067919 -0.066321 0.839000 15131381
-0.067757 -0.061380 0.837000 14865392
-0.067757 -0.056597 0.837000 14735089
-0.067595 -0.051690 0.835000 14732524
-0.068081 -0.047256 0.841000 15392499
-0.068081 -0.042450 0.841000 13607374
-0.068243 -0.037734 0.843000 13674985
-0.068405 -0.032995 0.845000 12871368
-0.068648 -0.028267 0.848000 15131125
-0.068648 -0.023421 0.848000 13419764
-0.068810 -0.018619 0.850000 12616393
-0.068810 -0.013762 0.850000 15721718
-0.068971 -0.008926 0.852000 15524339
-0.068971 -0.004057 0.852000 15656691
-0.069133 0.000813 0.854000 15196148
-0.069295 0.005707 0.856000 15196916
-0.068376 -0.078262 0.865000 13743567
-0.066795 -0.071624 0.845000 15329276
-0.066321 -0.066321 0.839000 15063795
-0.066321 -0.061527 0.839000 14865904
-0.066321 -0.056732 0.839000 14669041
-0.066321 -0.051938 0.839000 14733293
-0.066321 -0.047144 0.839000 15393012
-0.066637 -0.042551 0.843000 13740753
-0.066637 -0.037734 0.843000 14533109
-0.066795 -0.032995 0.845000 13343171
-0.066795 -0.028167 0.845000 15130100
-0.067032 -0.023421 0.848000 13487349
-0.067032 -0.018575 0.848000 13335506
