# .PCD v.7 - Point Cloud Data file format
VERSION .7
FIELDS x y z rgb
SIZE 4 4 4 4
TYPE F F F I
COUNT 1 1 1 1
WIDTH 1266
HEIGHT 1
POINTS 1266
DATA ascii
-0.218698 -0.060793 0.829000 10979750
-0.218170 -0.055921 0.827000 10977676
-0.221310 -0.076452 0.845000 15261686
-0.219214 -0.070946 0.837000 15327473
-0.218167 -0.065847 0.833000 14737393
-0.216595 -0.060647 0.827000 11178664
-0.215548 -0.055650 0.823000 10781837
-0.216071 -0.051071 0.825000 11306111
-0.217643 -0.046694 0.831000 12294564
-0.219214 -0.042249 0.837000 13215400
-0.219214 -0.037466 0.837000 13544114
-0.219700 -0.076452 0.845000 14933491
-0.217620 -0.070946 0.837000 14998512
-0.216580 -0.065847 0.833000 15326963
-0.214500 -0.060500 0.825000 11440828
-0.213460 -0.055515 0.821000 10585743
-0.213980 -0.050948 0.823000 10385541
-0.215540 -0.046582 0.829000 11047317
-0.217100 -0.042148 0.835000 13082779
-0.218140 -0.037555 0.839000 13675174
-0.219897 -0.081954 0.852000 14802423
-0.218090 -0.076452 0.845000 14933232
-0.216026 -0.070946 0.837000 14933231
-0.214993 -0.065847 0.833000 15261684
-0.212929 -0.060500 0.825000 11773136
-0.211896 -0.055515 0.821000 10519185
-0.212412 -0.050948 0.823000 10189706
-0.213445 -0.046470 0.827000 10913927
-0.214993 -0.042047 0.833000 11832718
-0.216542 -0.037555 0.839000 12820634
-0.217574 -0.032917 0.843000 13346988
-0.218274 -0.086823 0.852000 12627379
-0.217762 -0.081762 0.850000 15065076
-0.216481 -0.076452 0.845000 14867440
-0.214431 -0.070946 0.837000 14932976
-0.212894 -0.065689 0.831000 15130868
-0.210845 -0.060353 0.823000 12101082
-0.209820 -0.055380 0.819000 10453135
-0.210332 -0.050824 0.821000 10059145
-0.211357 -0.046357 0.825000 10716038
-0.212894 -0.041946 0.831000 10649742
-0.214431 -0.037466 0.837000 11899022
-0.215969 -0.032917 0.843000 13084575
-0.217250 -0.028267 0.848000 13609124
-0.216481 -0.023338 0.845000 14069939
-0.216651 -0.086823 0.852000 13745854
-0.216143 -0.081762 0.850000 14999025
-0.214871 -0.076452 0.845000 14932720
-0.212837 -0.070946 0.837000 14867440
-0.211311 -0.065689 0.831000 15130612
-0.208769 -0.060207 0.821000 12300516
-0.208260 -0.055380 0.819000 10453134
-0.208769 -0.050824 0.821000 9862535
-0.209786 -0.046357 0.825000 10519174
-0.211311 -0.041946 0.831000 10387341
-0.212329 -0.037376 0.835000 11108482
-0.213854 -0.032839 0.841000 11965074
-0.214871 -0.028167 0.845000 12753819
-0.214871 -0.023338 0.845000 13544376
-0.215029 -0.086823 0.852000 14797005
-0.214524 -0.081762 0.850000 14933233
-0.213262 -0.076452 0.845000 14933232
-0.211748 -0.071115 0.839000 14867440
-0.209729 -0.065689 0.831000 15065075
-0.207205 -0.060207 0.821000 12501483
-0.206700 -0.055380 0.819000 10387598
-0.207205 -0.050824 0.821000 9731205
-0.207710 -0.046245 0.823000 10256256
-0.209224 -0.041845 0.829000 10124424
-0.210233 -0.037287 0.833000 10256258
-0.211748 -0.032761 0.839000 10846055
-0.213262 -0.028167 0.845000 11833232
-0.213262 -0.023338 0.845000 13084573
-0.213907 -0.087027 0.854000 15064029
-0.212905 -0.081762 0.850000 14933232
-0.211652 -0.076452 0.845000 14933488
-0.209649 -0.070946 0.837000 14933232
-0.207645 -0.065530 0.829000 14999283
-0.205641 -0.060207 0.821000 12697841
-0.205140 -0.055380 0.819000 10256526
-0.205140 -0.050700 0.819000 9862274
-0.205641 -0.046132 0.821000 10255483
-0.207144 -0.041744 0.827000 10124675
-0.208146 -0.037197 0.831000 10058627
-0.209649 -0.032683 0.837000 10055740
-0.211151 -0.028100 0.843000 11110277
-0.211652 -0.023338 0.845000 11309698
-0.211652 -0.018510 0.845000 12820124
-0.212280 -0.087027 0.854000 15260901
-0.211783 -0.081954 0.852000 14933232
-0.210043 -0.076452 0.845000 14933233
-0.207557 -0.070776 0.835000 14933489
-0.206066 -0.065530 0.829000 14933747
-0.204077 -0.060207 0.821000 12898543
-0.203083 -0.055245 0.817000 10125709
-0.203580 -0.050700 0.819000 9993346
-0.204077 -0.046132 0.821000 10189693
-0.205071 -0.041643 0.825000 10190470
-0.206066 -0.037108 0.829000 9794944
-0.208054 -0.032683 0.837000 9271381
-0.209049 -0.028033 0.841000 10388607
-0.209546 -0.023283 0.843000 9536131
-0.210043 -0.018510 0.845000 11764600
-0.211147 -0.087230 0.856000 15197165
-0.210160 -0.081954 0.852000 14998767
-0.208433 -0.076452 0.845000 15064562
-0.205967 -0.070776 0.835000 14999025
-0.203993 -0.065372 0.827000 14933491
-0.202020 -0.060060 0.819000 12961261
-0.201033 -0.055110 0.815000 10191245
-0.201527 -0.050576 0.817000 9927809
-0.202020 -0.046020 0.819000 10058111
-0.203007 -0.041542 0.823000 10256009
-0.204487 -0.037108 0.829000 9793406
-0.205473 -0.032527 0.833000 9532013
-0.206460 -0.027900 0.837000 10454650
-0.207940 -0.023283 0.843000 9530756
-0.208433 -0.018510 0.845000 10843220
-0.212133 -0.009010 0.860000 12163228
-0.209516 -0.087230 0.856000 15065840
-0.208537 -0.081954 0.852000 14998511
-0.206334 -0.076271 0.843000 15128808
-0.203887 -0.070607 0.833000 15064562
-0.202418 -0.065372 0.827000 14933746
-0.200460 -0.060060 0.819000 13029614
-0.199481 -0.055110 0.815000 10191501
-0.199481 -0.050452 0.815000 9928065
-0.200460 -0.046020 0.819000 9927295
-0.201439 -0.041542 0.823000 10388356
-0.202418 -0.037018 0.827000 9728123
-0.203397 -0.032449 0.831000 9731192
-0.204866 -0.027900 0.837000 10518657
-0.205355 -0.023172 0.839000 9534851
-0.206824 -0.018510 0.845000 9861222
-0.208537 -0.013794 0.852000 10650758
-0.210006 -0.008989 0.858000 10980497
-0.210495 -0.004095 0.860000 12230295
-0.207886 -0.087230 0.856000 15064819
-0.206914 -0.081954 0.852000 14933231
-0.204729 -0.076271 0.843000 13813470
-0.202300 -0.070607 0.833000 14867187
-0.200843 -0.065372 0.827000 14933490
-0.198900 -0.060060 0.819000 13027055
-0.197929 -0.055110 0.815000 10191245
-0.197929 -0.050452 0.815000 9862273
-0.198900 -0.046020 0.819000 9861758
-0.199871 -0.041542 0.823000 10322046
-0.200843 -0.037018 0.827000 9790329
-0.201814 -0.032449 0.831000 9994114
-0.202786 -0.027833 0.835000 10650504
-0.203757 -0.023172 0.839000 9994370
-0.205214 -0.018510 0.845000 9987960
-0.205943 -0.013730 0.848000 10650758
-0.207886 -0.008968 0.856000 10847111
-0.208371 -0.004086 0.858000 11373189
-0.208857 0.000819 0.860000 11569547
-0.207219 -0.092552 0.860000 13881537
-0.206255 -0.087230 0.856000 15064306
-0.204810 -0.081762 0.850000 14932977
-0.203123 -0.076271 0.843000 12497881
-0.200713 -0.070607 0.833000 14672886
-0.199268 -0.065372 0.827000 14933746
-0.197340 -0.060060 0.819000 13095150
-0.196135 -0.055042 0.814000 10192015
-0.196376 -0.050452 0.815000 9730433
-0.197340 -0.046020 0.819000 9730685
-0.198304 -0.041542 0.823000 10255996
-0.199268 -0.037018 0.827000 9790058
-0.199750 -0.032370 0.829000 10257011
-0.201195 -0.027833 0.835000 10781062
-0.201677 -0.023117 0.837000 10453378
-0.203123 -0.018466 0.843000 10123388
-0.203605 -0.013681 0.845000 10650504
-0.205773 -0.008947 0.854000 10650759
-0.206737 -0.004086 0.858000 10519174
-0.207219 0.000819 0.860000 10520204
-0.205581 -0.092552 0.860000 13945554
-0.204625 -0.087230 0.856000 14998514
-0.203190 -0.081762 0.850000 14867698
-0.201517 -0.076271 0.843000 12498388
-0.198649 -0.070437 0.831000 14802936
-0.197692 -0.065372 0.827000 14933489
-0.195780 -0.060060 0.819000 13026796
-0.194585 -0.055042 0.814000 10126225
-0.194824 -0.050452 0.815000 9796224
-0.195780 -0.046020 0.819000 9730172
-0.196258 -0.041441 0.821000 9600377
-0.197692 -0.037018 0.827000 8996443
-0.198170 -0.032370 0.829000 9924451
-0.199127 -0.027767 0.833000 10518149
-0.200083 -0.023117 0.837000 10322050
-0.201517 -0.018466 0.843000 10190463
-0.201995 -0.013681 0.845000 10584457
-0.203669 -0.008926 0.852000 10389128
-0.204147 -0.004067 0.854000 10453638
-0.205103 0.000817 0.858000 10453644
-0.204417 -0.092768 0.862000 14013406
-0.202994 -0.087230 0.856000 14933234
-0.201571 -0.081762 0.850000 14868714
-0.199911 -0.076271 0.843000 12497886
-0.197066 -0.070437 0.831000 14936046
-0.196117 -0.065372 0.827000 14933490
-0.194220 -0.060060 0.819000 13029354
-0.193034 -0.055042 0.814000 10059406
-0.193271 -0.050452 0.815000 9861505
-0.193746 -0.045908 0.817000 9664896
-0.194694 -0.041441 0.821000 8943985
-0.195643 -0.036929 0.825000 8147293
-0.196591 -0.032370 0.829000 9658717
-0.197540 -0.027767 0.833000 10190724
-0.198489 -0.023117 0.837000 10256004
-0.199437 -0.018422 0.841000 10190467
-0.199911 -0.013649 0.843000 10453126
-0.201097 -0.008884 0.848000 10122873
-0.202520 -0.004067 0.854000 10453892
-0.203469 0.000817 0.858000 10387330
-0.202775 -0.092768 0.862000 14407146
-0.201364 -0.087230 0.856000 15064307
-0.199952 -0.081762 0.850000 14668002
-0.197835 -0.076090 0.841000 12761833
-0.195483 -0.070437 0.831000 14865891
-0.194542 -0.065372 0.827000 15130355
-0.192660 -0.060060 0.819000 12894695
-0.191484 -0.055042 0.814000 9992844
-0.191484 -0.050390 0.814000 9927298
-0.192190 -0.045908 0.817000 9664644
-0.193130 -0.041441 0.821000 7885928
-0.194071 -0.036929 0.825000 8611679
-0.195012 -0.032370 0.829000 9462359
-0.195953 -0.027767 0.833000 10190723
-0.196424 -0.023062 0.835000 10058885
-0.197365 -0.018378 0.839000 10255494
-0.198306 -0.013649 0.843000 10453379
-0.198776 -0.008852 0.845000 9785962
-0.200893 -0.004067 0.854000 10320770
-0.201364 0.000815 0.856000 10319992
-0.201133 -0.092768 0.862000 14806511
-0.199733 -0.087230 0.856000 15195892
-0.198333 -0.081762 0.850000 14459606
-0.196233 -0.076090 0.841000 12951751
-0.193433 -0.070268 0.829000 14798563
-0.192500 -0.065214 0.825000 15261683
-0.190633 -0.059913 0.817000 12764902
-0.189933 -0.055042 0.814000 9862283
-0.189933 -0.050390 0.814000 9993089
-0.190633 -0.045908 0.817000 9599363
-0.191567 -0.041441 0.821000 6831462
-0.192500 -0.036929 0.825000 9067868
-0.193433 -0.032370 0.829000 9330773
-0.194367 -0.027767 0.833000 10125443
-0.194833 -0.023062 0.835000 9794671
-0.195767 -0.018378 0.839000 10319994
-0.196233 -0.013616 0.841000 10518402
-0.197167 -0.008852 0.845000 9392996
-0.198800 -0.004057 0.852000 10189430
-0.199733 0.000815 0.856000 10253438
-0.199491 -0.092768 0.862000 14868980
-0.198103 -0.087230 0.856000 15195892
-0.196251 -0.081570 0.848000 13669833
-0.194631 -0.076090 0.841000 12545446
-0.192317 -0.070437 0.831000 14734051
-0.190929 -0.065214 0.825000 15195892
-0.189077 -0.059913 0.817000 12762597
-0.188383 -0.055042 0.814000 9860745
-0.188614 -0.050452 0.815000 10124416
-0.189540 -0.046020 0.819000 9664641
-0.190003 -0.041441 0.821000 7951716
-0.190466 -0.036839 0.823000 8999258
-0.191391 -0.032292 0.827000 8211795
-0.192317 -0.027700 0.831000 10191492
-0.193243 -0.023062 0.835000 8934745
-0.193706 -0.018334 0.837000 10186862
-0.194631 -0.013616 0.841000 10387328
-0.195557 -0.008852 0.845000 9720670
-0.197177 -0.004057 0.852000 10253162
-0.197640 0.000813 0.854000 10256260
-0.197390 -0.092552 0.860000 14869236
-0.196472 -0.087230 0.856000 15195891
-0.194636 -0.081570 0.848000 12877776
-0.193030 -0.076090 0.841000 12162222
-0.190275 -0.070268 0.829000 14674159
-0.188898 -0.065056 0.823000 15130611
-0.187521 -0.059913 0.817000 12696802
-0.186832 -0.055042 0.814000 9796491
-0.187062 -0.050452 0.815000 10190208
-0.187521 -0.045908 0.817000 9665407
-0.188439 -0.041441 0.821000 9067877
-0.188898 -0.036839 0.823000 8931408
-0.189816 -0.032292 0.827000 7091533
-0.190734 -0.027700 0.831000 10189951
-0.191193 -0.023007 0.833000 8081755
-0.192111 -0.018334 0.837000 10051429
-0.193030 -0.013616 0.841000 10321279
-0.193489 -0.008831 0.843000 9988721
-0.195095 -0.004048 0.850000 10386546
-0.196013 0.000813 0.854000 10256002
-0.195752 -0.092552 0.860000 14933748
-0.194842 -0.087230 0.856000 15261427
-0.193476 -0.081762 0.850000 13211606
-0.190972 -0.075910 0.839000 12889271
-0.188696 -0.070268 0.829000 14935035
-0.187330 -0.065056 0.823000 15130355
-0.185965 -0.059913 0.817000 12497887
-0.185282 -0.055042 0.814000 9992333
-0.185282 -0.050390 0.814000 10058880
-0.185965 -0.045908 0.817000 9796478
-0.186420 -0.041340 0.819000 9067622
-0.187330 -0.036839 0.823000 8800583
-0.188241 -0.032292 0.827000 8013895
-0.188696 -0.027633 0.829000 10322043
-0.189607 -0.023007 0.833000 8674141
-0.190517 -0.018334 0.837000 9919836
-0.190972 -0.013584 0.839000 10255997
-0.191883 -0.008831 0.843000 10058372
-0.193021 -0.004038 0.848000 10255226
-0.194387 0.000813 0.854000 10256257
-0.194114 -0.092552 0.860000 15000053
-0.193211 -0.087230 0.856000 15326961
-0.191857 -0.081762 0.850000 13533637
-0.188923 -0.075729 0.837000 13606586
-0.187117 -0.070268 0.829000 15200506
-0.185763 -0.065056 0.823000 15064819
-0.184409 -0.059913 0.817000 12362199
-0.183731 -0.055042 0.814000 10124174
-0.183731 -0.050390 0.814000 9928066
-0.184409 -0.045908 0.817000 9927807
-0.184860 -0.041340 0.819000 9071979
-0.185763 -0.036839 0.823000 8668493
-0.186214 -0.032214 0.825000 8998222
-0.187569 -0.027700 0.831000 10449780
-0.188020 -0.023007 0.833000 9333872
-0.188471 -0.018290 0.835000 9725550
-0.189374 -0.013584 0.839000 10190208
-0.190277 -0.008831 0.843000 10124417
-0.191406 -0.004038 0.848000 10189435
-0.192309 0.000811 0.852000 10253946
-0.192924 -0.092768 0.862000 15064822
-0.192029 -0.087434 0.858000 14541552
-0.189790 -0.081570 0.848000 13144499
-0.187329 -0.075729 0.837000 13335742
-0.185538 -0.070268 0.829000 15131640
-0.183748 -0.064898 0.821000 15130356
-0.182852 -0.059913 0.817000 11968206
-0.182181 -0.055042 0.814000 10188943
-0.182181 -0.050390 0.814000 9862275
-0.182852 -0.045908 0.817000 9994112
-0.183300 -0.041340 0.819000 9067376
-0.184195 -0.036839 0.823000 8800595
-0.185090 -0.032292 0.827000 8409428
-0.185986 -0.027700 0.831000 9394541
-0.186433 -0.023007 0.833000 9861506
-0.187329 -0.018334 0.837000 9927553
-0.187776 -0.013584 0.839000 10124674
-0.188671 -0.008831 0.843000 10124414
-0.189790 -0.004038 0.848000 10255227
-0.190686 0.000811 0.852000 8740723
-0.191282 -0.092768 0.862000 15131125
-0.190394 -0.087434 0.858000 13748714
-0.188175 -0.081570 0.848000 12815301
-0.185734 -0.075729 0.837000 13014976
-0.183515 -0.070098 0.827000 14999542
-0.182184 -0.064898 0.821000 15130354
-0.180852 -0.059767 0.815000 11634118
-0.180630 -0.055042 0.814000 10190986
-0.180630 -0.050390 0.814000 9796742
-0.181296 -0.045908 0.817000 9994625
-0.181740 -0.041340 0.819000 9067879
-0.182628 -0.036839 0.823000 8865878
-0.183515 -0.032292 0.827000 7885398
-0.183959 -0.027633 0.829000 8277351
-0.184847 -0.023007 0.833000 10453380
-0.185734 -0.018334 0.837000 10124674
-0.186178 -0.013584 0.839000 10124418
-0.187066 -0.008831 0.843000 10124672
-0.187510 -0.004024 0.845000 10320764
-0.189063 0.000811 0.852000 7229030
-0.189640 -0.092768 0.862000 15196404
-0.188320 -0.087230 0.856000 13682149
-0.186560 -0.081570 0.848000 13144279
-0.184140 -0.075729 0.837000 13214402
-0.181940 -0.070098 0.827000 15130611
-0.180620 -0.064898 0.821000 15196145
-0.179300 -0.059767 0.815000 11441086
-0.179080 -0.055042 0.814000 10255750
-0.179080 -0.050390 0.814000 9928072
-0.179740 -0.045908 0.817000 10060418
-0.180620 -0.041441 0.821000 9065054
-0.181060 -0.036839 0.823000 9130330
-0.181940 -0.032292 0.827000 8081752
-0.182380 -0.027633 0.829000 8539233
-0.183260 -0.023007 0.833000 10387589
-0.184140 -0.018334 0.837000 10058883
-0.184580 -0.013584 0.839000 10190210
-0.185460 -0.008831 0.843000 10059650
-0.185900 -0.004024 0.845000 10057853
-0.187440 0.000811 0.852000 7277657
-0.187562 -0.092552 0.860000 15327219
-0.187126 -0.087434 0.858000 13548250
-0.184290 -0.081281 0.845000 13477062
-0.182546 -0.075729 0.837000 13352925
-0.180365 -0.070098 0.827000 15196146
-0.179056 -0.064898 0.821000 15195378
-0.177748 -0.059767 0.815000 11241914
-0.177530 -0.055042 0.814000 10256519
-0.177530 -0.050390 0.814000 10058893
-0.178184 -0.045908 0.817000 10060163
-0.179056 -0.041441 0.821000 9131366
-0.179929 -0.036929 0.825000 9394273
-0.180365 -0.032292 0.827000 8344406
-0.180801 -0.027633 0.829000 8808810
-0.181673 -0.023007 0.833000 10387331
-0.182546 -0.018334 0.837000 9993859
-0.182982 -0.013584 0.839000 10256263
-0.183854 -0.008831 0.843000 9993337
-0.184290 -0.004024 0.845000 9796988
-0.185381 0.000810 0.850000 7355239
-0.185924 -0.092552 0.860000 15261937
-0.185059 -0.087230 0.856000 12951247
-0.183330 -0.081570 0.848000 13670836
-0.180951 -0.075729 0.837000 14475000
-0.178790 -0.070098 0.827000 15196144
-0.177492 -0.064898 0.821000 15064050
-0.176195 -0.059767 0.815000 11112630
-0.175979 -0.055042 0.814000 10322568
-0.176195 -0.050452 0.815000 9994898
-0.176628 -0.045908 0.817000 10322053
-0.177492 -0.041441 0.821000 9202542
-0.178357 -0.036929 0.825000 8937065
-0.178790 -0.032292 0.827000 8214100
-0.179222 -0.027633 0.829000 9800306
-0.180087 -0.023007 0.833000 10453121
-0.180951 -0.018334 0.837000 10190980
-0.181384 -0.013584 0.839000 9798028
-0.182249 -0.008831 0.843000 9727345
-0.182681 -0.004024 0.845000 9928571
-0.183762 0.000810 0.850000 8670836
-0.184286 -0.092552 0.860000 15261170
-0.183429 -0.087230 0.856000 12297179
-0.181714 -0.081570 0.848000 13864405
-0.179357 -0.075729 0.837000 15590901
-0.176786 -0.069929 0.825000 15261681
-0.175500 -0.064740 0.819000 14867180
-0.174429 -0.059693 0.814000 10982060
-0.174429 -0.055042 0.814000 10322311
-0.174643 -0.050452 0.815000 9997452
-0.175500 -0.046020 0.819000 10584194
-0.175929 -0.041441 0.821000 9270390
-0.176786 -0.036929 0.825000 8412768
-0.177214 -0.032292 0.827000 8019056
-0.178071 -0.027700 0.831000 10717307
-0.178500 -0.023007 0.833000 10519429
-0.179357 -0.018334 0.837000 10322052
-0.179786 -0.013584 0.839000 9339257
-0.180643 -0.008831 0.843000 9395298
-0.181071 -0.004024 0.845000 10125445
-0.182143 0.000810 0.850000 9989243
-0.182648 -0.092552 0.860000 15196146
-0.181798 -0.087230 0.856000 13678567
-0.179462 -0.081281 0.845000 14534133
-0.177763 -0.075729 0.837000 15327219
-0.175214 -0.069929 0.825000 15196145
-0.173940 -0.064740 0.819000 14540519
-0.173090 -0.059767 0.815000 10785185
-0.172878 -0.055042 0.814000 10388359
-0.173515 -0.050576 0.817000 9994885
-0.173940 -0.046020 0.819000 10453376
-0.174365 -0.041441 0.821000 9336958
-0.175639 -0.037018 0.827000 8477016
-0.176064 -0.032370 0.829000 8810379
-0.176489 -0.027700 0.831000 10062212
-0.176913 -0.023007 0.833000 9862025
-0.177763 -0.018334 0.837000 10322309
-0.178188 -0.013584 0.839000 9066086
-0.179037 -0.008831 0.843000 8871763
-0.179462 -0.004024 0.845000 10256527
-0.180524 0.000810 0.850000 10059138
-0.181010 -0.092552 0.860000 15196146
-0.179747 -0.087027 0.854000 14997741
-0.178484 -0.081570 0.848000 15200501
-0.176169 -0.075729 0.837000 14999282
-0.173222 -0.069759 0.823000 15130354
-0.172380 -0.064740 0.819000 14205922
-0.171538 -0.059767 0.815000 10655385
-0.171538 -0.055110 0.815000 10388106
-0.172380 -0.050700 0.819000 10058119
-0.172801 -0.046132 0.821000 10322563
-0.173222 -0.041542 0.823000 9467008
-0.174064 -0.037018 0.827000 8546670
-0.174485 -0.032370 0.829000 9535629
-0.174906 -0.027700 0.831000 9331816
-0.175327 -0.023007 0.833000 9270658
-0.176590 -0.018378 0.839000 10257030
-0.177010 -0.013616 0.841000 8868710
-0.177431 -0.008831 0.843000 8279905
-0.177852 -0.004024 0.845000 10387594
-0.178905 0.000810 0.850000 10125184
-0.178954 -0.092337 0.858000 15261937
-0.178120 -0.087027 0.854000 15000051
-0.176243 -0.081281 0.845000 15197429
-0.174574 -0.075729 0.837000 15065073
-0.172071 -0.069929 0.825000 15130354
-0.170820 -0.064740 0.819000 13219549
-0.169986 -0.059767 0.815000 10784400
-0.170403 -0.055245 0.817000 10388622
-0.170820 -0.050700 0.819000 10190217
-0.171237 -0.046132 0.821000 10584966
-0.171654 -0.041542 0.823000 9531778
-0.172489 -0.037018 0.827000 9666693
-0.172906 -0.032370 0.829000 9863567
-0.173323 -0.027700 0.831000 9186381
-0.173740 -0.023007 0.833000 9466234
-0.174574 -0.018334 0.837000 10388103
-0.175409 -0.013616 0.841000 9394533
-0.175826 -0.008831 0.843000 9328496
-0.176243 -0.004024 0.845000 10518916
-0.177286 0.000810 0.850000 10257022
-0.177320 -0.092337 0.858000 15327219
-0.176080 -0.086823 0.852000 14999026
-0.174633 -0.081281 0.845000 15261939
-0.172567 -0.075548 0.835000 15130609
-0.170500 -0.069929 0.825000 15195635
-0.169260 -0.064740 0.819000 12235480
-0.168847 -0.059913 0.817000 10847888
-0.168847 -0.055245 0.817000 10388624
-0.169260 -0.050700 0.819000 10256261
-0.169673 -0.046132 0.821000 10847366
-0.170500 -0.041643 0.825000 9595779
-0.170913 -0.037018 0.827000 10715782
-0.171740 -0.032449 0.831000 10257806
-0.171740 -0.027700 0.831000 9060444
-0.172567 -0.023062 0.835000 9727854
-0.173393 -0.018378 0.839000 10454154
-0.173807 -0.013616 0.841000 9989243
-0.174633 -0.008852 0.845000 10319741
-0.174633 -0.004024 0.845000 10649989
-0.176080 0.000811 0.852000 10320261
-0.175686 -0.092337 0.858000 15262453
-0.174457 -0.086823 0.852000 14998513
-0.173024 -0.081281 0.845000 15196145
-0.170976 -0.075548 0.835000 15130609
-0.168519 -0.069759 0.823000 15064820
-0.167700 -0.064740 0.819000 12166867
-0.167290 -0.059913 0.817000 10717072
-0.167700 -0.055380 0.819000 10454675
-0.168110 -0.050824 0.821000 10190465
-0.168519 -0.046245 0.823000 10519942
-0.168929 -0.041643 0.825000 9794692
-0.169338 -0.037018 0.827000 10716808
-0.170157 -0.032449 0.831000 10388876
-0.170567 -0.027767 0.833000 9191787
-0.170976 -0.023062 0.835000 9728097
-0.171795 -0.018378 0.839000 10519693
-0.172614 -0.013649 0.843000 10256016
-0.173024 -0.008852 0.845000 10388362
-0.173638 -0.004038 0.848000 10059398
-0.174457 0.000811 0.852000 8740747
-0.174457 -0.092552 0.860000 15197431
-0.172429 -0.086619 0.850000 14998768
-0.170603 -0.080896 0.841000 15130097
-0.168980 -0.075367 0.833000 15064817
-0.166951 -0.069759 0.823000 14999541
-0.165734 -0.064582 0.817000 12102346
-0.165734 -0.059913 0.817000 10651023
-0.165734 -0.055245 0.817000 10522003
-0.166140 -0.050700 0.819000 10189706
-0.166546 -0.046132 0.821000 10191753
-0.167357 -0.041643 0.825000 9992839
-0.167763 -0.037018 0.827000 10717067
-0.168574 -0.032449 0.831000 10586764
-0.168980 -0.027767 0.833000 9267069
-0.169386 -0.023062 0.835000 9731705
-0.170197 -0.018378 0.839000 10585485
-0.170603 -0.013616 0.841000 10519438
-0.171414 -0.008852 0.845000 10388619
-0.172023 -0.004038 0.848000 9402758
-0.172834 0.000811 0.852000 7098726
-0.172015 -0.092122 0.856000 15065080
-0.170408 -0.086415 0.848000 14998512
-0.168197 -0.080511 0.837000 15130097
-0.166991 -0.075186 0.831000 14998769
-0.165384 -0.069759 0.823000 14473718
-0.164580 -0.064740 0.819000 11905217
-0.164178 -0.059913 0.817000 10651534
-0.164580 -0.055380 0.819000 10588819
-0.164982 -0.050824 0.821000 10388114
-0.165384 -0.046245 0.823000 10192013
-0.165786 -0.041643 0.825000 10190730
-0.166188 -0.037018 0.827000 10848398
-0.166991 -0.032449 0.831000 10717836
-0.167393 -0.027767 0.833000 10193296
-0.168197 -0.023117 0.837000 10323600
-0.169001 -0.018422 0.841000 10716814
-0.169001 -0.013616 0.841000 10585484
-0.169403 -0.008831 0.843000 10454157
-0.170408 -0.004038 0.848000 9596294
-0.170810 0.000810 0.850000 7810881
-0.170385 -0.092122 0.856000 14935025
-0.168792 -0.086415 0.848000 14998768
-0.166603 -0.080511 0.837000 15129841
-0.165409 -0.075186 0.831000 14933233
-0.163816 -0.069759 0.823000 13949935
-0.163020 -0.064740 0.819000 11705529
-0.162622 -0.059913 0.817000 10717334
-0.163020 -0.055380 0.819000 10653591
-0.163816 -0.050948 0.823000 10651281
-0.164214 -0.046357 0.825000 10192527
-0.164612 -0.041744 0.827000 10453133
-0.165010 -0.037108 0.829000 10914448
-0.165807 -0.032527 0.833000 10848911
-0.166205 -0.027833 0.835000 11111313
-0.166603 -0.023117 0.837000 10914192
-0.167399 -0.018422 0.841000 10847887
-0.167797 -0.013649 0.843000 10651276
-0.168195 -0.008852 0.845000 10454156
-0.168792 -0.004038 0.848000 9865097
-0.169190 0.000810 0.850000 8538980
-0.168360 -0.091907 0.854000 14867689
-0.167177 -0.086415 0.848000 14998769
-0.165009 -0.080511 0.837000 15064561
-0.163431 -0.075005 0.829000 15064306
-0.162249 -0.069759 0.823000 13814503
-0.161460 -0.064740 0.819000 11440560
-0.161460 -0.060060 0.819000 10849438
-0.161854 -0.055515 0.821000 10784667
-0.162249 -0.050948 0.823000 10717840
-0.162643 -0.046357 0.825000 10323345
-0.163037 -0.041744 0.827000 10585743
-0.163431 -0.037108 0.829000 10980242
-0.164220 -0.032527 0.833000 10914706
-0.164614 -0.027833 0.835000 11045521
-0.165009 -0.023117 0.837000 10914192
-0.165797 -0.018422 0.841000 10848399
-0.165797 -0.013616 0.841000 10652299
-0.167177 -0.008884 0.848000 10322828
-0.167177 -0.004038 0.848000 10257291
-0.167966 0.000811 0.852000 9724552
-0.166343 -0.091691 0.852000 14801387
-0.165562 -0.086415 0.848000 14999281
-0.163024 -0.080319 0.835000 14999023
-0.161852 -0.075005 0.829000 15130609
-0.160681 -0.069759 0.823000 13614811
-0.159900 -0.064740 0.819000 11113645
-0.159900 -0.060060 0.819000 11047326
-0.160681 -0.055650 0.823000 10849949
-0.161071 -0.051071 0.825000 10783894
-0.161462 -0.046470 0.827000 10389140
-0.161852 -0.041845 0.829000 10783637
-0.162243 -0.037197 0.831000 10980757
-0.162633 -0.032527 0.833000 10980755
-0.163024 -0.027833 0.835000 10980498
-0.163805 -0.023172 0.839000 10979987
-0.164195 -0.018422 0.841000 10848657
-0.164586 -0.013649 0.843000 10653075
-0.165562 -0.008884 0.848000 10123638
-0.165952 -0.004048 0.850000 10717325
-0.164720 -0.091691 0.852000 14538733
-0.163367 -0.086110 0.845000 14999281
-0.161433 -0.080319 0.835000 14735085
-0.160660 -0.075186 0.831000 15327984
-0.159113 -0.069759 0.823000 13220303
-0.158727 -0.064898 0.821000 11177899
-0.158727 -0.060207 0.821000 11178654
-0.159113 -0.055650 0.823000 10979231
-0.159500 -0.051071 0.825000 10850204
-0.160273 -0.046582 0.829000 10192535
-0.160660 -0.041946 0.831000 10850203
-0.160660 -0.037197 0.831000 11112343
-0.161047 -0.032527 0.833000 10981011
-0.161820 -0.027900 0.837000 10981267
-0.162593 -0.023228 0.841000 11046038
-0.162980 -0.018466 0.843000 10914450
-0.162980 -0.013649 0.843000 10187930
-0.163947 -0.008884 0.848000 9658207
-0.164333 -0.004048 0.850000 10782862
-0.162714 -0.091476 0.850000 14341861
-0.161374 -0.085906 0.843000 14931949
-0.159843 -0.080319 0.835000 14536436
-0.158694 -0.075005 0.829000 15459828
-0.157929 -0.069929 0.825000 12892878
-0.157546 -0.065056 0.823000 11244714
-0.157546 -0.060353 0.823000 11309480
-0.157929 -0.055786 0.825000 11112096
-0.158311 -0.051195 0.827000 10982298
-0.158694 -0.046582 0.829000 9930649
-0.159460 -0.042047 0.833000 10918041
-0.159460 -0.037287 0.833000 11178393
-0.159843 -0.032605 0.835000 11047064
-0.160226 -0.027900 0.837000 10916503
-0.160991 -0.023228 0.841000 11111832
-0.161374 -0.018466 0.843000 10980500
-0.161374 -0.013649 0.843000 9726618
-0.162714 -0.008905 0.850000 9202022
-0.162714 -0.004048 0.850000 10914193
-0.161095 -0.091476 0.850000 14010076
-0.159390 -0.085702 0.841000 14929641
-0.158252 -0.080319 0.835000 15590138
-0.157115 -0.075005 0.829000 15395833
-0.156357 -0.069929 0.825000 12693197
-0.156357 -0.065214 0.825000 11573418
-0.156357 -0.060500 0.825000 11442866
-0.156736 -0.055921 0.827000 11440289
-0.156736 -0.051195 0.827000 11113624
-0.157494 -0.046694 0.831000 10323611
-0.157873 -0.042047 0.833000 10716055
-0.157873 -0.037287 0.833000 11244699
-0.158252 -0.032605 0.835000 11113373
-0.159010 -0.027967 0.839000 10786715
-0.159390 -0.023228 0.841000 11177882
-0.159769 -0.018466 0.843000 11046550
-0.160148 -0.013681 0.845000 9858201
-0.161095 -0.008905 0.850000 10187885
-0.161095 -0.004048 0.850000 10979988
-0.157412 -0.085498 0.839000 14934515
-0.156662 -0.080319 0.835000 16645884
-0.155911 -0.075186 0.831000 15262712
-0.155161 -0.070098 0.827000 12493000
-0.155161 -0.065372 0.827000 11837627
-0.155161 -0.060647 0.827000 11576499
-0.155536 -0.056056 0.829000 11769771
-0.155536 -0.051319 0.829000 11245980
-0.156287 -0.046807 0.833000 10652060
-0.156287 -0.042047 0.833000 10578806
-0.156287 -0.037287 0.833000 11309200
-0.157037 -0.032683 0.837000 11245473
-0.157788 -0.028033 0.841000 10583424
-0.158163 -0.023283 0.843000 11178655
-0.158538 -0.018510 0.845000 11112601
-0.159101 -0.013730 0.848000 9930905
-0.159476 -0.008905 0.850000 11108227
-0.159476 -0.004048 0.850000 11045782
-0.156186 -0.085702 0.841000 15596542
-0.155443 -0.080511 0.837000 16580350
-0.154329 -0.075186 0.831000 14868471
-0.153957 -0.070268 0.829000 12690883
-0.153957 -0.065530 0.829000 12496588
-0.154329 -0.060940 0.831000 11968435
-0.154329 -0.056191 0.831000 12100788
-0.153957 -0.051319 0.829000 11309472
-0.154700 -0.046807 0.833000 11440797
-0.155071 -0.042148 0.835000 10374741
-0.155071 -0.037376 0.835000 11638916
-0.155814 -0.032761 0.839000 10916005
-0.156557 -0.028100 0.843000 9458020
-0.156557 -0.023283 0.843000 11308964
-0.157486 -0.018575 0.848000 11243933
-0.157486 -0.013730 0.848000 10653080
-0.157857 -0.008905 0.850000 11178138
-0.157857 -0.004048 0.850000 11111575
-0.154584 -0.085702 0.841000 16178383
-0.153481 -0.080319 0.835000 16514802
-0.153113 -0.075367 0.833000 14404585
-0.152378 -0.070268 0.829000 12824270
-0.152378 -0.065530 0.829000 13088211
-0.152746 -0.060940 0.831000 12360896
-0.153113 -0.056327 0.833000 12365254
-0.153113 -0.051567 0.833000 11439269
-0.153481 -0.046919 0.835000 12163498
-0.153481 -0.042148 0.835000 10251912
-0.153481 -0.037376 0.835000 11966875
-0.154584 -0.032839 0.841000 10590635
-0.154951 -0.028100 0.843000 8275068
-0.155319 -0.023338 0.845000 11377832
-0.156238 -0.018619 0.850000 11375520
-0.156238 -0.013762 0.850000 11375515
-0.156606 -0.008926 0.852000 11178651
-0.156606 -0.004057 0.852000 11177369
-0.151890 -0.080319 0.835000 14799845
-0.151163 -0.075186 0.831000 14075612
-0.151163 -0.070437 0.831000 13354201
-0.151163 -0.065689 0.831000 13351642
-0.151527 -0.061087 0.833000 13023180
-0.151890 -0.056462 0.835000 12827608
-0.152982 -0.052062 0.841000 11765674
-0.152254 -0.047031 0.837000 12298422
-0.152254 -0.042249 0.837000 11441338
-0.152618 -0.037555 0.839000 12099762
-0.153346 -0.032917 0.843000 11114928
-0.153710 -0.028167 0.845000 9386132
-0.154255 -0.023421 0.848000 11508396
-0.154619 -0.018619 0.850000 11441572
-0.154983 -0.013794 0.852000 11441565
-0.154983 -0.008926 0.852000 11309725
-0.154983 -0.004057 0.852000 11178139
-0.149940 -0.080127 0.833000 13084060
-0.149580 -0.075186 0.831000 13676486
-0.149580 -0.070437 0.831000 13945050
-0.149940 -0.065847 0.833000 13612750
-0.150300 -0.061233 0.835000 13681100
-0.150660 -0.056597 0.837000 13216707
-0.151380 -0.052062 0.841000 12154282
-0.151740 -0.047369 0.843000 12366529
-0.151380 -0.042450 0.841000 12627647
-0.151740 -0.037734 0.843000 12232122
-0.152100 -0.032995 0.845000 11707570
-0.152640 -0.028267 0.848000 10453412
-0.153000 -0.023476 0.850000 11639722
-0.153360 -0.018663 0.852000 11442086
-0.153360 -0.013794 0.852000 11507362
-0.153360 -0.008926 0.852000 11376034
-0.153720 -0.004067 0.854000 11178655
-0.148353 -0.080127 0.833000 12026194
-0.148353 -0.075367 0.833000 12947887
-0.147997 -0.070437 0.831000 13351386
-0.148353 -0.065847 0.833000 13085635
-0.149066 -0.061380 0.837000 12954059
-0.149066 -0.056597 0.837000 12749231
-0.150134 -0.052186 0.843000 12357546
-0.150490 -0.047481 0.845000 12892876
-0.150134 -0.042551 0.843000 12694211
-0.150490 -0.037824 0.845000 12365506
-0.151025 -0.033112 0.848000 12100787
-0.151381 -0.028333 0.850000 11576500
-0.151737 -0.023531 0.852000 11771560
-0.152093 -0.018707 0.854000 11442601
-0.152093 -0.013827 0.854000 11639206
-0.152093 -0.008947 0.854000 11377064
-0.152450 -0.004076 0.856000 11244963
-0.146767 -0.075367 0.833000 12226448
-0.146767 -0.070607 0.833000 12756901
-0.147824 -0.061527 0.839000 12230576
-0.148176 -0.056868 0.841000 12289963
-0.148529 -0.052186 0.843000 12623548
-0.148881 -0.047481 0.845000 13418966
-0.148881 -0.042652 0.845000 12759223
-0.149762 -0.038048 0.850000 12495287
-0.150114 -0.033269 0.852000 12495034
-0.150467 -0.028467 0.854000 12625594
-0.150467 -0.023587 0.854000 11837352
-0.150819 -0.018750 0.856000 11439782
-0.150819 -0.013859 0.856000 11836327
-0.150819 -0.008968 0.856000 11308445
-0.146226 -0.061527 0.839000 12359061
-0.146574 -0.056868 0.841000 12489383
-0.146923 -0.052186 0.843000 13219021
-0.147794 -0.047650 0.848000 14077665
-0.147794 -0.042804 0.848000 12622250
-0.148840 -0.038227 0.854000 12492717
-0.148840 -0.033347 0.854000 12693696
-0.149189 -0.028533 0.856000 12692929
-0.149189 -0.023642 0.856000 11438503
-0.149189 -0.018750 0.856000 11497380
-0.149537 -0.013891 0.858000 12034216
-0.149537 -0.008989 0.858000 11037586
-0.144972 -0.056868 0.841000 12687783
-0.145317 -0.052186 0.843000 13810368
-0.146179 -0.047650 0.848000 14731733
-0.146524 -0.042905 0.850000 12556740
-0.147213 -0.038227 0.854000 12499143
-0.147903 -0.033503 0.858000 12957901
-0.147903 -0.028600 0.858000 12693198
-0.148248 -0.023752 0.860000 11103668
-0.148248 -0.018838 0.860000 11506869
-0.148248 -0.013924 0.860000 12231348
-0.148248 -0.009010 0.860000 10715043
-0.144905 -0.047762 0.850000 14204105
-0.144905 -0.042905 0.850000 13418462
-0.145928 -0.038316 0.856000 13425634
-0.146610 -0.033581 0.860000 13616345
-0.146610 -0.028667 0.860000 13350107
-0.146610 -0.023752 0.860000 12360896
-0.146950 -0.018882 0.862000 12302791
-0.147462 -0.014005 0.865000 12364480
-0.144971 -0.033581 0.860000 14272729
-0.144971 -0.028667 0.860000 14010079
-0.145309 -0.023808 0.862000 13616336
-0.145309 -0.018882 0.862000 13085107
-0.145814 -0.014005 0.865000 12497359
-0.143333 -0.028667 0.860000 14274786
-0.143667 -0.023808 0.862000 13746400
-0.144167 -0.018948 0.865000 12352160
-0.144167 -0.014005 0.865000 13153757
-0.142025 -0.023808 0.862000 13945302
-0.142519 -0.018948 0.865000 11641278
-0.140871 -0.018948 0.865000 13358045
-0.225557 -0.064106 0.831000 13082531
-0.224513 -0.064260 0.833000 12163747
-0.223974 -0.059357 0.831000 12290207
-0.223997 -0.069351 0.837000 12630490
-0.222927 -0.064260 0.833000 11243953
-0.222391 -0.059357 0.831000 11374238
-0.222403 -0.069351 0.837000 14145782
-0.221340 -0.064260 0.833000 11838398
-0.220277 -0.059214 0.829000 11243166
-0.220277 -0.054477 0.829000 11570046
-0.222391 -0.074666 0.843000 15721972
-0.220809 -0.069351 0.837000 15590133
-0.219753 -0.064260 0.833000 12499157
-0.218170 -0.059071 0.827000 11111068
-0.218170 -0.054346 0.827000 10976389
-0.220786 -0.074666 0.843000 15327218
-0.218690 -0.069186 0.835000 15327220
-0.217643 -0.064106 0.831000 13157867
-0.216071 -0.058929 0.825000 10914715
-0.215548 -0.054083 0.823000 10649228
-0.216595 -0.049620 0.827000 12029073
-0.217643 -0.045111 0.831000 12689574
-0.219214 -0.040654 0.837000 13413547
-0.221000 -0.080143 0.850000 15458283
-0.218660 -0.074489 0.841000 14932977
-0.217100 -0.069186 0.835000 14999026
-0.216060 -0.064106 0.831000 13752817
-0.213980 -0.058786 0.823000 10653608
-0.213460 -0.053951 0.821000 10387595
-0.214500 -0.049500 0.825000 10649996
-0.215540 -0.045003 0.829000 11901591
-0.217100 -0.040557 0.835000 13410975
-0.218660 -0.036043 0.841000 13807786
-0.219381 -0.080143 0.850000 15195891
-0.217058 -0.074489 0.841000 14933232
-0.215510 -0.069186 0.835000 14998768
-0.214477 -0.064106 0.831000 14211831
-0.212412 -0.058786 0.823000 10391220
-0.211896 -0.053951 0.821000 10322314
-0.212412 -0.049380 0.823000 10254472
-0.213961 -0.045003 0.829000 11176584
-0.215510 -0.040557 0.835000 12161427
-0.216542 -0.035957 0.839000 13018269
-0.218865 -0.031497 0.848000 13478571
-0.218274 -0.085200 0.852000 13880528
-0.217762 -0.080143 0.850000 14933490
-0.215456 -0.074489 0.841000 14867696
-0.213919 -0.069186 0.835000 14933232
-0.212382 -0.063951 0.829000 14608375
-0.210332 -0.058643 0.821000 10128311
-0.210332 -0.053951 0.821000 10322314
-0.210845 -0.049380 0.823000 9862023
-0.211870 -0.044894 0.827000 10519944
-0.212894 -0.040363 0.831000 10913165
-0.214944 -0.035957 0.839000 12294288
-0.216481 -0.031386 0.845000 13477282
-0.217250 -0.026651 0.848000 13806499
-0.216651 -0.085200 0.852000 14406891
-0.216143 -0.080143 0.850000 14932977
-0.213854 -0.074489 0.841000 14867440
-0.212329 -0.069186 0.835000 14933232
-0.210803 -0.063951 0.829000 14803191
-0.208260 -0.058500 0.819000 10124987
-0.208260 -0.053820 0.819000 10322058
-0.208769 -0.049260 0.821000 9599622
-0.210294 -0.044894 0.827000 10388359
-0.211311 -0.040363 0.831000 10386056
-0.212837 -0.035871 0.837000 11307906
-0.214363 -0.031311 0.843000 12293016
-0.214871 -0.026557 0.845000 13017240
-0.215029 -0.085200 0.852000 14870257
-0.214019 -0.079954 0.848000 14933232
-0.212252 -0.074489 0.841000 14867696
-0.211243 -0.069351 0.837000 14933232
-0.208719 -0.063797 0.827000 14999798
-0.206700 -0.058500 0.819000 10130880
-0.206700 -0.053820 0.819000 10321286
-0.207205 -0.049260 0.821000 9272449
-0.208214 -0.044786 0.825000 10322564
-0.209224 -0.040266 0.829000 9861764
-0.210738 -0.035786 0.835000 10389637
-0.212757 -0.031311 0.843000 11109756
-0.213262 -0.026557 0.845000 12226959
-0.213262 -0.021729 0.845000 13543329
-0.213406 -0.085200 0.852000 14999799
-0.212404 -0.079954 0.848000 14933232
-0.210650 -0.074489 0.841000 14933231
-0.209148 -0.069186 0.835000 14933488
-0.207144 -0.063797 0.827000 14999285
-0.205140 -0.058500 0.819000 10458310
-0.205140 -0.053820 0.819000 10190465
-0.205140 -0.049140 0.819000 9534332
-0.206142 -0.044677 0.823000 10256256
-0.207645 -0.040266 0.829000 9992576
-0.208647 -0.035700 0.833000 9859976
-0.210650 -0.031237 0.841000 10384992
-0.211151 -0.026494 0.843000 11242117
-0.211652 -0.021729 0.845000 11310475
-0.212777 -0.090491 0.856000 12954548
-0.212280 -0.085400 0.854000 15130869
-0.211286 -0.080143 0.850000 14933232
-0.209049 -0.074489 0.841000 14933233
-0.207060 -0.069020 0.833000 14933489
-0.205569 -0.063797 0.827000 14999797
-0.203580 -0.058500 0.819000 10723781
-0.203083 -0.053689 0.817000 10124160
-0.203580 -0.049140 0.819000 9796222
-0.204077 -0.044569 0.821000 10255999
-0.205569 -0.040169 0.827000 10057858
-0.206563 -0.035614 0.831000 9337218
-0.208551 -0.031163 0.839000 9662822
-0.209546 -0.026494 0.843000 10192520
-0.209546 -0.021677 0.843000 9006446
-0.210789 -0.016960 0.848000 11964566
-0.213274 -0.007354 0.858000 13216166
-0.211640 -0.090703 0.858000 13744059
-0.210653 -0.085400 0.854000 15065074
-0.209667 -0.080143 0.850000 15064304
-0.207447 -0.074489 0.841000 14999026
-0.204980 -0.068854 0.831000 15064305
-0.203500 -0.063643 0.825000 14999284
-0.201527 -0.058357 0.817000 10787012
-0.201033 -0.053557 0.815000 10124670
-0.201527 -0.049020 0.817000 9796225
-0.202513 -0.044569 0.821000 10255998
-0.203500 -0.040071 0.825000 10057348
-0.204487 -0.035529 0.829000 9533308
-0.205967 -0.031014 0.835000 9656939
-0.207447 -0.026431 0.841000 10323338
-0.207940 -0.021677 0.843000 8794449
-0.209173 -0.016960 0.848000 11107977
-0.211640 -0.007354 0.858000 12360613
-0.210006 -0.090703 0.858000 14533830
-0.209027 -0.085400 0.854000 14999025
-0.208048 -0.080143 0.850000 15130097
-0.205845 -0.074489 0.841000 15064541
-0.203397 -0.068854 0.831000 15130098
-0.201929 -0.063643 0.825000 15065076
-0.199970 -0.058357 0.817000 10855365
-0.199236 -0.053491 0.814000 10124414
-0.199481 -0.048900 0.815000 9796225
-0.200460 -0.044460 0.819000 10321533
-0.201929 -0.040071 0.825000 10058622
-0.202908 -0.035529 0.829000 9795454
-0.203887 -0.030940 0.833000 9663097
-0.204866 -0.026306 0.837000 10519688
-0.205845 -0.021626 0.841000 8548453
-0.206824 -0.016900 0.845000 10253188
-0.209516 -0.007337 0.856000 11440277
-0.210495 -0.002457 0.860000 12491157
-0.208857 -0.090914 0.860000 14867666
-0.207886 -0.085600 0.856000 14933232
-0.206429 -0.080143 0.850000 15064818
-0.204243 -0.074489 0.841000 14269127
-0.201814 -0.068854 0.831000 15064818
-0.200357 -0.063643 0.825000 15064819
-0.198414 -0.058357 0.817000 10919110
-0.197686 -0.053491 0.814000 10124926
-0.197929 -0.048900 0.815000 9664897
-0.198900 -0.044460 0.819000 10124412
-0.200357 -0.040071 0.825000 10256249
-0.201329 -0.035529 0.829000 9858687
-0.202300 -0.030940 0.833000 9994118
-0.203271 -0.026306 0.837000 10584709
-0.204243 -0.021626 0.841000 9470074
-0.205214 -0.016900 0.845000 10319743
-0.207400 -0.012200 0.854000 10716552
-0.207886 -0.007337 0.856000 10979204
-0.208857 -0.002457 0.860000 11503238
-0.207219 -0.090914 0.860000 15194842
-0.206255 -0.085600 0.856000 14932976
-0.204328 -0.079954 0.848000 14998762
-0.202641 -0.074489 0.841000 13466062
-0.200231 -0.068854 0.831000 14933747
-0.198786 -0.063643 0.825000 15065331
-0.196376 -0.058214 0.815000 10921157
-0.196376 -0.053557 0.815000 10124161
-0.196858 -0.049020 0.817000 9468544
-0.197340 -0.044460 0.819000 9927034
-0.198786 -0.040071 0.825000 10387576
-0.199268 -0.035443 0.827000 9985375
-0.200231 -0.030866 0.831000 10322301
-0.201195 -0.026243 0.835000 10649732
-0.202159 -0.021574 0.839000 10387324
-0.203123 -0.016860 0.843000 10387073
-0.204328 -0.012114 0.848000 10716040
-0.205773 -0.007320 0.854000 10585478
-0.206737 -0.002451 0.858000 10519687
-0.205103 -0.090703 0.858000 15195875
-0.204147 -0.085400 0.854000 14998512
-0.202712 -0.079954 0.848000 14802147
-0.200561 -0.074311 0.839000 13544917
-0.198170 -0.068689 0.829000 14998516
-0.197214 -0.063643 0.825000 15065075
-0.194824 -0.058214 0.815000 10917317
-0.194824 -0.053557 0.815000 10058628
-0.194824 -0.048900 0.815000 9665152
-0.195780 -0.044460 0.819000 9927544
-0.196736 -0.039974 0.823000 9011320
-0.197692 -0.035443 0.827000 9326398
-0.198649 -0.030866 0.831000 10191221
-0.199605 -0.026243 0.835000 10387331
-0.200561 -0.021574 0.839000 10387583
-0.201517 -0.016860 0.843000 10321794
-0.201995 -0.012071 0.845000 10584457
-0.203669 -0.007303 0.852000 10388360
-0.205103 -0.002451 0.858000 10518920
-0.203469 -0.090703 0.858000 15129576
-0.202520 -0.085400 0.854000 14999027
-0.201097 -0.079954 0.848000 14602472
-0.198963 -0.074311 0.839000 13676247
-0.196591 -0.068689 0.829000 14999791
-0.195643 -0.063643 0.825000 15064564
-0.193271 -0.058214 0.815000 10920131
-0.193034 -0.053491 0.814000 9991297
-0.193271 -0.048900 0.815000 9796227
-0.194220 -0.044460 0.819000 9993340
-0.195169 -0.039974 0.823000 7626862
-0.196117 -0.035443 0.827000 8667215
-0.196591 -0.030791 0.829000 10057840
-0.197540 -0.026180 0.833000 10190725
-0.198489 -0.021523 0.837000 10321795
-0.199911 -0.016860 0.843000 10322051
-0.200386 -0.012071 0.845000 10453638
-0.202046 -0.007303 0.852000 10255724
-0.202994 -0.002446 0.856000 10518914
-0.202305 -0.090914 0.860000 15130606
-0.201364 -0.085600 0.856000 15065589
-0.199482 -0.079954 0.848000 14276846
-0.197365 -0.074311 0.839000 13743576
-0.195012 -0.068689 0.829000 14999787
-0.194071 -0.063643 0.825000 15064820
-0.191719 -0.058214 0.815000 10851521
-0.191484 -0.053491 0.814000 9926525
-0.191719 -0.048900 0.815000 9927813
-0.192660 -0.044460 0.819000 9139584
-0.193130 -0.039877 0.821000 7091043
-0.194542 -0.035443 0.827000 8671327
-0.195483 -0.030866 0.831000 10190444
-0.195953 -0.026180 0.833000 10059910
-0.196894 -0.021523 0.837000 10190727
-0.197835 -0.016820 0.841000 10321795
-0.198306 -0.012043 0.843000 10584964
-0.199952 -0.007286 0.850000 9984591
-0.200893 -0.002440 0.854000 10453117
-0.200667 -0.090914 0.860000 15065840
-0.199733 -0.085600 0.856000 15066102
-0.197167 -0.079671 0.845000 13937109
-0.195300 -0.074134 0.837000 13806779
-0.193433 -0.068689 0.829000 14998763
-0.192500 -0.063643 0.825000 15065845
-0.190167 -0.058214 0.815000 10723263
-0.189933 -0.053491 0.814000 9926013
-0.190167 -0.048900 0.815000 10059139
-0.191100 -0.044460 0.819000 8354177
-0.191567 -0.039877 0.821000 6572898
-0.192500 -0.035357 0.825000 8736091
-0.193433 -0.030791 0.829000 10252651
-0.194367 -0.026180 0.833000 9863301
-0.195300 -0.021523 0.837000 9987696
-0.196233 -0.016820 0.841000 10321795
-0.196700 -0.012043 0.843000 10649730
-0.197867 -0.007269 0.848000 9709637
-0.199267 -0.002440 0.854000 10321530
-0.199733 0.002446 0.856000 9788287
-0.199029 -0.090914 0.860000 14999539
-0.197640 -0.085400 0.854000 14538486
-0.195557 -0.079671 0.845000 13401532
-0.193706 -0.074134 0.837000 13475229
-0.191854 -0.068689 0.829000 15131371
-0.190466 -0.063489 0.823000 14999797
-0.188614 -0.058214 0.815000 10720446
-0.188383 -0.053491 0.814000 9926268
-0.188614 -0.048900 0.815000 10257024
-0.189540 -0.044460 0.819000 9008770
-0.190003 -0.039877 0.821000 7556960
-0.190466 -0.035271 0.823000 8275543
-0.191854 -0.030791 0.829000 8873323
-0.192780 -0.026180 0.833000 9861252
-0.193243 -0.021471 0.835000 8269913
-0.194169 -0.016780 0.839000 10255490
-0.194631 -0.012014 0.841000 10452865
-0.196251 -0.007269 0.848000 9849658
-0.197640 -0.002440 0.854000 10452599
-0.198103 0.002446 0.856000 9923717
-0.197390 -0.090914 0.860000 14868466
-0.196013 -0.085400 0.854000 14016502
-0.193948 -0.079671 0.845000 12879553
-0.192111 -0.074134 0.837000 13151402
-0.189816 -0.068523 0.827000 15262448
-0.188439 -0.063334 0.821000 14935030
-0.187062 -0.058214 0.815000 10656701
-0.186832 -0.053491 0.814000 9926526
-0.187062 -0.048900 0.815000 10387072
-0.187980 -0.044460 0.819000 9666175
-0.188439 -0.039877 0.821000 8472920
-0.188898 -0.035271 0.823000 7816021
-0.189816 -0.030717 0.827000 7493729
-0.190734 -0.026117 0.831000 9863561
-0.191652 -0.021471 0.835000 6568274
-0.192111 -0.016740 0.837000 10191233
-0.193030 -0.012014 0.841000 10256000
-0.193948 -0.007243 0.845000 10050401
-0.195554 -0.002434 0.852000 10583417
-0.196013 0.002440 0.854000 10124932
-0.195752 -0.090914 0.860000 14933234
-0.194387 -0.085400 0.854000 14080246
-0.192338 -0.079671 0.845000 13537990
-0.190517 -0.074134 0.837000 13744055
-0.187786 -0.068357 0.825000 15262197
-0.186875 -0.063334 0.821000 14868726
-0.185510 -0.058214 0.815000 10458300
-0.185282 -0.053491 0.814000 9992320
-0.185510 -0.048900 0.815000 10124928
-0.185965 -0.044351 0.817000 9795963
-0.186875 -0.039877 0.821000 8271184
-0.187330 -0.035271 0.823000 8275795
-0.188241 -0.030717 0.827000 8411480
-0.188696 -0.026054 0.829000 10125198
-0.190062 -0.021471 0.835000 7485002
-0.190517 -0.016740 0.837000 10057856
-0.190972 -0.011986 0.839000 10255999
-0.192338 -0.007243 0.845000 10122119
-0.193476 -0.002429 0.850000 10386812
-0.194387 0.002440 0.854000 10255747
-0.194114 -0.090914 0.860000 14933747
-0.192760 -0.085400 0.854000 14146545
-0.190729 -0.079671 0.845000 14128573
-0.188471 -0.073957 0.835000 14397887
-0.186214 -0.068357 0.825000 15197172
-0.185311 -0.063334 0.821000 14803447
-0.183957 -0.058214 0.815000 10194872
-0.183731 -0.053491 0.814000 10058114
-0.183731 -0.048840 0.814000 9862273
-0.184409 -0.044351 0.817000 9993340
-0.185311 -0.039877 0.821000 8078167
-0.185763 -0.035271 0.823000 8735830
-0.186666 -0.030717 0.827000 9263446
-0.187569 -0.026117 0.831000 10388362
-0.188020 -0.021420 0.833000 8410726
-0.188923 -0.016740 0.837000 9929089
-0.189374 -0.011986 0.839000 10190207
-0.190729 -0.007243 0.845000 10124931
-0.191857 -0.002429 0.850000 10189946
-0.192760 0.002440 0.854000 10320763
-0.192476 -0.090914 0.860000 14999029
-0.191133 -0.085400 0.854000 13548524
-0.188671 -0.079483 0.843000 13804212
-0.186881 -0.073957 0.835000 14267078
-0.184643 -0.068357 0.825000 15064820
-0.183748 -0.063334 0.821000 14408696
-0.182405 -0.058214 0.815000 10256820
-0.182181 -0.053491 0.814000 10123908
-0.182405 -0.048900 0.815000 9665155
-0.182852 -0.044351 0.817000 9861757
-0.183748 -0.039877 0.821000 8336478
-0.184643 -0.035357 0.825000 8670809
-0.185090 -0.030717 0.827000 8276821
-0.185986 -0.026117 0.831000 9858949
-0.186881 -0.021471 0.835000 9467778
-0.187329 -0.016740 0.837000 10059137
-0.187776 -0.011986 0.839000 10189952
-0.189119 -0.007243 0.845000 10189950
-0.190238 -0.002429 0.850000 10255479
-0.191133 0.002440 0.854000 9530483
-0.190838 -0.090914 0.860000 14999797
-0.189507 -0.085400 0.854000 12949727
-0.187066 -0.079483 0.843000 13404601
-0.185290 -0.073957 0.835000 14072786
-0.183071 -0.068357 0.825000 14868211
-0.181740 -0.063180 0.819000 14081781
-0.180852 -0.058214 0.815000 10324394
-0.180630 -0.053491 0.814000 10123910
-0.180630 -0.048840 0.814000 9469315
-0.181296 -0.044351 0.817000 9798272
-0.182184 -0.039877 0.821000 8601694
-0.183071 -0.035357 0.825000 8670297
-0.183515 -0.030717 0.827000 7227224
-0.184403 -0.026117 0.831000 9330804
-0.185290 -0.021471 0.835000 10452611
-0.185734 -0.016740 0.837000 10124163
-0.186178 -0.011986 0.839000 10124415
-0.187510 -0.007243 0.845000 10255491
-0.188619 -0.002429 0.850000 10253687
-0.189063 0.002434 0.852000 8804955
-0.189200 -0.090914 0.860000 15130102
-0.187880 -0.085400 0.854000 13281234
-0.185460 -0.079483 0.843000 13332927
-0.183700 -0.073957 0.835000 14207197
-0.181500 -0.068357 0.825000 14933234
-0.180180 -0.063180 0.819000 13816305
-0.179080 -0.058143 0.814000 10456225
