# .PCD v.7 - Point Cloud Data file format
VERSION .7
FIELDS x y z rgb
SIZE 4 4 4 4
TYPE F F F I
COUNT 1 1 1 1
WIDTH 1263
HEIGHT 1
POINTS 1263
DATA ascii
-0.047031 -0.085294 0.837000 14800624
-0.046132 -0.078972 0.821000 13149882
-0.044952 -0.072381 0.800000 13218000
-0.044840 -0.067640 0.798000 14997999
-0.044278 -0.062290 0.788000 15854325
-0.044166 -0.057640 0.786000 14208740
-0.044166 -0.053149 0.786000 13681889
-0.044334 -0.048843 0.789000 13153752
-0.044559 -0.044559 0.793000 13746902
-0.044671 -0.040129 0.795000 11700129
-0.044840 -0.035720 0.798000 11634578
-0.044952 -0.031238 0.800000 13418197
-0.045065 -0.026733 0.802000 12955846
-0.045290 -0.022261 0.806000 11239265
-0.045402 -0.017699 0.808000 13417660
-0.045627 -0.013147 0.812000 13022149
-0.045739 -0.008528 0.814000 11507656
-0.045795 -0.003881 0.815000 12495308
-0.046020 0.000780 0.819000 12694456
-0.046245 0.005487 0.823000 12560834
-0.045654 -0.090508 0.841000 14402760
-0.045329 -0.085090 0.835000 14865389
-0.044569 -0.078972 0.821000 12683953
-0.043537 -0.072562 0.802000 14268111
-0.043320 -0.067640 0.798000 14997483
-0.042777 -0.062290 0.788000 15984885
-0.042669 -0.057640 0.786000 14406374
-0.042669 -0.053149 0.786000 13879527
-0.042831 -0.048843 0.789000 13351383
-0.043049 -0.044559 0.793000 14204879
-0.043157 -0.040129 0.795000 10712233
-0.043320 -0.035720 0.798000 10910097
-0.043429 -0.031238 0.800000 13617337
-0.043429 -0.026667 0.800000 12825811
-0.043646 -0.022206 0.804000 9796967
-0.043863 -0.017699 0.808000 13809597
-0.043971 -0.013114 0.810000 13219023
-0.044189 -0.008528 0.814000 13087439
-0.044243 -0.003881 0.815000 13222097
-0.044460 0.000780 0.819000 12955069
-0.044677 0.005487 0.823000 12627910
-0.044052 -0.090508 0.841000 14469074
-0.043738 -0.085090 0.835000 14798569
-0.043005 -0.078972 0.821000 12486312
-0.042010 -0.072562 0.802000 14336206
-0.041748 -0.067555 0.797000 15063015
-0.041171 -0.062131 0.786000 15919349
-0.041171 -0.057640 0.786000 14471912
-0.041171 -0.053149 0.786000 14077422
-0.041329 -0.048843 0.789000 13483734
-0.041538 -0.044559 0.793000 13810121
-0.041643 -0.040129 0.795000 11567025
-0.041800 -0.035720 0.798000 11365777
-0.041905 -0.031238 0.800000 12755101
-0.041905 -0.026667 0.800000 13617631
-0.042114 -0.022206 0.804000 11039597
-0.042219 -0.017655 0.806000 13942975
-0.042429 -0.013114 0.810000 13482969
-0.042638 -0.008528 0.814000 13415895
-0.042690 -0.003881 0.815000 13352149
-0.042795 0.000778 0.817000 11575746
-0.043005 0.005473 0.821000 12891594
-0.042450 -0.090508 0.841000 14539991
-0.042047 -0.084887 0.833000 14667241
-0.041441 -0.078972 0.821000 12289980
-0.040785 -0.073105 0.808000 14333643
-0.040230 -0.067555 0.797000 15193577
-0.039674 -0.062131 0.786000 15789046
-0.039674 -0.057640 0.786000 14603242
-0.039674 -0.053149 0.786000 14274543
-0.039826 -0.048843 0.789000 13615578
-0.040028 -0.044559 0.793000 13411277
-0.040028 -0.040028 0.793000 12419755
-0.040230 -0.035675 0.797000 11760269
-0.040280 -0.031160 0.798000 11902128
-0.040381 -0.026667 0.800000 14338279
-0.040583 -0.022206 0.804000 12282280
-0.040684 -0.017655 0.806000 14074833
-0.040886 -0.013114 0.810000 13680604
-0.041088 -0.008528 0.814000 13680602
-0.041138 -0.003881 0.815000 13483224
-0.041138 0.000776 0.815000 10129339
-0.041340 0.005460 0.819000 13156813
-0.040849 -0.090508 0.841000 14537948
-0.040460 -0.084887 0.833000 14734826
-0.039877 -0.078972 0.821000 12885200
-0.039246 -0.073105 0.808000 14529736
-0.038711 -0.067555 0.797000 15194858
-0.038177 -0.062131 0.786000 15855096
-0.038177 -0.057640 0.786000 14669291
-0.038177 -0.053149 0.786000 14405615
-0.038274 -0.048781 0.788000 13812702
-0.038517 -0.044559 0.793000 13742289
-0.038517 -0.040028 0.793000 12616101
-0.038711 -0.035675 0.797000 11890826
-0.038760 -0.031160 0.798000 13086914
-0.038857 -0.026667 0.800000 14404847
-0.039051 -0.022206 0.804000 13545955
-0.039149 -0.017655 0.806000 14207460
-0.039246 -0.013082 0.808000 13878238
-0.039440 -0.008507 0.812000 13812958
-0.039537 -0.003876 0.814000 13483738
-0.039586 0.000776 0.815000 10382004
-0.039683 0.005447 0.817000 13153743
-0.039153 -0.090292 0.839000 14606561
-0.038873 -0.084887 0.833000 14799851
-0.038220 -0.078780 0.819000 13477828
-0.037520 -0.072743 0.804000 14725833
-0.037100 -0.067386 0.795000 15260140
-0.036680 -0.062131 0.786000 15855351
-0.036587 -0.057493 0.784000 14734829
-0.036680 -0.053149 0.786000 14537968
-0.036773 -0.048781 0.788000 14009057
-0.036913 -0.044447 0.791000 14066122
-0.037007 -0.040028 0.793000 12814515
-0.037193 -0.035675 0.797000 12020366
-0.037240 -0.031160 0.798000 14340814
-0.037333 -0.026667 0.800000 14471917
-0.037520 -0.022206 0.804000 14737384
-0.037613 -0.017655 0.806000 14339560
-0.037707 -0.013082 0.808000 14141924
-0.037893 -0.008507 0.812000 13944800
-0.037987 -0.003876 0.814000 13551327
-0.038033 0.000776 0.815000 10645423
-0.038127 0.005447 0.817000 13155538
-0.038220 0.010140 0.819000 13615320
-0.037555 -0.090292 0.839000 14668774
-0.037287 -0.084887 0.833000 14800365
-0.036660 -0.078780 0.819000 13277367
-0.035989 -0.072743 0.804000 14593483
-0.035496 -0.067216 0.793000 15326445
-0.035183 -0.062131 0.786000 15854327
-0.035093 -0.057493 0.784000 14800878
-0.035183 -0.053149 0.786000 14604273
-0.035272 -0.048781 0.788000 14141155
-0.035407 -0.044447 0.791000 13010884
-0.035496 -0.040028 0.793000 12749761
-0.035675 -0.035675 0.797000 11297170
-0.035720 -0.031160 0.798000 13878746
-0.035810 -0.026667 0.800000 14668523
-0.035899 -0.022150 0.802000 14735084
-0.036078 -0.017655 0.806000 14536940
-0.036168 -0.013082 0.808000 14405353
-0.036347 -0.008507 0.812000 14207715
-0.036436 -0.003876 0.814000 14010083
-0.036481 0.000776 0.815000 11487914
-0.036481 0.005433 0.815000 13680853
-0.035871 -0.090077 0.837000 14734824
-0.035614 -0.084683 0.831000 14734827
-0.035100 -0.078780 0.819000 13142451
-0.034457 -0.072743 0.804000 14402000
-0.033814 -0.066877 0.789000 15456492
-0.033686 -0.062131 0.786000 15854327
-0.033686 -0.057640 0.786000 14866159
-0.033686 -0.053149 0.786000 14670064
-0.033771 -0.048781 0.788000 14337766
-0.033900 -0.044447 0.791000 11897554
-0.033986 -0.040028 0.793000 12752577
-0.034157 -0.035675 0.797000 10513311
-0.034200 -0.031160 0.798000 13425124
-0.034286 -0.026667 0.800000 14800366
-0.034371 -0.022150 0.802000 14668527
-0.034543 -0.017655 0.806000 14669038
-0.034629 -0.013082 0.808000 14668234
-0.034714 -0.008486 0.810000 14471146
-0.034886 -0.003876 0.814000 14471142
-0.034929 0.000776 0.815000 12295115
-0.034929 0.005433 0.815000 14210782
-0.034277 -0.090077 0.837000 14668521
-0.034113 -0.084887 0.833000 14735082
-0.033540 -0.078780 0.819000 12620719
-0.033008 -0.072924 0.806000 14668245
-0.032311 -0.066877 0.789000 15391979
-0.032189 -0.062131 0.786000 15788279
-0.032189 -0.057640 0.786000 15064047
-0.032189 -0.053149 0.786000 14801136
-0.032270 -0.048781 0.788000 14404585
-0.032393 -0.044447 0.791000 13345249
-0.032475 -0.040028 0.793000 12356033
-0.032639 -0.035675 0.797000 11960236
-0.032680 -0.031160 0.798000 14408941
-0.032762 -0.026667 0.800000 15064305
-0.032844 -0.022150 0.802000 14866161
-0.032926 -0.017611 0.804000 14931952
-0.033090 -0.013082 0.808000 13413547
-0.033171 -0.008486 0.810000 14669297
-0.033253 -0.003867 0.812000 14536936
-0.033376 0.000776 0.815000 13618156
-0.033376 0.005433 0.815000 14405350
-0.032683 -0.090077 0.837000 14604522
-0.032449 -0.084683 0.831000 14668778
-0.031824 -0.078395 0.815000 12096977
-0.031472 -0.072924 0.806000 14861525
-0.030770 -0.066792 0.788000 15390187
-0.030691 -0.062131 0.786000 15723254
-0.030691 -0.057640 0.786000 15261424
-0.030770 -0.053284 0.788000 14867440
-0.030809 -0.048843 0.789000 14535400
-0.030965 -0.044559 0.793000 14733806
-0.031043 -0.040129 0.795000 11895502
-0.031121 -0.035675 0.797000 13343424
-0.031160 -0.031160 0.798000 15461364
-0.031238 -0.026667 0.800000 15261429
-0.031394 -0.022206 0.804000 15064050
-0.031472 -0.017655 0.806000 15194605
-0.031550 -0.013082 0.808000 12147890
-0.031629 -0.008486 0.810000 14863318
-0.031707 -0.003867 0.812000 14669036
-0.031785 0.000775 0.814000 14864877
-0.031824 0.005433 0.815000 14602218
-0.031089 -0.090077 0.837000 14538219
-0.030866 -0.084683 0.831000 14603242
-0.030271 -0.078395 0.815000 12625907
-0.029863 -0.072743 0.804000 14928853
-0.029269 -0.066792 0.788000 15523819
-0.029194 -0.062131 0.786000 15721718
-0.029194 -0.057640 0.786000 15327729
-0.029269 -0.053284 0.788000 14999024
-0.029306 -0.048843 0.789000 14864870
-0.029454 -0.044559 0.793000 15332603
-0.029529 -0.040129 0.795000 13284571
-0.029603 -0.035675 0.797000 12493269
-0.029640 -0.031160 0.798000 15262970
-0.029714 -0.026667 0.800000 15394553
-0.029863 -0.022206 0.804000 15130354
-0.029937 -0.017655 0.806000 15129322
-0.029937 -0.013050 0.806000 11885496
-0.030011 -0.008465 0.808000 14928316
-0.030160 -0.003867 0.812000 14800623
-0.030234 0.000775 0.814000 14864879
-0.030271 0.005433 0.815000 14668782
-0.029424 -0.089862 0.835000 14539243
-0.029212 -0.084479 0.829000 14472426
-0.028719 -0.078395 0.815000 13156848
-0.028190 -0.072381 0.800000 14996450
-0.027803 -0.066877 0.789000 15655406
-0.027697 -0.062131 0.786000 15723767
-0.027697 -0.057640 0.786000 15459826
-0.027768 -0.053284 0.788000 15064561
-0.027803 -0.048843 0.789000 15127015
-0.027944 -0.044559 0.793000 15919096
-0.028014 -0.040129 0.795000 14667229
-0.028085 -0.035675 0.797000 11649507
-0.028190 -0.031238 0.800000 15132919
-0.028190 -0.026667 0.800000 15452125
-0.028331 -0.022206 0.804000 15261941
-0.028331 -0.017611 0.804000 14997487
-0.028402 -0.013050 0.806000 11636427
-0.028543 -0.008486 0.810000 14930391
-0.028613 -0.003867 0.812000 14997232
-0.028684 0.000775 0.814000 14866674
-0.028719 0.005433 0.815000 14801138
-0.027767 -0.089647 0.833000 14603242
-0.027633 -0.084479 0.829000 14537963
-0.027167 -0.078395 0.815000 13946605
-0.026733 -0.072562 0.802000 14998767
-0.026300 -0.066877 0.789000 15722736
-0.026200 -0.062131 0.786000 15855096
-0.026267 -0.057787 0.788000 15591411
-0.026300 -0.053351 0.789000 15261682
-0.026367 -0.048967 0.791000 15259879
-0.026433 -0.044559 0.793000 15524085
-0.026500 -0.040129 0.795000 14534879
-0.026567 -0.035675 0.797000 13883890
-0.026667 -0.031238 0.800000 14209523
-0.026733 -0.026733 0.802000 12873153
-0.026800 -0.022206 0.804000 15394040
-0.026867 -0.017655 0.806000 15327732
-0.026933 -0.013082 0.808000 13482206
-0.027000 -0.008486 0.810000 15260915
-0.027067 -0.003867 0.812000 15063537
-0.027133 0.000775 0.814000 15065077
-0.027167 0.005433 0.815000 14999030
-0.026180 -0.089647 0.833000 14604009
-0.026054 -0.084479 0.829000 14603242
-0.025614 -0.078395 0.815000 14801132
-0.025143 -0.072381 0.800000 14932717
-0.024860 -0.067047 0.791000 15854838
-0.024703 -0.062131 0.786000 15921144
-0.024766 -0.057787 0.788000 15722739
-0.024797 -0.053351 0.789000 15459827
-0.024860 -0.048967 0.791000 15389676
-0.024923 -0.044559 0.793000 15130611
-0.024986 -0.040129 0.795000 14402022
-0.025080 -0.035720 0.798000 16050677
-0.025143 -0.031238 0.800000 13357792
-0.025206 -0.026733 0.802000 10318538
-0.025269 -0.022206 0.804000 15529721
-0.025331 -0.017655 0.806000 15590899
-0.025394 -0.013082 0.808000 15328234
-0.025457 -0.008486 0.810000 15524083
-0.025583 -0.003876 0.814000 15195377
-0.025583 0.000775 0.814000 15258081
-0.025614 0.005433 0.815000 15262444
-0.024593 -0.089647 0.833000 14537192
-0.024475 -0.084479 0.829000 14603242
-0.023914 -0.077914 0.810000 14734827
-0.023530 -0.072110 0.797000 14801131
-0.023294 -0.066877 0.789000 15987195
-0.023206 -0.062131 0.786000 15920377
-0.023265 -0.057787 0.788000 15788787
-0.023294 -0.053351 0.789000 15526132
-0.023294 -0.048843 0.789000 15655408
-0.023412 -0.044559 0.793000 14866674
-0.023471 -0.040129 0.795000 14799596
-0.023530 -0.035675 0.797000 15986168
-0.023619 -0.031238 0.800000 13351372
-0.023678 -0.026733 0.802000 12614867
-0.023737 -0.022206 0.804000 15723514
-0.023737 -0.017611 0.804000 15656179
-0.023796 -0.013050 0.806000 15525366
-0.023914 -0.008486 0.810000 15524595
-0.023973 -0.003867 0.812000 15392753
-0.024032 0.000775 0.814000 13872334
-0.024032 0.005427 0.814000 14863842
-0.022951 -0.089431 0.831000 14538469
-0.022841 -0.084275 0.827000 14603243
-0.022371 -0.077914 0.810000 14734317
-0.021957 -0.071929 0.795000 14669804
-0.021791 -0.066877 0.789000 16187133
-0.021709 -0.062131 0.786000 15920886
-0.021764 -0.057787 0.788000 15919603
-0.021791 -0.053351 0.789000 15591411
-0.021847 -0.048967 0.791000 15853298
-0.021902 -0.044559 0.793000 14604529
-0.021957 -0.040129 0.795000 15198450
-0.022012 -0.035675 0.797000 15920630
-0.022040 -0.031160 0.798000 13352419
-0.022150 -0.026733 0.802000 14857958
-0.022206 -0.022206 0.804000 15984631
-0.022206 -0.017611 0.804000 15656691
-0.022261 -0.013050 0.806000 15721460
-0.022371 -0.008486 0.810000 15459060
-0.022427 -0.003867 0.812000 15524339
-0.022427 0.000773 0.812000 12427219
-0.022482 0.005427 0.814000 14535649
-0.021317 -0.089216 0.829000 14537185
-0.021214 -0.084071 0.825000 14668780
-0.020829 -0.077914 0.810000 14800366
-0.020494 -0.072110 0.797000 14669805
-0.020289 -0.066877 0.789000 16120062
-0.020263 -0.062290 0.788000 15722227
-0.020289 -0.057860 0.789000 15919603
-0.020289 -0.053351 0.789000 15393267
-0.020340 -0.048967 0.791000 15722483
-0.020443 -0.044671 0.795000 14800369
-0.020443 -0.040129 0.795000 15526135
-0.020494 -0.035675 0.797000 15985653
-0.020520 -0.031160 0.798000 14868985
-0.020623 -0.026733 0.802000 15722489
-0.020674 -0.022206 0.804000 15985396
-0.020674 -0.017611 0.804000 15788532
-0.020726 -0.013050 0.806000 15788018
-0.020829 -0.008486 0.810000 15525365
-0.020880 -0.003867 0.812000 15656180
-0.020931 0.000775 0.814000 12752600
-0.020931 0.005427 0.814000 14601440
-0.019738 -0.089216 0.829000 14539740
-0.019595 -0.083868 0.823000 14669035
-0.019190 -0.077530 0.806000 14800622
-0.018976 -0.072110 0.797000 14669806
-0.018786 -0.066877 0.789000 16120572
-0.018762 -0.062290 0.788000 15525362
-0.018786 -0.057860 0.789000 15918835
-0.018786 -0.053351 0.789000 15130609
-0.018833 -0.048967 0.791000 15527158
-0.018976 -0.044784 0.797000 14933231
-0.018929 -0.040129 0.795000 15854071
-0.018976 -0.035675 0.797000 16052214
-0.019000 -0.031160 0.798000 16447224
-0.019095 -0.026733 0.802000 16511223
-0.019143 -0.022206 0.804000 15985909
-0.019143 -0.017611 0.804000 15920372
-0.019238 -0.013082 0.808000 15920631
-0.019333 -0.008507 0.812000 15587566
-0.019333 -0.003867 0.812000 15787510
-0.019381 0.000775 0.814000 13087207
-0.019381 0.005427 0.814000 14743023
-0.018159 -0.089216 0.829000 14470871
-0.017984 -0.083664 0.821000 14668779
-0.017655 -0.077530 0.806000 14800878
-0.017480 -0.072200 0.798000 14930671
-0.017283 -0.066877 0.789000 16118777
-0.017261 -0.062290 0.788000 15524850
-0.017283 -0.057860 0.789000 15722226
-0.017327 -0.053487 0.791000 15062511
-0.017370 -0.049090 0.793000 15526136
-0.017458 -0.044784 0.797000 14736110
-0.017458 -0.040230 0.797000 15920375
-0.017480 -0.035720 0.798000 16117750
-0.017524 -0.031238 0.800000 16314614
-0.017568 -0.026733 0.802000 16314870
-0.017611 -0.022206 0.804000 16051957
-0.017655 -0.017655 0.806000 16051957
-0.017699 -0.013082 0.808000 15724796
-0.017743 -0.008486 0.810000 14197480
-0.017787 -0.003867 0.812000 15854327
-0.017830 0.000775 0.814000 14670837
-0.017852 0.005433 0.815000 14540798
-0.016380 -0.083460 0.819000 14603499
-0.016120 -0.077530 0.806000 14866414
-0.015960 -0.072200 0.798000 15197681
-0.015820 -0.067047 0.791000 16117494
-0.015780 -0.062369 0.789000 15459570
-0.015780 -0.057860 0.789000 15591412
-0.015820 -0.053487 0.791000 14997999
-0.015860 -0.049090 0.793000 15527159
-0.015940 -0.044784 0.797000 14538733
-0.015940 -0.040230 0.797000 16052471
-0.015960 -0.035720 0.798000 16117493
-0.016000 -0.031238 0.800000 16182773
-0.016080 -0.026800 0.804000 16051958
-0.016080 -0.022206 0.804000 16117749
-0.016120 -0.017655 0.806000 16117749
-0.016160 -0.013082 0.808000 15528439
-0.016240 -0.008507 0.812000 12753120
-0.016240 -0.003867 0.812000 15986937
-0.016280 0.000775 0.814000 16182006
-0.016300 0.005433 0.815000 14411245
-0.014820 -0.083460 0.819000 14603243
-0.014549 -0.077337 0.804000 14669550
-0.014422 -0.072110 0.797000 15789555
-0.014313 -0.067047 0.791000 15854322
-0.014277 -0.062369 0.789000 15459570
-0.014313 -0.058007 0.791000 15459829
-0.014350 -0.053622 0.793000 15062512
-0.014386 -0.049214 0.795000 15197173
-0.014422 -0.044784 0.797000 14601965
-0.014440 -0.040280 0.798000 16051958
-0.014440 -0.035720 0.798000 15985653
-0.014512 -0.031316 0.802000 16051443
-0.014549 -0.026800 0.804000 16183287
-0.014585 -0.022261 0.806000 16117748
-0.014585 -0.017655 0.806000 16117750
-0.014657 -0.013114 0.810000 15125745
-0.014693 -0.008507 0.812000 13335000
-0.014693 -0.003867 0.812000 16118267
-0.014730 0.000775 0.814000 16249079
-0.014784 0.005447 0.817000 14533339
-0.013260 -0.083460 0.819000 14603753
-0.012952 -0.076952 0.800000 14538473
-0.012904 -0.072110 0.797000 16379382
-0.012839 -0.067216 0.793000 15656690
-0.012807 -0.062527 0.791000 15393778
-0.012807 -0.058007 0.791000 15329012
-0.012839 -0.053622 0.793000 15129329
-0.012904 -0.049338 0.797000 14934259
-0.012920 -0.044840 0.798000 14604016
-0.012920 -0.040280 0.798000 16052213
-0.012952 -0.035810 0.800000 15854582
-0.012985 -0.031316 0.802000 15919861
-0.013017 -0.026800 0.804000 16314101
-0.013050 -0.022261 0.806000 16117495
-0.013082 -0.017699 0.808000 16117494
-0.013114 -0.013114 0.810000 14732786
-0.013147 -0.008507 0.812000 13877721
-0.013179 -0.003876 0.814000 16316153
-0.013179 0.000775 0.814000 16314615
-0.013228 0.005447 0.817000 14597097
-0.011671 -0.083256 0.817000 14537704
-0.011457 -0.077145 0.802000 14866148
-0.011400 -0.072200 0.798000 16316664
-0.011357 -0.067386 0.795000 15590641
-0.011300 -0.062527 0.791000 15393522
-0.011300 -0.058007 0.791000 15262194
-0.011357 -0.053757 0.795000 15523314
-0.011386 -0.049338 0.797000 14736112
-0.011400 -0.044840 0.798000 14800883
-0.011429 -0.040381 0.800000 15784692
-0.011457 -0.035899 0.802000 15920119
-0.011457 -0.031316 0.802000 15920630
-0.011514 -0.026867 0.806000 14739443
-0.011514 -0.022261 0.806000 15920633
-0.011571 -0.017743 0.810000 16051446
-0.011600 -0.013147 0.812000 14534898
-0.011600 -0.008507 0.812000 15328730
-0.011629 -0.003876 0.814000 16249591
-0.011629 0.000775 0.814000 16249079
-0.011700 0.005460 0.819000 15391222
-0.010090 -0.083052 0.815000 14471399
-0.009954 -0.077337 0.804000 15192304
-0.009880 -0.072200 0.798000 16184311
-0.009868 -0.067555 0.797000 15524850
-0.009843 -0.062843 0.795000 15393778
-0.009843 -0.058300 0.795000 15196913
-0.009868 -0.053892 0.797000 15853043
-0.009880 -0.049400 0.798000 14537964
-0.009905 -0.044952 0.800000 14932204
-0.009930 -0.040482 0.802000 15441390
-0.009954 -0.035989 0.804000 15985649
-0.009954 -0.031394 0.804000 15920373
-0.009979 -0.026867 0.806000 13155548
-0.010004 -0.022316 0.808000 15724794
-0.010029 -0.017743 0.810000 15985909
-0.010078 -0.013179 0.814000 14345715
-0.010078 -0.008528 0.814000 16707049
-0.010078 -0.003876 0.814000 16248310
-0.010090 0.000776 0.815000 16117750
-0.010140 0.005460 0.819000 16117238
-0.008528 -0.082950 0.814000 14536678
-0.008444 -0.077530 0.806000 15591932
-0.008360 -0.072200 0.798000 15854327
-0.008350 -0.067555 0.797000 15459570
-0.008350 -0.063001 0.797000 15393778
-0.008360 -0.058520 0.798000 15195888
-0.008360 -0.053960 0.798000 15985653
-0.008360 -0.049400 0.798000 14272743
-0.008381 -0.044952 0.800000 15260646
-0.008423 -0.040583 0.804000 14000103
-0.008423 -0.035989 0.804000 16117482
-0.008444 -0.031472 0.806000 15128307
-0.008465 -0.026933 0.808000 12420549
-0.008486 -0.022371 0.810000 15656442
-0.008507 -0.017787 0.812000 15920373
-0.008528 -0.013179 0.814000 15132915
-0.008538 -0.008538 0.815000 16381176
-0.008538 -0.003881 0.815000 16117236
-0.008559 0.000778 0.817000 16051957
-0.006986 -0.083052 0.815000 14603736
-0.006909 -0.077530 0.806000 16054521
-0.006840 -0.072200 0.798000 15459829
-0.006831 -0.067555 0.797000 15459315
-0.006840 -0.063080 0.798000 15393779
-0.006857 -0.058667 0.800000 15260658
-0.006874 -0.054230 0.802000 16116984
-0.006857 -0.049524 0.800000 14007767
-0.006909 -0.045290 0.806000 15522032
-0.006909 -0.040684 0.806000 12504809
-0.006909 -0.036078 0.806000 16181230
-0.006909 -0.031472 0.806000 14412533
-0.006943 -0.027000 0.810000 11695067
-0.006943 -0.022371 0.810000 15596026
-0.006977 -0.017830 0.814000 15789045
-0.006986 -0.013195 0.815000 15985396
-0.006986 -0.008538 0.815000 16052214
-0.007003 -0.003890 0.817000 15985656
-0.007003 0.000778 0.817000 15986423
-0.005433 -0.083052 0.815000 14472905
-0.005360 -0.077337 0.804000 15459317
-0.005333 -0.072381 0.800000 15327987
-0.005320 -0.067640 0.798000 15326963
-0.005320 -0.063080 0.798000 15459572
-0.005347 -0.058813 0.802000 15393012
-0.005360 -0.054366 0.804000 16182779
-0.005360 -0.049771 0.804000 14268358
-0.005387 -0.045402 0.808000 15723514
-0.005387 -0.040785 0.808000 14212075
-0.005387 -0.036168 0.808000 16051187
-0.005387 -0.031550 0.808000 15132663
-0.005413 -0.027067 0.812000 12679666
-0.005413 -0.022427 0.812000 15921146
-0.005427 -0.017830 0.814000 15920886
-0.005447 -0.013228 0.817000 15985652
-0.005447 -0.008559 0.817000 16051445
-0.005460 -0.003900 0.819000 15986428
-0.005460 0.000780 0.819000 16052216
-0.003838 -0.077530 0.806000 14866393
-0.003819 -0.072562 0.802000 15193569
-0.003810 -0.067810 0.800000 15261169
-0.003810 -0.063238 0.800000 15458029
-0.003819 -0.058813 0.802000 15524321
-0.003838 -0.054501 0.806000 16178666
-0.003848 -0.050019 0.808000 14519739
-0.003857 -0.045514 0.810000 15920374
-0.003857 -0.040886 0.810000 15919347
-0.003857 -0.036257 0.810000 15854326
-0.003857 -0.031629 0.810000 15855607
-0.003876 -0.027133 0.814000 13618165
-0.003881 -0.022510 0.815000 16247289
-0.003881 -0.017852 0.815000 15982834
-0.003890 -0.013228 0.817000 15920118
-0.003900 -0.008580 0.819000 16051700
-0.003910 -0.003910 0.821000 15985893
-0.003910 0.000782 0.821000 16115434
-0.002303 -0.077530 0.806000 14204093
-0.002297 -0.072743 0.804000 14533327
-0.002291 -0.067979 0.802000 14734062
-0.002286 -0.063238 0.800000 14668774
-0.002303 -0.059107 0.806000 14270670
-0.002309 -0.054636 0.808000 14267609
-0.002314 -0.050143 0.810000 13867184
-0.002320 -0.045627 0.812000 15722482
-0.002314 -0.040886 0.810000 15722234
-0.002314 -0.036257 0.810000 15592697
-0.002320 -0.031707 0.812000 15722742
-0.002326 -0.027133 0.814000 14740472
-0.002329 -0.022510 0.815000 15723512
-0.002334 -0.017896 0.817000 15119598
-0.002340 -0.013260 0.819000 15788791
-0.002346 -0.008601 0.821000 16051956
-0.002346 -0.003910 0.821000 14852046
-0.002351 0.000784 0.823000 15389149
-0.000768 -0.077530 0.806000 13542325
-0.000768 -0.072924 0.806000 13809853
-0.000764 -0.067979 0.802000 14205391
-0.000764 -0.063396 0.802000 13876171
-0.000768 -0.059107 0.806000 13083328
-0.000770 -0.054636 0.808000 12293065
-0.000771 -0.050143 0.810000 13277362
-0.000775 -0.045739 0.814000 15455969
-0.000773 -0.040987 0.812000 15458545
-0.000775 -0.036436 0.814000 15258074
-0.000775 -0.031785 0.814000 15591160
-0.000776 -0.027167 0.815000 15853814
-0.000778 -0.022565 0.817000 15198452
-0.000780 -0.017940 0.819000 14199273
-0.000782 -0.013292 0.821000 15724794
-0.000784 -0.008622 0.823000 15985653
-0.000786 -0.003929 0.825000 13730524
0.000766 -0.077337 0.804000 13674669
0.000768 -0.072924 0.806000 13938348
0.000766 -0.068149 0.804000 14070704
0.000764 -0.063396 0.802000 14003633
0.000766 -0.058960 0.804000 13610673
0.000770 -0.054636 0.808000 13216185
0.000773 -0.050267 0.812000 13672883
0.000775 -0.045739 0.814000 14794961
0.000775 -0.041088 0.814000 14729447
0.000775 -0.036436 0.814000 14130364
0.000776 -0.031824 0.815000 15524346
0.000778 -0.027233 0.817000 15786997
0.000780 -0.022620 0.819000 15192303
0.000782 -0.017984 0.821000 14527717
0.000786 -0.013357 0.825000 15788796
0.000786 -0.008643 0.825000 15920373
0.000786 -0.003929 0.825000 14927594
0.002297 -0.077337 0.804000 13872560
0.002303 -0.072924 0.806000 14004142
0.002291 -0.063396 0.802000 14070451
0.002297 -0.058960 0.804000 14202548
0.002309 -0.054636 0.808000 14136249
0.002326 -0.050390 0.814000 14068916
0.002326 -0.045739 0.814000 14138306
0.002326 -0.041088 0.814000 13939663
0.002329 -0.036481 0.815000 13021889
0.002329 -0.031824 0.815000 15523301
0.002334 -0.027233 0.817000 15654890
0.002346 -0.022675 0.821000 15261683
0.002351 -0.018028 0.823000 14798317
0.002357 -0.013357 0.825000 15919336
0.002363 -0.008664 0.827000 15854327
0.002363 -0.003938 0.827000 16185332
0.003829 -0.058960 0.804000 14202295
0.003867 -0.050267 0.812000 14069684
0.003881 -0.045795 0.815000 14201011
0.003876 -0.041088 0.814000 14070198
0.003890 -0.036570 0.817000 13482950
0.003890 -0.031902 0.817000 14665679
0.003890 -0.027233 0.817000 15061216
0.003910 -0.022675 0.821000 15063799
0.003919 -0.018028 0.823000 14734069
0.003938 -0.013390 0.827000 15057876
0.003938 -0.008664 0.827000 15788026
0.003948 -0.003948 0.829000 15789310
0.005413 -0.050267 0.812000 14069941
0.005433 -0.045795 0.815000 14201013
0.005427 -0.041088 0.814000 14135477
0.005447 -0.036570 0.817000 13940155
0.005447 -0.031902 0.817000 13874622
0.005447 -0.027233 0.817000 14399942
0.005473 -0.022675 0.821000 14863827
0.005487 -0.018028 0.823000 14599382
0.005513 -0.013390 0.827000 14195663
0.005527 -0.008685 0.829000 15720169
0.005540 -0.003957 0.831000 15394801
0.006986 -0.045795 0.815000 14135478
0.007003 -0.036570 0.817000 13939120
0.007003 -0.031902 0.817000 13872301
0.007003 -0.027233 0.817000 14002348
0.007020 -0.022620 0.819000 14136238
0.007071 -0.018071 0.825000 14135991
0.007089 -0.013390 0.827000 14004425
0.007106 -0.008685 0.829000 14730713
0.007123 -0.003957 0.831000 14864868
0.008559 -0.031902 0.817000 13937840
0.008580 -0.022620 0.819000 13478832
0.008643 -0.018071 0.825000 13611190
0.008664 -0.013390 0.827000 13807804
0.008685 -0.008685 0.829000 13677248
0.008706 -0.003957 0.831000 14334151
0.010239 -0.013390 0.827000 13741230
0.010264 -0.008685 0.829000 13738919
0.010264 -0.003948 0.829000 13871017
0.011843 -0.008685 0.829000 13805739
-0.076749 -0.067446 0.814000 13544882
-0.075013 -0.067280 0.812000 12821687
-0.074644 -0.062331 0.808000 13741989
-0.074644 -0.057714 0.808000 14133668
-0.073286 -0.067114 0.810000 12291261
-0.073105 -0.062331 0.808000 12358291
-0.073105 -0.057714 0.808000 12094867
-0.073467 -0.053360 0.812000 13543332
-0.071566 -0.066949 0.808000 11775436
-0.071211 -0.062023 0.804000 10978716
-0.071389 -0.057571 0.806000 9995147
-0.071743 -0.053229 0.810000 13080726
-0.071743 -0.048600 0.810000 14132891
-0.070633 -0.072186 0.815000 14408951
-0.070373 -0.067280 0.812000 13092316
-0.069507 -0.061869 0.802000 11111845
-0.069853 -0.057571 0.806000 10125444
-0.070027 -0.053097 0.808000 11765384
-0.070200 -0.048600 0.810000 12291718
-0.070633 -0.044243 0.815000 12753817
-0.070633 -0.039586 0.815000 13544617
-0.068996 -0.072097 0.814000 15327218
-0.068488 -0.066949 0.808000 14339813
-0.067810 -0.061714 0.800000 11245491
-0.068149 -0.057429 0.804000 10257290
-0.068318 -0.052966 0.806000 10454157
-0.068657 -0.048600 0.810000 10389131
-0.069081 -0.044243 0.815000 11304586
-0.069081 -0.039586 0.815000 12950680
-0.067446 -0.072097 0.814000 14931692
-0.066783 -0.066783 0.806000 14802415
-0.066286 -0.061714 0.800000 11378881
-0.066451 -0.057286 0.802000 10586767
-0.066783 -0.052966 0.806000 10587026
-0.067114 -0.048600 0.810000 10585744
-0.067446 -0.044189 0.814000 10780283
-0.067529 -0.039586 0.815000 11961479
-0.067529 -0.034929 0.815000 12489615
-0.068191 -0.025866 0.823000 13148321
-0.065895 -0.072097 0.814000 14602988
-0.065248 -0.066783 0.806000 15194608
-0.064600 -0.061560 0.798000 11577802
-0.064924 -0.057286 0.802000 10915226
-0.065086 -0.052834 0.804000 10720412
-0.065410 -0.048480 0.808000 10782868
-0.065571 -0.043971 0.810000 10322823
-0.065895 -0.039537 0.814000 10913421
-0.065976 -0.034929 0.815000 11045268
-0.066300 -0.030420 0.819000 11307919
-0.066624 -0.025866 0.823000 12687768
-0.066624 -0.021163 0.823000 13212565
-0.067110 -0.007106 0.829000 12555403
-0.064345 -0.072097 0.814000 14603244
-0.063554 -0.066617 0.804000 15129842
-0.063001 -0.061483 0.797000 12234194
-0.063001 -0.056929 0.797000 11047077
-0.063396 -0.052703 0.802000 10917285
-0.063712 -0.048360 0.806000 10979992
-0.063870 -0.043863 0.808000 10586514
-0.064187 -0.039440 0.812000 11045524
-0.064345 -0.034886 0.814000 11112089
-0.064582 -0.030346 0.817000 11373205
-0.064898 -0.025803 0.821000 11898254
-0.065056 -0.021163 0.823000 12159370
-0.065689 -0.011871 0.831000 12161684
-0.065530 -0.007106 0.829000 12424328
-0.062871 -0.076843 0.815000 14669808
-0.062794 -0.072097 0.814000 14537453
-0.062023 -0.066617 0.804000 15064306
-0.061329 -0.061329 0.795000 12955615
-0.061329 -0.056786 0.795000 11114159
-0.061560 -0.052440 0.798000 11180715
-0.061714 -0.048000 0.800000 11111837
-0.062331 -0.043863 0.808000 10915225
-0.062331 -0.039246 0.808000 11110799
-0.062640 -0.034800 0.812000 11178899
-0.062871 -0.030271 0.815000 11440022
-0.063180 -0.025740 0.819000 11177362
-0.063180 -0.021060 0.819000 11110543
-0.063489 -0.016460 0.823000 11308430
-0.063951 -0.011843 0.829000 11174530
-0.063951 -0.007106 0.829000 12292485
-0.063951 -0.002369 0.829000 12292485
-0.061470 -0.077031 0.817000 14602987
-0.061244 -0.072097 0.814000 14603246
-0.060190 -0.066286 0.800000 15064050
-0.059664 -0.061174 0.793000 13155308
-0.059664 -0.056643 0.793000 11376826
-0.059814 -0.052243 0.795000 11377840
-0.060040 -0.047880 0.798000 11309475
-0.060341 -0.043537 0.802000 11112864
-0.060642 -0.039149 0.806000 10913931
-0.060943 -0.034714 0.810000 10714252
-0.061244 -0.030234 0.814000 11440792
-0.061470 -0.025677 0.817000 11046806
-0.061620 -0.021060 0.819000 10715029
-0.061921 -0.016460 0.823000 11243407
-0.062222 -0.011814 0.827000 11101297
-0.062222 -0.007089 0.827000 11435650
-0.062372 -0.002369 0.829000 11964552
-0.062523 0.002374 0.831000 11766150
-0.059913 -0.077031 0.817000 14537708
-0.059693 -0.072097 0.814000 14668782
-0.058520 -0.066120 0.798000 14998514
-0.058007 -0.061020 0.791000 13418727
-0.058007 -0.056500 0.791000 11574973
-0.058300 -0.052243 0.795000 11575221
-0.058520 -0.047880 0.798000 11441321
-0.058667 -0.043429 0.800000 11312295
-0.058960 -0.039051 0.804000 10717328
-0.059107 -0.034543 0.806000 10249871
-0.059547 -0.030160 0.812000 11438226
-0.059767 -0.025614 0.815000 10915999
-0.059913 -0.021009 0.817000 10321033
-0.060207 -0.016420 0.821000 11244434
-0.060500 -0.011786 0.825000 11042182
-0.060500 -0.007071 0.825000 10650254
-0.060647 -0.002363 0.827000 11636623
-0.060940 0.002374 0.831000 11306889
-0.058357 -0.077031 0.817000 14603244
-0.058143 -0.072097 0.814000 14734830
-0.057000 -0.066120 0.798000 14998514
-0.056500 -0.061020 0.791000 13682145
-0.056500 -0.056500 0.791000 11837632
-0.056643 -0.052111 0.793000 11772858
-0.056786 -0.047700 0.795000 11638448
-0.057143 -0.043429 0.800000 11509678
-0.057286 -0.038954 0.802000 10913941
-0.057571 -0.034543 0.806000 10648978
-0.057857 -0.030086 0.810000 11042188
-0.058000 -0.025520 0.812000 11375271
-0.058214 -0.020957 0.815000 9731197
-0.058500 -0.016380 0.819000 11177364
-0.058786 -0.011757 0.823000 11309468
-0.058786 -0.007054 0.823000 11112601
-0.059071 -0.002363 0.827000 11571094
-0.059214 0.002369 0.829000 11241868
-0.057913 -0.083300 0.833000 15066100
-0.056801 -0.077031 0.817000 14603245
-0.056453 -0.071920 0.812000 14734830
-0.055480 -0.066120 0.798000 14998257
-0.054993 -0.061020 0.791000 14011371
-0.054993 -0.056500 0.791000 12036033
-0.055132 -0.052111 0.793000 12035775
-0.055271 -0.047700 0.795000 11771062
-0.055619 -0.043429 0.800000 11708601
-0.055619 -0.038857 0.800000 11044254
-0.055897 -0.034457 0.804000 11047593
-0.056175 -0.030011 0.808000 10586274
-0.056314 -0.025457 0.810000 11902125
-0.056592 -0.020931 0.814000 9077392
-0.056662 -0.016300 0.815000 11113114
-0.056940 -0.011700 0.819000 11572896
-0.057079 -0.007037 0.821000 11638683
-0.057357 -0.002357 0.825000 11440794
-0.057635 0.002369 0.829000 11242899
-0.056597 -0.088483 0.837000 13872577
-0.056327 -0.083300 0.833000 15064820
-0.055515 -0.077409 0.821000 14669294
-0.054907 -0.071920 0.812000 14734830
-0.053960 -0.066120 0.798000 14932464
-0.053487 -0.061020 0.791000 14209012
-0.053487 -0.056500 0.791000 12233153
-0.053622 -0.052111 0.793000 12233155
-0.053757 -0.047700 0.795000 11967932
-0.053960 -0.043320 0.798000 12168132
-0.054095 -0.038857 0.800000 11172520
-0.054230 -0.034371 0.802000 11771840
-0.054636 -0.030011 0.808000 11641784
-0.054771 -0.025457 0.810000 12033971
-0.054907 -0.020880 0.812000 10523044
-0.055110 -0.016300 0.815000 11572896
-0.055245 -0.011671 0.817000 11770532
-0.055515 -0.007037 0.821000 11639196
-0.055650 -0.002351 0.823000 11572383
-0.056056 0.002369 0.829000 11309978
-0.055003 -0.088483 0.837000 14074310
-0.054477 -0.082900 0.829000 14998000
-0.053820 -0.077220 0.819000 14734059
-0.053360 -0.071920 0.812000 14800109
-0.052440 -0.066120 0.798000 14801648
-0.051980 -0.061020 0.791000 14407156
-0.051980 -0.056500 0.791000 12431822
-0.051980 -0.051980 0.791000 12429768
-0.052111 -0.047580 0.793000 12100287
-0.052440 -0.043320 0.798000 12627657
-0.052571 -0.038857 0.800000 11310512
-0.052703 -0.034371 0.802000 12429498
-0.052966 -0.029937 0.806000 12626104
-0.053097 -0.025394 0.808000 12166071
-0.053360 -0.020880 0.812000 11902129
-0.053557 -0.016300 0.815000 11967920
-0.053557 -0.011643 0.815000 11902636
-0.053820 -0.007020 0.819000 11705489
-0.054083 -0.002351 0.823000 11704227
-0.054346 0.002363 0.827000 11442075
-0.054609 0.007123 0.831000 11438482
-0.053409 -0.088483 0.837000 14468555
-0.052770 -0.082700 0.827000 14931948
-0.052260 -0.077220 0.819000 14206696
-0.051303 -0.071211 0.804000 14735340
-0.050920 -0.066120 0.798000 14801648
-0.050346 -0.060866 0.789000 14604275
-0.050346 -0.056357 0.789000 12695003
-0.050473 -0.051980 0.791000 12628684
-0.050601 -0.047580 0.793000 12297154
-0.050856 -0.043266 0.797000 12956621
-0.050920 -0.038760 0.798000 11708600
-0.051175 -0.034371 0.802000 12494771
-0.051430 -0.029937 0.806000 12692920
-0.051430 -0.025331 0.806000 12429242
-0.051686 -0.020829 0.810000 12297662
-0.051941 -0.016280 0.814000 12165311
-0.052005 -0.011643 0.815000 12100019
-0.052260 -0.007020 0.819000 11437189
-0.052388 -0.002346 0.821000 11836071
-0.052643 0.002357 0.825000 11175579
-0.052898 0.007106 0.829000 10384019
-0.051938 -0.088694 0.839000 14797774
-0.051195 -0.082700 0.827000 14865900
-0.050700 -0.077220 0.819000 13678287
-0.049648 -0.071034 0.802000 14736357
-0.049338 -0.066037 0.797000 14801393
-0.048781 -0.060789 0.788000 14802932
-0.048781 -0.056286 0.788000 12892893
-0.048843 -0.051849 0.789000 12892624
-0.048967 -0.047460 0.791000 12429766
-0.049214 -0.043157 0.795000 13350606
-0.049400 -0.038760 0.798000 12094892
-0.049524 -0.034286 0.800000 12627369
-0.049771 -0.029863 0.804000 12758981
-0.049895 -0.025331 0.806000 12626625
-0.050019 -0.020777 0.808000 12626114
-0.050390 -0.016280 0.814000 12363965
-0.050452 -0.011643 0.815000 12297140
-0.050576 -0.007003 0.817000 11095447
-0.050824 -0.002346 0.821000 11968421
-0.050948 0.002351 0.823000 10916017
-0.051195 0.007089 0.827000 9273243
-0.050220 -0.088483 0.837000 14931154
-0.049500 -0.082500 0.825000 14800364
-0.049140 -0.077220 0.819000 12947894
-0.048120 -0.071034 0.802000 14207965
-0.047820 -0.066037 0.797000 14866162
-0.047280 -0.060789 0.788000 14933493
-0.047280 -0.056286 0.788000 13155807
-0.047340 -0.051849 0.789000 13023700
-0.047460 -0.047460 0.791000 12626379
-0.047700 -0.043157 0.795000 13221582
-0.047820 -0.038711 0.797000 12221601
-0.048000 -0.034286 0.800000 12688286
-0.048240 -0.029863 0.804000 13021650
-0.048360 -0.025331 0.806000 12825031
-0.048480 -0.020777 0.808000 12562629
-0.048720 -0.016240 0.812000 12627131
-0.048840 -0.011629 0.814000 12559285
-0.049020 -0.007003 0.817000 10704297
-0.049140 -0.002340 0.819000 12362915
-0.049380 0.002351 0.823000 11705030
-0.049620 0.007089 0.827000 10847652
-0.048858 -0.088906 0.841000 14995926
-0.047812 -0.082300 0.823000 14800620
-0.047580 -0.077220 0.819000 12229048
-0.046592 -0.071034 0.802000 13686753
-0.046302 -0.066037 0.797000 14867185
-0.045779 -0.060789 0.788000 15130870
-0.045779 -0.056286 0.788000 13419746
-0.045779 -0.051783 0.788000 13220824
-0.045953 -0.047460 0.791000 12824529
-0.046186 -0.043157 0.795000 13092051
-0.046302 -0.038711 0.797000 12353433
-0.046360 -0.034200 0.798000 12822944
-0.046476 -0.029714 0.800000 13220563
-0.046825 -0.025331 0.806000 12956608
-0.046941 -0.020777 0.808000 12492451
-0.047173 -0.016240 0.812000 12889801
-0.047290 -0.011629 0.814000 12823231
-0.047348 -0.006986 0.815000 10367158
-0.047580 -0.002340 0.819000 12690867
-0.047696 0.002346 0.821000 12428989
-0.047929 0.007071 0.825000 12427443
-0.047256 -0.088906 0.841000 15130329
-0.046245 -0.082300 0.823000 14274028
-0.046020 -0.077220 0.819000 12557243
-0.045065 -0.071034 0.802000 14209509
-0.044784 -0.066037 0.797000 14865905
-0.044166 -0.060634 0.786000 15262198
-0.044166 -0.056143 0.786000 13812965
-0.044278 -0.051783 0.788000 13418459
-0.044447 -0.047460 0.791000 13087190
-0.044559 -0.043049 0.793000 12761815
-0.044784 -0.038711 0.797000 11625106
-0.044840 -0.034200 0.798000 12492193
-0.044952 -0.029714 0.800000 13550293
-0.045177 -0.025269 0.804000 12032440
-0.045290 -0.020726 0.806000 11363201
-0.045627 -0.016240 0.812000 13219542
-0.045739 -0.011629 0.814000 13022666
-0.045795 -0.006986 0.815000 11766210
-0.045908 -0.002334 0.817000 12889284
-0.046020 0.002340 0.819000 12627124
-0.046245 0.007054 0.823000 12496579
-0.045654 -0.088906 0.841000 15193821
-0.044677 -0.082300 0.823000 13749480
-0.044460 -0.077220 0.819000 12815027
-0.043537 -0.071034 0.802000 14738153
-0.043266 -0.066037 0.797000 14801648
-0.042669 -0.060634 0.786000 15329013
-0.042669 -0.056143 0.786000 14142440
-0.042777 -0.051783 0.788000 13682150
-0.042940 -0.047460 0.791000 13285335
-0.043049 -0.043049 0.793000 12438472
-0.043266 -0.038711 0.797000 10841499
-0.043320 -0.034200 0.798000 12095637
-0.043429 -0.029714 0.800000 13877704
-0.043537 -0.025206 0.802000 11048654
-0.043754 -0.020726 0.806000 10255492
-0.043863 -0.016160 0.808000 13548505
-0.044080 -0.011600 0.812000 13219795
-0.044243 -0.006986 0.815000 13223113
-0.044351 -0.002334 0.817000 13088717
-0.044460 0.002340 0.819000 12889521
-0.044677 0.007054 0.823000 12496838
-0.044052 -0.088906 0.841000 15129825
-0.043110 -0.082300 0.823000 13481955
-0.043005 -0.077409 0.821000 12812204
-0.042010 -0.071034 0.802000 14735596
-0.041643 -0.065871 0.795000 14931182
-0.041171 -0.060634 0.786000 15262452
-0.041171 -0.056143 0.786000 14339306
-0.041276 -0.051783 0.788000 13880048
-0.041329 -0.047340 0.789000 13351640
-0.041538 -0.043049 0.793000 12623032
-0.041643 -0.038614 0.795000 11763109
-0.041800 -0.034200 0.798000 11498633
-0.041905 -0.029714 0.800000 13809596
-0.042010 -0.025206 0.802000 12167140
-0.042219 -0.020726 0.806000 11299464
-0.042324 -0.016160 0.808000 13680604
-0.042533 -0.011600 0.812000 13482716
-0.042638 -0.006977 0.814000 13417935
-0.042690 -0.002329 0.815000 13286614
-0.042795 0.002334 0.817000 12295597
-0.043005 0.007037 0.821000 12825289
-0.042350 -0.088694 0.839000 14998243
-0.041542 -0.082300 0.823000 13286373
-0.041441 -0.077409 0.821000 12747954
-0.040482 -0.071034 0.802000 14803694
-0.040028 -0.065706 0.793000 15064816
-0.039674 -0.060634 0.786000 15262708
-0.039674 -0.056143 0.786000 14471659
-0.039775 -0.051783 0.788000 14078192
-0.039826 -0.047340 0.789000 13418717
-0.040028 -0.043049 0.793000 12804795
-0.040129 -0.038614 0.795000 12615331
-0.040280 -0.034200 0.798000 10908032
-0.040381 -0.029714 0.800000 13745098
-0.040482 -0.025206 0.802000 13353450
-0.040684 -0.020726 0.806000 12293559
-0.040785 -0.016160 0.808000 13878750
-0.040886 -0.011571 0.810000 13680605
-0.041088 -0.006977 0.814000 13550295
-0.041138 -0.002329 0.815000 13482707
-0.041239 0.002334 0.817000 11695016
-0.041441 0.007037 0.821000 13089742
-0.040751 -0.088694 0.839000 14867173
-0.039974 -0.082300 0.823000 13748198
-0.039780 -0.077220 0.819000 13010873
-0.038954 -0.071034 0.802000 14800111
-0.038517 -0.065706 0.793000 15326451
-0.038177 -0.060634 0.786000 15263220
-0.038177 -0.056143 0.786000 14602989
-0.038177 -0.051651 0.786000 14143216
-0.038323 -0.047340 0.789000 13747425
-0.038517 -0.043049 0.793000 13140669
-0.038614 -0.038614 0.795000 12681378
-0.038760 -0.034200 0.798000 11890550
-0.038857 -0.029714 0.800000 14340056
-0.038857 -0.025143 0.800000 13944815
-0.039051 -0.020674 0.804000 13550566
-0.039246 -0.016160 0.808000 14075871
-0.039343 -0.011571 0.810000 13877726
-0.039537 -0.006977 0.814000 13747422
-0.039586 -0.002329 0.815000 13349584
-0.039586 0.002329 0.815000 11698082
-0.039780 0.007020 0.819000 13287123
-0.039153 -0.088694 0.839000 14735846
-0.038407 -0.082300 0.823000 14274795
-0.038220 -0.077220 0.819000 13275829
-0.037427 -0.071034 0.802000 14868204
-0.036913 -0.065540 0.791000 15525107
-0.036680 -0.060634 0.786000 15329524
-0.036680 -0.056143 0.786000 14669294
-0.036680 -0.051651 0.786000 14276081
-0.036820 -0.047340 0.789000 14010338
-0.036913 -0.042940 0.791000 13466545
-0.037007 -0.038517 0.793000 12746920
-0.037193 -0.034157 0.797000 12867712
-0.037240 -0.029640 0.798000 14931422
-0.037333 -0.025143 0.800000 14603756
-0.037520 -0.020674 0.804000 14733801
-0.037613 -0.016120 0.806000 14273508
-0.037707 -0.011543 0.808000 14076130
-0.037893 -0.006960 0.812000 13944289
-0.037987 -0.002326 0.814000 13151444
-0.038033 0.002329 0.815000 11765908
-0.038127 0.007003 0.817000 13418452
-0.037466 -0.088483 0.837000 14800616
-0.036839 -0.082300 0.823000 14141167
-0.036660 -0.077220 0.819000 13144498
-0.035810 -0.070857 0.800000 14800105
-0.035317 -0.065374 0.789000 15656180
-0.035183 -0.060634 0.786000 15328499
-0.035183 -0.056143 0.786000 14801135
-0.035183 -0.051651 0.786000 14341105
-0.035317 -0.047340 0.789000 14206691
-0.035407 -0.042940 0.791000 12941221
-0.035496 -0.038517 0.793000 12680110
-0.035675 -0.034157 0.797000 12022153
-0.035720 -0.029640 0.798000 14998500
-0.035810 -0.025143 0.800000 14668777
-0.035989 -0.020674 0.804000 14668525
-0.036078 -0.016120 0.806000 14471401
-0.036168 -0.011543 0.808000 14405350
-0.036347 -0.006960 0.812000 14142179
-0.036436 -0.002326 0.814000 13875673
-0.036481 0.002329 0.815000 12486789
-0.036570 0.007003 0.817000 13747926
-0.035871 -0.088483 0.837000 14800360
-0.035186 -0.082100 0.821000 14013678
-0.034929 -0.076843 0.815000 13013426
-0.034286 -0.070857 0.800000 14739950
-0.033771 -0.065291 0.788000 15787763
-0.033686 -0.060634 0.786000 15394291
-0.033686 -0.056143 0.786000 14866928
-0.033771 -0.051783 0.788000 14473200
-0.033814 -0.047340 0.789000 14402794
-0.033900 -0.042940 0.791000 12404662
-0.033986 -0.038517 0.793000 12612008
-0.034157 -0.034157 0.797000 11172783
-0.034200 -0.029640 0.798000 15063530
-0.034286 -0.025143 0.800000 14799597
-0.034457 -0.020674 0.804000 14603247
-0.034543 -0.016120 0.806000 14669293
-0.034629 -0.011543 0.808000 14667227
-0.034800 -0.006960 0.812000 14405351
-0.034886 -0.002326 0.814000 14598625
-0.034929 0.002329 0.815000 13281209
-0.035014 0.007003 0.817000 14076892
-0.034277 -0.088483 0.837000 14734568
-0.033704 -0.082300 0.823000 13813740
-0.033376 -0.076843 0.815000 12357299
-0.032762 -0.070857 0.800000 14736627
-0.032270 -0.065291 0.788000 15985139
-0.032189 -0.060634 0.786000 15459314
-0.032189 -0.056143 0.786000 15064560
-0.032270 -0.051783 0.788000 14603759
-0.032311 -0.047340 0.789000 14470386
-0.032393 -0.042940 0.791000 13080775
-0.032557 -0.038614 0.795000 11887010
-0.032639 -0.034157 0.797000 12822485
-0.032680 -0.029640 0.798000 15129584
-0.032762 -0.025143 0.800000 14997744
-0.032926 -0.020674 0.804000 14866160
-0.033008 -0.016120 0.806000 13816304
-0.033090 -0.011543 0.808000 14140881
-0.033171 -0.006943 0.810000 14603242
-0.033335 -0.002326 0.814000 14601450
-0.033376 0.002329 0.815000 14009836
-0.033458 0.007003 0.817000 14272227
-0.032605 -0.088271 0.835000 14603753
-0.032136 -0.082300 0.823000 13619436
-0.031785 -0.076749 0.814000 11635396
-0.031160 -0.070680 0.798000 14736883
-0.030770 -0.065291 0.788000 16116467
-0.030691 -0.060634 0.786000 15525617
-0.030691 -0.056143 0.786000 15196145
-0.030770 -0.051783 0.788000 14735598
-0.030809 -0.047340 0.789000 14537969
-0.030965 -0.043049 0.793000 13749986
-0.031043 -0.038614 0.795000 11110085
-0.031121 -0.034157 0.797000 14537157
-0.031238 -0.029714 0.800000 15131125
-0.031316 -0.025206 0.802000 15194868
-0.031394 -0.020674 0.804000 15063793
-0.031472 -0.016120 0.806000 12966889
-0.031550 -0.011543 0.808000 13598903
-0.031629 -0.006943 0.810000 14800880
-0.031785 -0.002326 0.814000 14603246
-0.031824 0.002329 0.815000 14799851
-0.031902 0.007003 0.817000 14469860
-0.031237 -0.093711 0.841000 13940137
-0.031014 -0.088271 0.835000 14603498
-0.030569 -0.082300 0.823000 14078955
-0.030160 -0.076560 0.812000 11563477
-0.029603 -0.070591 0.797000 14801139
-0.029269 -0.065291 0.788000 16315892
-0.029194 -0.060634 0.786000 15590639
-0.029194 -0.056143 0.786000 15327730
-0.029269 -0.051783 0.788000 14801132
-0.029306 -0.047340 0.789000 15063280
-0.029454 -0.043049 0.793000 14342652
-0.029529 -0.038614 0.795000 13287656
-0.029603 -0.034157 0.797000 13876148
-0.029714 -0.029714 0.800000 15328506
-0.029789 -0.025206 0.802000 15261687
-0.029863 -0.020674 0.804000 15129842
-0.029937 -0.016120 0.806000 12891618
-0.030011 -0.011543 0.808000 13051549
-0.030086 -0.006943 0.810000 14866677
-0.030234 -0.002326 0.814000 14800881
-0.030271 0.002329 0.815000 14799850
-0.030346 0.007003 0.817000 14668006
-0.029565 -0.093489 0.839000 13938344
-0.029283 -0.087849 0.831000 14603754
-0.029001 -0.082300 0.823000 14604010
-0.028613 -0.076560 0.812000 11513827
-0.028085 -0.070591 0.797000 14869999
-0.027803 -0.065374 0.789000 16511989
-0.027697 -0.060634 0.786000 15656433
-0.027768 -0.056286 0.788000 15394034
-0.027803 -0.051849 0.789000 14931951
-0.027873 -0.047460 0.791000 15524081
-0.027944 -0.043049 0.793000 14934005
-0.028014 -0.038614 0.795000 15389161
-0.028085 -0.034157 0.797000 13147857
-0.028190 -0.029714 0.800000 15522281
-0.028261 -0.025206 0.802000 15391966
-0.028331 -0.020674 0.804000 15196403
-0.028402 -0.016120 0.806000 12895213
-0.028472 -0.011543 0.808000 12486850
-0.028543 -0.006943 0.810000 15002101
-0.028613 -0.002320 0.812000 14932210
-0.028719 0.002329 0.815000 14800624
-0.028719 0.006986 0.815000 14863850
-0.027900 -0.093266 0.837000 13939622
-0.027700 -0.087849 0.831000 14734827
-0.027367 -0.082100 0.821000 14603497
-0.027067 -0.076560 0.812000 13224945
-0.026500 -0.070414 0.795000 14933226
-0.026300 -0.065374 0.789000 16645111
-0.026267 -0.060789 0.788000 15722995
-0.026267 -0.056286 0.788000 15591667
-0.026300 -0.051849 0.789000 14998258
-0.026367 -0.047460 0.791000 15789298
-0.026500 -0.043157 0.795000 14669549
-0.026500 -0.038614 0.795000 15256299
-0.026600 -0.034200 0.798000 14537198
-0.026667 -0.029714 0.800000 13282521
-0.026800 -0.025269 0.804000 14068676
-0.026867 -0.020726 0.806000 15459573
-0.026867 -0.016120 0.806000 14209783
-0.026933 -0.011543 0.808000 13874664
-0.027067 -0.006960 0.812000 15130356
-0.027133 -0.002326 0.814000 15129074
-0.027167 0.002329 0.815000 14998262
-0.027167 0.006986 0.815000 15129839
-0.026306 -0.093266 0.837000 13937832
-0.026117 -0.087849 0.831000 14800106
-0.025803 -0.082100 0.821000 14602986
-0.025457 -0.076371 0.810000 14931694
-0.024986 -0.070414 0.795000 14931690
-0.024797 -0.065374 0.789000 16709625
-0.024766 -0.060789 0.788000 15854324
-0.024766 -0.056286 0.788000 15722996
-0.024860 -0.051980 0.791000 15131377
-0.024923 -0.047580 0.793000 15985139
-0.024986 -0.043157 0.795000 14405868
-0.025049 -0.038711 0.797000 15063791
-0.025080 -0.034200 0.798000 15855090
-0.025143 -0.029714 0.800000 11049167
-0.025269 -0.025269 0.804000 12816085
-0.025331 -0.020726 0.806000 15657205
-0.025331 -0.016120 0.806000 15527158
-0.025394 -0.011543 0.808000 15194607
-0.025520 -0.006960 0.812000 15326194
-0.025583 -0.002326 0.814000 15261427
-0.025614 0.002329 0.815000 15194061
-0.025614 0.006986 0.815000 15393006
