# .PCD v.7 - Point Cloud Data file format
VERSION .7
FIELDS x y z rgb
SIZE 4 4 4 4
TYPE F F F I
COUNT 1 1 1 1
WIDTH 1265
HEIGHT 1
POINTS 1265
DATA ascii
-0.037453 -0.160413 0.742000 13814762
-0.037302 -0.155542 0.739000 14604529
-0.037201 -0.150910 0.737000 14145521
-0.037201 -0.146698 0.737000 13881071
-0.037453 -0.143453 0.742000 14143987
-0.037504 -0.139401 0.743000 13746411
-0.037706 -0.135883 0.747000 14866419
-0.037958 -0.132495 0.752000 13220310
-0.038160 -0.128880 0.756000 14339552
-0.038261 -0.124890 0.758000 14143475
-0.038513 -0.121353 0.763000 14209264
-0.038766 -0.117760 0.768000 14143730
-0.038968 -0.113962 0.772000 14012913
-0.039018 -0.109692 0.773000 12764657
-0.039321 -0.106092 0.779000 12034783
-0.039472 -0.102032 0.782000 14144501
-0.039573 -0.097813 0.784000 14078705
-0.037060 -0.186753 0.763000 13287910
-0.036963 -0.181915 0.761000 13683689
-0.036720 -0.176400 0.756000 13815532
-0.036526 -0.171170 0.752000 13946352
-0.036331 -0.165985 0.748000 13816302
-0.036040 -0.160413 0.742000 13484518
-0.035894 -0.155542 0.739000 14671861
-0.035797 -0.150910 0.737000 14144495
-0.035894 -0.147096 0.739000 13881327
-0.036040 -0.143453 0.742000 14211571
-0.036186 -0.139776 0.745000 14011883
-0.036429 -0.136429 0.750000 13751792
-0.036574 -0.132671 0.753000 12815277
-0.036720 -0.128880 0.756000 14408671
-0.036817 -0.124890 0.758000 13816819
-0.037157 -0.121671 0.765000 13094638
-0.037303 -0.117760 0.768000 14144499
-0.037497 -0.113962 0.772000 14144240
-0.037546 -0.109692 0.773000 13485042
-0.037886 -0.106229 0.780000 13425641
-0.038080 -0.102293 0.784000 14209782
-0.038177 -0.098063 0.786000 14275568
-0.035607 -0.186753 0.763000 13157322
-0.035513 -0.181915 0.761000 13551080
-0.035280 -0.176400 0.756000 13815532
-0.035093 -0.171170 0.752000 14012144
-0.034907 -0.165985 0.748000 13750765
-0.034673 -0.160630 0.743000 13159399
-0.034487 -0.155542 0.739000 14739187
-0.034487 -0.151319 0.739000 14078447
-0.034627 -0.147693 0.742000 13815791
-0.034673 -0.143647 0.743000 14210547
-0.034767 -0.139776 0.745000 14276587
-0.035093 -0.136792 0.752000 12564960
-0.035140 -0.132671 0.753000 12344499
-0.035280 -0.128880 0.756000 14405085
-0.035467 -0.125219 0.760000 13555441
-0.035793 -0.121990 0.767000 11968987
-0.035933 -0.118067 0.770000 14211316
-0.036073 -0.114110 0.773000 14275568
-0.036260 -0.110260 0.777000 14275315
-0.036400 -0.106229 0.780000 14801904
-0.036587 -0.102293 0.784000 14273503
-0.036680 -0.098063 0.786000 14407153
-0.034153 -0.186753 0.763000 13088174
-0.034064 -0.181915 0.761000 13549544
-0.033840 -0.176400 0.756000 13552363
-0.033661 -0.171170 0.752000 13749744
-0.033482 -0.165985 0.748000 13353451
-0.033258 -0.160630 0.743000 14079976
-0.033124 -0.155752 0.740000 14539504
-0.033124 -0.151524 0.740000 14077935
-0.033258 -0.147892 0.743000 14077934
-0.033348 -0.144033 0.745000 14275060
-0.033482 -0.140339 0.748000 13024491
-0.033706 -0.136974 0.753000 12431824
-0.033795 -0.133024 0.755000 11961273
-0.033930 -0.129221 0.758000 14073308
-0.034064 -0.125384 0.761000 13087727
-0.034377 -0.122149 0.768000 12149705
-0.034556 -0.118373 0.772000 14341877
-0.034690 -0.114405 0.775000 14341617
-0.034780 -0.110260 0.777000 14341875
-0.035093 -0.106773 0.784000 14212600
-0.035183 -0.102554 0.786000 13873607
-0.035317 -0.098437 0.789000 14407155
-0.032700 -0.186753 0.763000 13086116
-0.032614 -0.181915 0.761000 13486565
-0.032400 -0.176400 0.756000 13355242
-0.032229 -0.171170 0.752000 13485290
-0.032057 -0.165985 0.748000 13024751
-0.031843 -0.160630 0.743000 14933231
-0.031800 -0.156173 0.742000 14405871
-0.031800 -0.151933 0.742000 14012143
-0.031929 -0.148290 0.745000 14340080
-0.031929 -0.144033 0.745000 14275316
-0.032143 -0.140714 0.750000 11768259
-0.032271 -0.136974 0.753000 12227520
-0.032357 -0.133024 0.755000 11636406
-0.032571 -0.129562 0.760000 13748454
-0.032786 -0.126043 0.765000 12567025
-0.033000 -0.122467 0.770000 12302042
-0.033086 -0.118373 0.772000 14473717
-0.033300 -0.114700 0.777000 14341360
-0.033514 -0.110970 0.782000 14472690
-0.033686 -0.107046 0.786000 13609964
-0.033771 -0.102815 0.788000 13544413
-0.033814 -0.098437 0.789000 14408180
-0.031124 -0.181676 0.760000 13817058
-0.030960 -0.176400 0.756000 13617896
-0.030796 -0.171170 0.752000 13811429
-0.030632 -0.165985 0.748000 14080242
-0.030510 -0.161062 0.745000 14737910
-0.030428 -0.156384 0.743000 14209262
-0.030510 -0.152548 0.745000 13946352
-0.030591 -0.148689 0.747000 14275569
-0.030632 -0.144613 0.748000 13817332
-0.030796 -0.141090 0.752000 11894170
-0.030919 -0.137338 0.755000 12285872
-0.031042 -0.133552 0.758000 12095922
-0.031165 -0.129732 0.761000 14276849
-0.031451 -0.126537 0.768000 13486322
-0.031615 -0.122785 0.772000 13492715
-0.031656 -0.118527 0.773000 14538997
-0.031902 -0.114995 0.779000 14472176
-0.032107 -0.111253 0.784000 14537713
-0.032270 -0.107318 0.788000 13135841
-0.032393 -0.103207 0.791000 14010099
-0.029676 -0.181676 0.760000 14074054
-0.029520 -0.176400 0.756000 13881580
-0.029364 -0.171170 0.752000 14078960
-0.029208 -0.165985 0.748000 15197684
-0.029090 -0.161062 0.745000 14473203
-0.029090 -0.156805 0.745000 14012911
-0.029169 -0.152957 0.747000 13880561
-0.029169 -0.148689 0.747000 14212085
-0.029286 -0.145000 0.750000 13282270
-0.029403 -0.141277 0.753000 12088996
-0.029520 -0.137520 0.756000 12290743
-0.029715 -0.134081 0.761000 12553660
-0.029871 -0.130414 0.765000 14799854
-0.030067 -0.126867 0.770000 14405877
-0.030145 -0.122785 0.772000 14669808
-0.030184 -0.118527 0.773000 14604001
-0.030418 -0.114995 0.779000 14538225
-0.030613 -0.111253 0.784000 14538741
-0.030887 -0.107727 0.791000 12627180
-0.030965 -0.103468 0.793000 14477301
-0.028080 -0.176400 0.756000 13881328
-0.027931 -0.171170 0.752000 14412284
-0.027783 -0.165985 0.748000 14736374
-0.027671 -0.161062 0.745000 14274289
-0.027671 -0.156805 0.745000 13946864
-0.027783 -0.153162 0.748000 13880562
-0.027783 -0.148888 0.748000 13815801
-0.027931 -0.145387 0.752000 13012168
-0.028043 -0.141652 0.755000 12289454
-0.028154 -0.137884 0.758000 12494014
-0.028340 -0.134433 0.763000 12886469
-0.028711 -0.131778 0.773000 14669804
-0.028674 -0.127196 0.772000 14407415
-0.028711 -0.122944 0.773000 14143221
-0.028860 -0.119140 0.777000 13745356
-0.029046 -0.115438 0.782000 14473458
-0.029194 -0.111537 0.786000 14472696
-0.029380 -0.107727 0.791000 13754104
-0.029454 -0.103468 0.793000 14077942
-0.026640 -0.176400 0.756000 13940683
-0.026499 -0.171170 0.752000 14669026
-0.026323 -0.165763 0.747000 14340068
-0.026252 -0.161062 0.745000 14010854
-0.026323 -0.157226 0.747000 13815013
-0.026358 -0.153162 0.748000 13813473
-0.026358 -0.148888 0.748000 13355229
-0.026534 -0.145580 0.753000 12753860
-0.026640 -0.141840 0.756000 12422583
-0.026710 -0.137884 0.758000 12691907
-0.026957 -0.134786 0.765000 13219007
-0.027310 -0.132119 0.775000 14537183
-0.027239 -0.127361 0.773000 14407395
-0.027310 -0.123262 0.775000 13614817
-0.027380 -0.119140 0.777000 12953041
-0.027627 -0.115733 0.784000 14339043
-0.027768 -0.111821 0.788000 14338524
-0.027873 -0.107727 0.791000 14865903
-0.027944 -0.103468 0.793000 13684211
-0.024900 -0.165763 0.747000 13548753
-0.024767 -0.160630 0.743000 13285339
-0.024900 -0.157226 0.747000 13352666
-0.025100 -0.145580 0.753000 12955072
-0.025200 -0.141840 0.756000 12821696
-0.025267 -0.137884 0.758000 12823497
-0.025667 -0.135667 0.770000 13151928
-0.025833 -0.132119 0.775000 13746643
-0.025767 -0.127361 0.773000 13680847
-0.025833 -0.123262 0.775000 13413069
-0.025900 -0.119140 0.777000 13088213
-0.026133 -0.115733 0.784000 13677268
-0.026433 -0.112530 0.793000 13809344
-0.026367 -0.107727 0.791000 14338022
-0.026433 -0.103468 0.793000 13748207
-0.023351 -0.160630 0.743000 12561089
-0.023477 -0.157226 0.747000 12889536
-0.023917 -0.138430 0.761000 12954047
-0.024200 -0.135667 0.770000 13084855
-0.024420 -0.132460 0.777000 12890817
-0.024294 -0.127361 0.773000 13021374
-0.024923 -0.112530 0.793000 13215677
-0.024860 -0.107727 0.791000 13810641
-0.024923 -0.103468 0.793000 13748183
-0.022940 -0.132460 0.777000 13019311
-0.100714 -0.165000 0.750000 12360611
-0.100446 -0.160286 0.748000 12362147
-0.099683 -0.169963 0.753000 11441059
-0.099021 -0.164560 0.748000 11307684
-0.098889 -0.160071 0.747000 11044764
-0.099286 -0.156429 0.750000 10845067
-0.099286 -0.152143 0.750000 11637402
-0.101669 -0.138240 0.768000 12361384
-0.101933 -0.134200 0.770000 12164512
-0.098640 -0.174960 0.756000 11049916
-0.098249 -0.169963 0.753000 10654911
-0.097596 -0.164560 0.748000 10195899
-0.097466 -0.160071 0.747000 9732766
-0.097596 -0.156011 0.748000 9139337
-0.097596 -0.151737 0.748000 10977415
-0.097596 -0.147463 0.748000 12228240
-0.100075 -0.138060 0.767000 12492711
-0.100467 -0.134200 0.770000 12098977
-0.100728 -0.130137 0.772000 11835292
-0.100858 -0.125889 0.773000 11243924
-0.097200 -0.174960 0.756000 12165585
-0.096686 -0.169737 0.752000 12170715
-0.096171 -0.164560 0.748000 11446226
-0.096043 -0.160071 0.747000 9931167
-0.096043 -0.155803 0.747000 9335942
-0.096043 -0.151534 0.747000 9728628
-0.096171 -0.147463 0.748000 10716031
-0.096171 -0.143189 0.748000 10980232
-0.098100 -0.137340 0.763000 11703205
-0.098743 -0.133851 0.768000 11902113
-0.098614 -0.129294 0.767000 11769756
-0.099386 -0.125889 0.773000 11309974
-0.099900 -0.122100 0.777000 10848385
-0.095760 -0.174960 0.756000 13288164
-0.095253 -0.169737 0.752000 13686505
-0.094747 -0.164560 0.748000 12631267
-0.094620 -0.160071 0.747000 10129856
-0.093987 -0.154760 0.742000 9535641
-0.094113 -0.150723 0.743000 8482678
-0.094620 -0.147266 0.747000 9205627
-0.094747 -0.143189 0.748000 9533313
-0.096013 -0.140771 0.758000 10321285
-0.096267 -0.136800 0.760000 10912134
-0.096900 -0.133329 0.765000 11634311
-0.097153 -0.129294 0.767000 11702924
-0.097913 -0.125889 0.773000 11307142
-0.098673 -0.122414 0.779000 10782848
-0.094944 -0.180466 0.761000 12958674
-0.094320 -0.174960 0.756000 13818872
-0.093821 -0.169737 0.752000 13948662
-0.093322 -0.164560 0.748000 13488884
-0.092948 -0.159643 0.745000 11184609
-0.092573 -0.154760 0.742000 9735852
-0.092573 -0.150520 0.742000 8810871
-0.092948 -0.146871 0.745000 8941688
-0.093197 -0.142997 0.747000 9335930
-0.094195 -0.140214 0.755000 9529460
-0.094570 -0.136440 0.758000 9660774
-0.095193 -0.132980 0.763000 10185324
-0.095692 -0.129294 0.767000 10385787
-0.096316 -0.125726 0.772000 10120055
-0.096940 -0.122100 0.777000 10124927
-0.097564 -0.118417 0.782000 9794936
-0.093494 -0.180466 0.761000 14082534
-0.092880 -0.174960 0.756000 14275826
-0.092389 -0.169737 0.752000 14210035
-0.091897 -0.164560 0.748000 14341106
-0.091529 -0.159643 0.745000 12237804
-0.090914 -0.154343 0.740000 9867960
-0.090914 -0.150114 0.740000 9204366
-0.091283 -0.146477 0.743000 8680571
-0.091774 -0.142997 0.747000 9204605
-0.092511 -0.139843 0.753000 8679033
-0.092880 -0.136080 0.756000 8414063
-0.093494 -0.132631 0.761000 8744305
-0.093986 -0.128957 0.765000 9073278
-0.094354 -0.125074 0.768000 8940920
-0.095460 -0.122100 0.777000 9533564
-0.096074 -0.118417 0.782000 9598585
-0.096811 -0.114823 0.788000 9400950
-0.097180 -0.110740 0.791000 9400684
-0.097426 -0.106489 0.793000 9137517
-0.092529 -0.185786 0.765000 12623296
-0.092045 -0.180466 0.761000 14277114
-0.091319 -0.174729 0.755000 14076909
-0.090956 -0.169737 0.752000 14078447
-0.090472 -0.164560 0.748000 14209520
-0.090110 -0.159643 0.745000 13027575
-0.089505 -0.154343 0.740000 10131653
-0.089505 -0.150114 0.740000 9469348
-0.089747 -0.146280 0.742000 8877695
-0.090110 -0.142614 0.745000 9073792
-0.090714 -0.139286 0.750000 8942719
-0.091319 -0.135900 0.755000 8678008
-0.091924 -0.132457 0.760000 8876661
-0.092529 -0.128957 0.765000 9270912
-0.092891 -0.125074 0.768000 9204858
-0.093738 -0.121786 0.775000 9467513
-0.094343 -0.118114 0.780000 9533562
-0.095069 -0.114531 0.786000 9203833
-0.095310 -0.110320 0.788000 9401200
-0.095673 -0.106220 0.791000 8940652
-0.091071 -0.185786 0.765000 13352914
-0.090833 -0.180940 0.763000 14406133
-0.089881 -0.174729 0.755000 13880813
-0.089524 -0.169737 0.752000 14012655
-0.089048 -0.164560 0.748000 14012912
-0.088452 -0.159214 0.743000 13816563
-0.087976 -0.154134 0.739000 10331604
-0.087976 -0.149911 0.739000 9734318
-0.088095 -0.145886 0.740000 9008513
-0.088452 -0.142231 0.743000 8942978
-0.089286 -0.139286 0.750000 9139329
-0.089643 -0.135540 0.753000 9006712
-0.090000 -0.131760 0.756000 9007217
-0.090833 -0.128620 0.763000 9402238
-0.091310 -0.124911 0.767000 9401980
-0.092024 -0.121471 0.773000 9336445
-0.092500 -0.117660 0.777000 9402489
-0.093095 -0.113949 0.782000 9071731
-0.093571 -0.110040 0.786000 9400680
-0.093929 -0.105951 0.789000 8744820
-0.089614 -0.185786 0.765000 13950436
-0.089380 -0.180940 0.763000 14143471
-0.088560 -0.174960 0.756000 13815534
-0.088091 -0.169737 0.752000 14012655
-0.087623 -0.164560 0.748000 14144241
-0.087037 -0.159214 0.743000 13947374
-0.086569 -0.154134 0.739000 11384036
-0.086334 -0.149506 0.737000 9866423
-0.086569 -0.145689 0.739000 9139843
-0.086920 -0.142040 0.742000 8943235
-0.087623 -0.138914 0.748000 9205124
-0.088091 -0.135360 0.752000 9072760
-0.088443 -0.131586 0.755000 8874349
-0.089029 -0.128114 0.760000 9337212
-0.089849 -0.124911 0.767000 9337214
-0.090434 -0.121314 0.772000 9139840
-0.090786 -0.117357 0.775000 9402744
-0.091371 -0.113657 0.780000 8808300
-0.091840 -0.109760 0.784000 9268832
-0.092309 -0.105817 0.788000 9007739
-0.088157 -0.185786 0.765000 14472172
-0.087927 -0.180940 0.763000 13881071
-0.087120 -0.174960 0.756000 13749997
-0.086659 -0.169737 0.752000 14012655
-0.086198 -0.164560 0.748000 14275055
-0.085622 -0.159214 0.743000 14077678
-0.085161 -0.154134 0.739000 12434666
-0.084930 -0.149506 0.737000 10065852
-0.084930 -0.145294 0.737000 9205645
-0.085161 -0.141466 0.739000 8943492
-0.086083 -0.138729 0.747000 9205379
-0.086429 -0.135000 0.750000 9206653
-0.086774 -0.131237 0.753000 8673382
-0.087350 -0.127777 0.758000 9337467
-0.087927 -0.124260 0.763000 9206140
-0.088733 -0.121000 0.770000 8942438
-0.088964 -0.116903 0.772000 9402746
-0.089310 -0.112929 0.775000 8548726
-0.090116 -0.109480 0.782000 9071729
-0.090808 -0.105817 0.788000 9270397
-0.091153 -0.101700 0.791000 9074037
-0.086700 -0.185786 0.765000 14209780
-0.086473 -0.180940 0.763000 13881327
-0.085680 -0.174960 0.756000 13815788
-0.085227 -0.169737 0.752000 14012399
-0.084773 -0.164560 0.748000 14209262
-0.084207 -0.159214 0.743000 14012398
-0.083753 -0.154134 0.739000 12895472
-0.083413 -0.149303 0.736000 10394048
-0.083413 -0.145097 0.736000 9206167
-0.083753 -0.141466 0.739000 8943492
-0.084433 -0.138357 0.745000 9074050
-0.084773 -0.134640 0.748000 8613505
-0.085227 -0.131063 0.752000 8339039
-0.085680 -0.127440 0.756000 9073785
-0.086473 -0.124260 0.763000 9140858
-0.086927 -0.120529 0.767000 8476492
-0.087040 -0.116297 0.768000 9403005
-0.087833 -0.112929 0.775000 9008768
-0.088627 -0.109480 0.782000 9337474
-0.089080 -0.105549 0.786000 9336703
-0.089420 -0.101443 0.789000 9008757
-0.085466 -0.190654 0.767000 13346243
-0.085243 -0.185786 0.765000 13947378
-0.085020 -0.180940 0.763000 13946864
-0.084240 -0.174960 0.756000 13881070
-0.083794 -0.169737 0.752000 14012399
-0.083237 -0.164340 0.747000 14078447
-0.082791 -0.159214 0.743000 14012399
-0.082346 -0.154134 0.739000 13354991
-0.082011 -0.149303 0.736000 10655430
-0.082011 -0.145097 0.736000 9208222
-0.082123 -0.141083 0.737000 9009286
-0.082791 -0.137986 0.743000 8943747
-0.083237 -0.134460 0.747000 8089472
-0.083794 -0.131063 0.752000 8014429
-0.084129 -0.127271 0.755000 8808557
-0.084686 -0.123771 0.760000 9075836
-0.085243 -0.120214 0.765000 8079458
-0.085577 -0.116297 0.768000 9400954
-0.086134 -0.112637 0.773000 9403266
-0.086803 -0.109060 0.779000 9534339
-0.087360 -0.105280 0.784000 9402494
-0.087806 -0.101314 0.788000 8875898
-0.084114 -0.190903 0.768000 13482974
-0.084005 -0.186271 0.767000 13880561
-0.083567 -0.180940 0.763000 13946865
-0.082800 -0.174960 0.756000 13946864
-0.082362 -0.169737 0.752000 13946863
-0.081924 -0.164560 0.748000 14078704
-0.081376 -0.159214 0.743000 14012655
-0.080938 -0.154134 0.739000 13617646
-0.080390 -0.148897 0.734000 11117260
-0.080390 -0.144703 0.734000 9471141
-0.080610 -0.140891 0.736000 9075336
-0.081267 -0.137800 0.742000 9009540
-0.081595 -0.134100 0.745000 8351102
-0.082143 -0.130714 0.750000 8080476
-0.082471 -0.126934 0.753000 8018273
-0.083019 -0.123446 0.758000 9404798
-0.083567 -0.119900 0.763000 8609400
-0.084005 -0.116146 0.767000 9534327
-0.084552 -0.112491 0.772000 9534596
-0.085100 -0.108780 0.777000 9665411
-0.085648 -0.105011 0.782000 9403004
-0.086086 -0.101057 0.786000 8214143
-0.082651 -0.190903 0.768000 13618407
-0.082329 -0.185786 0.765000 13815279
-0.082113 -0.180940 0.763000 13946608
-0.081360 -0.174960 0.756000 13947120
-0.080930 -0.169737 0.752000 13946863
-0.080391 -0.164340 0.747000 14012912
-0.079961 -0.159214 0.743000 14012399
-0.079530 -0.154134 0.739000 13815278
-0.078992 -0.148897 0.734000 11510232
-0.078992 -0.144703 0.734000 9669032
-0.078992 -0.140509 0.734000 9206414
-0.079638 -0.137429 0.740000 9075078
-0.080176 -0.134100 0.745000 8614520
-0.080714 -0.130714 0.750000 8080475
-0.081037 -0.126934 0.753000 7230048
-0.081575 -0.123446 0.758000 9664890
-0.082113 -0.119900 0.763000 9074821
-0.082544 -0.116146 0.767000 9599106
-0.082867 -0.112200 0.770000 9665927
-0.083190 -0.108220 0.773000 9731205
-0.083835 -0.104609 0.779000 9403265
-0.084373 -0.100800 0.784000 7493233
-0.081189 -0.190903 0.768000 13683696
-0.081083 -0.186271 0.767000 13814765
-0.080660 -0.180940 0.763000 13881070
-0.079920 -0.174960 0.756000 13947120
-0.079497 -0.169737 0.752000 13947119
-0.079074 -0.164560 0.748000 14078192
-0.078440 -0.159000 0.742000 14012655
-0.077911 -0.153717 0.737000 13881839
-0.077594 -0.148897 0.734000 11840996
-0.077594 -0.144703 0.734000 9996716
-0.077594 -0.140509 0.734000 9338003
-0.078123 -0.137243 0.739000 9140616
-0.078546 -0.133740 0.743000 8743793
-0.079074 -0.130366 0.748000 8212315
-0.079603 -0.126934 0.753000 7491422
-0.079920 -0.123120 0.756000 9732470
-0.080449 -0.119586 0.761000 9404049
-0.080871 -0.115843 0.765000 9732237
-0.081189 -0.111909 0.768000 9666185
-0.081717 -0.108220 0.773000 9862278
-0.082351 -0.104609 0.779000 9535110
-0.082669 -0.100543 0.782000 8278627
-0.079726 -0.190903 0.768000 13817332
-0.079622 -0.186271 0.767000 13749230
-0.079207 -0.180940 0.763000 13881327
-0.078480 -0.174960 0.756000 13947121
-0.078065 -0.169737 0.752000 13947122
-0.077650 -0.164560 0.748000 14143984
-0.077130 -0.159214 0.743000 14012912
-0.076715 -0.154134 0.739000 13881328
-0.076196 -0.148897 0.734000 12171241
-0.075989 -0.144309 0.732000 10260659
-0.076196 -0.140509 0.734000 9469328
-0.076715 -0.137243 0.739000 9206667
-0.077130 -0.133740 0.743000 8942975
-0.077546 -0.130191 0.747000 8343646
-0.078065 -0.126766 0.752000 7752785
-0.078376 -0.122957 0.755000 9795186
-0.078895 -0.119429 0.760000 9732240
-0.079414 -0.115843 0.765000 9798030
-0.079726 -0.111909 0.768000 9732235
-0.080141 -0.108080 0.772000 9993607
-0.080452 -0.104071 0.775000 9732741
-0.080971 -0.100286 0.780000 9070968
-0.081387 -0.096320 0.784000 9667465
-0.078263 -0.190903 0.768000 13816055
-0.078161 -0.186271 0.767000 13683950
-0.077550 -0.180466 0.761000 13946351
-0.077040 -0.174960 0.756000 14144242
-0.076632 -0.169737 0.752000 13947636
-0.076225 -0.164560 0.748000 14078191
-0.075715 -0.159214 0.743000 14012912
-0.075308 -0.154134 0.739000 13881073
-0.074798 -0.148897 0.734000 12369645
-0.074594 -0.144309 0.732000 10655930
-0.074798 -0.140509 0.734000 9404044
-0.075308 -0.137243 0.739000 9272719
-0.075613 -0.133560 0.742000 9007756
-0.076123 -0.130191 0.747000 8409953
-0.076429 -0.126429 0.750000 7489348
-0.076734 -0.122631 0.753000 9730415
-0.077448 -0.119429 0.760000 9798031
-0.077753 -0.115540 0.763000 9929102
-0.078161 -0.111763 0.767000 9666957
-0.078670 -0.108080 0.772000 9469063
-0.078976 -0.104071 0.775000 9732995
-0.079384 -0.100157 0.779000 9469069
-0.079690 -0.096074 0.782000 9667468
-0.076700 -0.190654 0.767000 13881844
-0.076700 -0.186271 0.767000 13618158
-0.076100 -0.180466 0.761000 13946095
-0.075500 -0.174729 0.755000 14341359
-0.075200 -0.169737 0.752000 13946583
-0.074800 -0.164560 0.748000 14012912
-0.074300 -0.159214 0.743000 14012912
-0.073900 -0.154134 0.739000 13881328
-0.073400 -0.148897 0.734000 12634864
-0.073200 -0.144309 0.732000 10983615
-0.073200 -0.140126 0.732000 9338509
-0.073700 -0.136871 0.737000 9338513
-0.074200 -0.133560 0.742000 9076109
-0.074500 -0.129843 0.745000 8474470
-0.075000 -0.126429 0.750000 7161937
-0.075300 -0.122631 0.753000 9663606
-0.075800 -0.119114 0.758000 9798799
-0.076100 -0.115237 0.761000 9994897
-0.076700 -0.111763 0.767000 9601934
-0.077200 -0.108080 0.772000 8877166
-0.077300 -0.103803 0.773000 9733257
-0.077900 -0.100157 0.779000 9798029
-0.078200 -0.096074 0.782000 9733006
-0.075239 -0.190654 0.767000 13946864
-0.075239 -0.186271 0.767000 13814767
-0.074847 -0.180940 0.763000 13881326
-0.074160 -0.174960 0.756000 13030381
-0.073866 -0.169963 0.753000 13084346
-0.073571 -0.165000 0.750000 14144498
-0.072885 -0.159214 0.743000 14143984
-0.072492 -0.154134 0.739000 13946864
-0.072002 -0.148897 0.734000 12896755
-0.071806 -0.144309 0.732000 11050949
-0.071806 -0.140126 0.732000 9470094
-0.072296 -0.136871 0.737000 9470100
-0.072590 -0.133200 0.740000 9271694
-0.073081 -0.129843 0.745000 8670827
-0.073571 -0.126429 0.750000 7554397
-0.073866 -0.122631 0.753000 9601150
-0.074356 -0.119114 0.758000 9864847
-0.074650 -0.115237 0.761000 9929619
-0.075239 -0.111763 0.767000 9733006
-0.075533 -0.107800 0.770000 8808278
-0.075828 -0.103803 0.773000 9664399
-0.076416 -0.100157 0.779000 9929613
-0.076710 -0.096074 0.782000 9864335
-0.074067 -0.191400 0.770000 14012143
-0.073778 -0.186271 0.767000 13946094
-0.073201 -0.180466 0.761000 13816303
-0.072720 -0.174960 0.756000 11642580
-0.072335 -0.169737 0.752000 12152246
-0.071950 -0.164560 0.748000 14210543
-0.071470 -0.159214 0.743000 14209520
-0.071085 -0.154134 0.739000 13947120
-0.070604 -0.148897 0.734000 13160947
-0.070411 -0.144309 0.732000 11050703
-0.070411 -0.140126 0.732000 9535890
-0.070892 -0.136871 0.737000 9536407
-0.071181 -0.133200 0.740000 9470607
-0.071662 -0.129843 0.745000 8875136
-0.071950 -0.126091 0.748000 7879547
-0.072431 -0.122631 0.753000 9467775
-0.072720 -0.118800 0.756000 9996438
-0.073105 -0.115086 0.760000 9864597
-0.073586 -0.111471 0.765000 9930130
-0.074067 -0.107800 0.770000 8676968
-0.074355 -0.103803 0.773000 9662350
-0.074740 -0.099900 0.777000 9995665
-0.075029 -0.095829 0.780000 10061200
-0.072883 -0.196563 0.773000 13020610
-0.072600 -0.191400 0.770000 13946606
-0.072317 -0.186271 0.767000 13880558
-0.071751 -0.180466 0.761000 13484016
-0.071280 -0.174960 0.756000 11964860
-0.070997 -0.169963 0.753000 12422577
-0.070526 -0.164560 0.748000 14276077
-0.070054 -0.159214 0.743000 14143984
-0.069489 -0.153717 0.737000 13947120
-0.069206 -0.148897 0.734000 13356787
-0.068923 -0.144111 0.731000 11248602
-0.069017 -0.140126 0.732000 9667477
-0.069489 -0.136871 0.737000 9733787
-0.069771 -0.133200 0.740000 9667471
-0.070243 -0.129843 0.745000 9735317
-0.070526 -0.126091 0.748000 8414617
-0.070997 -0.122631 0.753000 8416897
-0.071280 -0.118800 0.756000 9865629
-0.071657 -0.115086 0.760000 9733271
-0.072129 -0.111471 0.765000 9996182
-0.072600 -0.107800 0.770000 9265786
-0.072789 -0.103669 0.772000 9861772
-0.073260 -0.099900 0.777000 10061204
-0.073543 -0.095829 0.780000 9996433
-0.071410 -0.196563 0.773000 13350854
-0.071133 -0.191400 0.770000 13815023
-0.070949 -0.186514 0.768000 13749743
-0.070302 -0.180466 0.761000 13093621
-0.069840 -0.174960 0.756000 12225473
-0.069563 -0.169963 0.753000 12684720
-0.069009 -0.164340 0.747000 14274792
-0.068639 -0.159214 0.743000 14078448
-0.068085 -0.153717 0.737000 13947120
-0.067623 -0.148491 0.732000 13554163
-0.067530 -0.144111 0.731000 11380444
-0.067623 -0.140126 0.732000 9798809
-0.067992 -0.136686 0.736000 9931166
-0.068362 -0.133200 0.740000 9864342
-0.068824 -0.129843 0.745000 10586519
-0.069101 -0.126091 0.748000 9014930
-0.069563 -0.122631 0.753000 7371404
-0.069840 -0.118800 0.756000 9799829
-0.070210 -0.115086 0.760000 9534329
-0.070671 -0.111471 0.765000 10062491
-0.071133 -0.107800 0.770000 9861262
-0.071410 -0.103803 0.773000 9996692
-0.071780 -0.099900 0.777000 10127256
-0.072057 -0.095829 0.780000 9931155
-0.069938 -0.196563 0.773000 13483978
-0.069848 -0.191897 0.772000 13815280
-0.069486 -0.186514 0.768000 13749744
-0.068852 -0.180466 0.761000 13354745
-0.068400 -0.174960 0.756000 12354758
-0.068129 -0.169963 0.753000 12554159
-0.067586 -0.164340 0.747000 14208740
-0.067224 -0.159214 0.743000 14078704
-0.066862 -0.154134 0.739000 13947120
-0.066229 -0.148491 0.732000 13684466
-0.066229 -0.144309 0.732000 11512287
-0.066229 -0.140126 0.732000 9931165
-0.066590 -0.136686 0.736000 10063266
-0.066952 -0.133200 0.740000 9799068
-0.067224 -0.129494 0.743000 10324122
-0.067676 -0.126091 0.748000 9340043
-0.068129 -0.122631 0.753000 8882584
-0.068310 -0.118643 0.755000 9204620
-0.068581 -0.114783 0.758000 9200476
-0.069214 -0.111471 0.765000 10325407
-0.069486 -0.107520 0.768000 10128547
-0.069848 -0.103669 0.772000 10193307
-0.070119 -0.099643 0.775000 10258587
-0.070571 -0.095829 0.780000 9533844
-0.068466 -0.196563 0.773000 13614283
-0.068377 -0.191897 0.772000 13880815
-0.068200 -0.187000 0.770000 13750000
-0.067403 -0.180466 0.761000 13554148
-0.066960 -0.174960 0.756000 12487360
-0.066694 -0.169963 0.753000 12420016
-0.066163 -0.164340 0.747000 14071758
-0.065809 -0.159214 0.743000 14013169
-0.065277 -0.153717 0.737000 13947120
-0.065011 -0.148897 0.734000 13815535
-0.064834 -0.144309 0.732000 11644128
-0.064834 -0.140126 0.732000 10128290
-0.065189 -0.136686 0.736000 10129830
-0.065454 -0.133020 0.739000 9798560
-0.065809 -0.129494 0.743000 10061727
-0.066251 -0.126091 0.748000 9731476
-0.066694 -0.122631 0.753000 10325661
-0.066871 -0.118643 0.755000 8616837
-0.067137 -0.114783 0.758000 8810342
-0.067580 -0.111180 0.763000 10522784
-0.068023 -0.107520 0.768000 10325668
-0.068377 -0.103669 0.772000 10390688
-0.068466 -0.099386 0.773000 10324894
-0.069086 -0.095829 0.780000 9144474
-0.066993 -0.196563 0.773000 13681869
-0.066907 -0.191897 0.772000 13815277
-0.066733 -0.187000 0.770000 13881071
-0.066127 -0.180940 0.763000 12563919
-0.065693 -0.175423 0.758000 11961274
-0.065260 -0.169963 0.753000 12287153
-0.064740 -0.164340 0.747000 13018552
-0.064393 -0.159214 0.743000 14078450
-0.063873 -0.153717 0.737000 13947119
-0.063613 -0.148897 0.734000 13815787
-0.063440 -0.144309 0.732000 11906786
-0.063440 -0.140126 0.732000 10325414
-0.063787 -0.136686 0.736000 10394027
-0.064047 -0.133020 0.739000 10061732
-0.064393 -0.129494 0.743000 10127268
-0.064740 -0.125923 0.747000 9928861
-0.065173 -0.122469 0.752000 10523299
-0.065433 -0.118643 0.755000 8679805
-0.065867 -0.115086 0.760000 9400944
-0.066127 -0.111180 0.763000 10588577
-0.066560 -0.107520 0.768000 10522534
-0.066907 -0.103669 0.772000 10522276
-0.066993 -0.099386 0.773000 10456481
-0.067513 -0.095706 0.779000 9668000
-0.065436 -0.191897 0.772000 13815277
-0.065097 -0.186514 0.768000 13946607
-0.064504 -0.180466 0.761000 11569084
-0.064250 -0.175423 0.758000 11437760
-0.063826 -0.169963 0.753000 12159926
-0.063317 -0.164340 0.747000 11901373
-0.062893 -0.159000 0.742000 14144499
-0.062385 -0.153509 0.736000 13947118
-0.062046 -0.148491 0.732000 13815786
-0.061961 -0.144111 0.731000 12104677
-0.061961 -0.139934 0.731000 10522029
-0.062215 -0.136314 0.734000 10590898
-0.062639 -0.133020 0.739000 10323622
-0.062893 -0.129320 0.742000 10129064
-0.063317 -0.125923 0.747000 10123937
-0.063741 -0.122469 0.752000 10655145
-0.063995 -0.118643 0.755000 8745369
-0.064419 -0.115086 0.760000 9994384
-0.064673 -0.111180 0.763000 10654118
-0.065012 -0.107380 0.767000 10720169
-0.065267 -0.103400 0.770000 10588328
-0.065521 -0.099386 0.773000 10587557
-0.066030 -0.095706 0.779000 10195363
-0.063634 -0.190903 0.768000 13815276
-0.063551 -0.186271 0.767000 14012143
-0.062971 -0.180229 0.760000 11963048
-0.062640 -0.174960 0.756000 11961541
-0.062309 -0.169737 0.752000 12489403
-0.061729 -0.163900 0.745000 11962307
-0.061480 -0.159000 0.742000 14078708
-0.060983 -0.153509 0.736000 14012653
-0.060569 -0.148289 0.731000 13881577
-0.060403 -0.143717 0.729000 12236263
-0.060569 -0.139934 0.731000 10654899
-0.060817 -0.136314 0.734000 10919866
-0.061231 -0.133020 0.739000 10456231
-0.061480 -0.129320 0.742000 10260653
-0.061729 -0.125586 0.745000 10258084
-0.062143 -0.122143 0.750000 10786736
-0.062391 -0.118329 0.753000 9998261
-0.062640 -0.114480 0.756000 10524592
-0.063054 -0.110889 0.761000 10851755
-0.063386 -0.107100 0.765000 10852013
-0.063634 -0.103131 0.768000 10721195
-0.063966 -0.099257 0.772000 9471914
-0.064380 -0.095460 0.777000 10654885
-0.064794 -0.091606 0.782000 10261169
-0.062171 -0.190903 0.768000 13815022
-0.062090 -0.186271 0.767000 14011887
-0.061605 -0.180466 0.761000 12287669
-0.061200 -0.174960 0.756000 12426448
-0.060876 -0.169737 0.752000 12883130
-0.060471 -0.164340 0.747000 12031937
-0.059905 -0.158571 0.740000 14078964
-0.059581 -0.153509 0.736000 14012654
-0.059176 -0.148289 0.731000 14012907
-0.059014 -0.143717 0.729000 12368360
-0.059176 -0.139934 0.731000 10852279
-0.059419 -0.136314 0.734000 11182270
-0.059824 -0.133020 0.739000 10587052
-0.060067 -0.129320 0.742000 10393521
-0.060310 -0.125586 0.745000 10388134
-0.060714 -0.122143 0.750000 10918837
-0.060957 -0.118329 0.753000 11247287
-0.061200 -0.114480 0.756000 10984116
-0.061605 -0.110889 0.761000 10984113
-0.061929 -0.107100 0.765000 10983858
-0.062333 -0.103400 0.770000 10853297
-0.062495 -0.099257 0.772000 8289681
-0.062900 -0.095460 0.777000 11114670
-0.063305 -0.091606 0.782000 11245747
-0.060867 -0.191400 0.770000 13815279
-0.060630 -0.186271 0.767000 13880560
-0.060076 -0.180229 0.760000 12557505
-0.059760 -0.174960 0.756000 12367834
-0.059444 -0.169737 0.752000 12293817
-0.058890 -0.163900 0.745000 11893440
-0.058653 -0.159000 0.742000 14012660
-0.058179 -0.153509 0.736000 14012912
-0.057784 -0.148289 0.731000 14078957
-0.057626 -0.143717 0.729000 12500201
-0.057784 -0.139934 0.731000 11049914
-0.058021 -0.136314 0.734000 11512003
-0.058416 -0.133020 0.739000 10850992
-0.058653 -0.129320 0.742000 10656950
-0.058890 -0.125586 0.745000 10522279
-0.059286 -0.122143 0.750000 11181755
-0.059681 -0.118643 0.755000 11247545
-0.059760 -0.114480 0.756000 11180985
-0.060076 -0.110743 0.760000 11181239
-0.060471 -0.107100 0.765000 11180983
-0.060867 -0.103400 0.770000 10719415
-0.061025 -0.099257 0.772000 8544887
-0.061420 -0.095460 0.777000 11247030
-0.059246 -0.190903 0.768000 13815278
-0.059169 -0.186271 0.767000 13684207
-0.058629 -0.180229 0.760000 12820183
-0.058320 -0.174960 0.756000 12293584
-0.058011 -0.169737 0.752000 11767988
-0.057471 -0.163900 0.745000 11697325
-0.057086 -0.158571 0.740000 13948662
-0.056854 -0.153717 0.737000 14012656
-0.056469 -0.148491 0.732000 14209773
-0.056237 -0.143717 0.729000 12631783
-0.056391 -0.139934 0.731000 11246784
-0.056469 -0.135943 0.732000 11839430
-0.057009 -0.133020 0.739000 11047862
-0.057240 -0.129320 0.742000 10854843
-0.057471 -0.125586 0.745000 10653361
-0.057857 -0.122143 0.750000 11379133
-0.058243 -0.118643 0.755000 11313598
-0.058320 -0.114480 0.756000 11313343
-0.058629 -0.110743 0.760000 11378620
-0.059014 -0.107100 0.765000 11313085
-0.059400 -0.103400 0.770000 10524858
-0.059554 -0.099257 0.772000 8804471
-0.059940 -0.095460 0.777000 11379390
-0.060326 -0.091606 0.782000 11116730
-0.057933 -0.191400 0.770000 13815277
-0.057557 -0.185786 0.765000 13749486
-0.057181 -0.180229 0.760000 13287660
-0.056880 -0.174960 0.756000 12024262
-0.056579 -0.169737 0.752000 11043759
-0.056052 -0.163900 0.745000 10836123
-0.055827 -0.159000 0.742000 14013431
-0.055375 -0.153509 0.736000 14012655
-0.054999 -0.148289 0.731000 14078445
-0.054773 -0.143520 0.728000 12696038
-0.054999 -0.139934 0.731000 11444421
-0.055074 -0.135943 0.732000 11841738
-0.055601 -0.133020 0.739000 11246011
-0.055902 -0.129494 0.743000 11052735
-0.056052 -0.125586 0.745000 10917819
-0.056429 -0.122143 0.750000 11575999
-0.056805 -0.118643 0.755000 11576259
-0.057030 -0.114783 0.758000 11576262
-0.057181 -0.110743 0.760000 11576513
-0.057557 -0.107100 0.765000 11576258
-0.057933 -0.103400 0.770000 10720957
-0.058159 -0.099386 0.773000 9649527
-0.058460 -0.095460 0.777000 11576517
-0.056320 -0.190903 0.768000 13880816
-0.056100 -0.185786 0.765000 13749487
-0.055807 -0.180466 0.761000 13815533
-0.055440 -0.174960 0.756000 11768787
-0.055147 -0.169737 0.752000 10329294
-0.054633 -0.163900 0.745000 9933760
-0.054413 -0.159000 0.742000 14145524
-0.053973 -0.153509 0.736000 14012655
-0.053607 -0.148289 0.731000 13947119
-0.053387 -0.143520 0.728000 12761828
-0.053460 -0.139551 0.729000 11576265
-0.053827 -0.136314 0.734000 11774924
-0.054193 -0.133020 0.739000 11442627
-0.054487 -0.129494 0.743000 11249606
-0.054633 -0.125586 0.745000 11180230
-0.055147 -0.122469 0.752000 11774152
-0.055367 -0.118643 0.755000 11838921
-0.055440 -0.114480 0.756000 11839690
-0.055807 -0.110889 0.761000 11708870
-0.056100 -0.107100 0.765000 11773638
-0.056467 -0.103400 0.770000 10921419
-0.056833 -0.099643 0.775000 10450326
-0.056980 -0.095460 0.777000 11839434
-0.055000 -0.191400 0.770000 13880818
-0.054643 -0.185786 0.765000 13815279
-0.054357 -0.180466 0.761000 13815278
-0.054000 -0.174960 0.756000 12625375
-0.053571 -0.169286 0.750000 11973357
-0.053214 -0.163900 0.745000 12107750
-0.052857 -0.158571 0.740000 14078961
-0.052571 -0.153509 0.736000 14012911
-0.052214 -0.148289 0.731000 13815793
-0.052071 -0.143717 0.729000 12827107
-0.052214 -0.139934 0.731000 11839437
-0.052429 -0.136314 0.734000 11905998
-0.052786 -0.133020 0.739000 11641290
-0.053071 -0.129494 0.743000 11316941
-0.053214 -0.125586 0.745000 11445201
-0.053714 -0.122469 0.752000 11971281
-0.053929 -0.118643 0.755000 12037070
-0.054143 -0.114783 0.758000 11972046
-0.054357 -0.110889 0.761000 11839434
-0.054786 -0.107380 0.767000 11971274
-0.055143 -0.103669 0.772000 11052248
-0.055357 -0.099643 0.775000 11443381
-0.055643 -0.095706 0.779000 12036814
-0.053672 -0.191897 0.772000 13881073
-0.053186 -0.185786 0.765000 13880815
-0.052908 -0.180466 0.761000 13815279
-0.052560 -0.174960 0.756000 13418728
-0.052143 -0.169286 0.750000 13687024
-0.051795 -0.163900 0.745000 14274283
-0.051448 -0.158571 0.740000 14012912
-0.051239 -0.153717 0.737000 14012655
-0.050891 -0.148491 0.732000 13750514
-0.050822 -0.144111 0.731000 12893410
-0.050822 -0.139934 0.731000 12037332
-0.051030 -0.136314 0.734000 12037587
-0.051378 -0.133020 0.739000 11903947
-0.051656 -0.129494 0.743000 11380685
-0.051934 -0.125923 0.747000 11709903
-0.052282 -0.122469 0.752000 12103380
-0.052490 -0.118643 0.755000 12300497
-0.052699 -0.114783 0.758000 12104917
-0.053047 -0.111180 0.763000 12033707
-0.053325 -0.107380 0.767000 12169423
-0.053533 -0.103400 0.770000 11252183
-0.053742 -0.099386 0.773000 12428232
-0.054159 -0.095706 0.779000 12234193
-0.052202 -0.191897 0.772000 13815536
-0.051729 -0.185786 0.765000 13880815
-0.051458 -0.180466 0.761000 13815535
-0.051120 -0.174960 0.756000 13618929
-0.050714 -0.169286 0.750000 13751027
-0.050376 -0.163900 0.745000 14078193
-0.050173 -0.159000 0.742000 14078447
-0.049768 -0.153509 0.736000 14012655
-0.049497 -0.148491 0.732000 13816307
-0.049430 -0.144111 0.731000 12892897
-0.049497 -0.140126 0.732000 12169435
-0.049768 -0.136686 0.736000 12169432
-0.050038 -0.133200 0.740000 12102603
-0.050241 -0.129494 0.743000 11380685
-0.050511 -0.125923 0.747000 11971277
-0.050850 -0.122469 0.752000 12235992
-0.051120 -0.118800 0.756000 12497364
-0.051390 -0.115086 0.760000 11975131
-0.051593 -0.111180 0.763000 11502220
-0.051864 -0.107380 0.767000 12367060
-0.052202 -0.103669 0.772000 11973334
-0.052405 -0.099643 0.775000 12495579
-0.052675 -0.095706 0.779000 12366292
-0.050600 -0.191400 0.770000 13815534
-0.050271 -0.185786 0.765000 13881070
-0.050009 -0.180466 0.761000 13815535
-0.049680 -0.174960 0.756000 13815535
-0.049286 -0.169286 0.750000 13880817
-0.048957 -0.163900 0.745000 13815536
-0.048760 -0.159000 0.742000 14078703
-0.048366 -0.153509 0.736000 13946861
-0.048103 -0.148491 0.732000 13950196
-0.048037 -0.144111 0.731000 12827619
-0.048103 -0.140126 0.732000 12366814
-0.048366 -0.136686 0.736000 12235994
-0.048629 -0.133200 0.740000 12365519
-0.048957 -0.129843 0.745000 11314897
-0.049154 -0.126091 0.748000 12233171
-0.049417 -0.122469 0.752000 12362944
-0.049680 -0.118800 0.756000 12694233
-0.050009 -0.115237 0.761000 11772876
-0.050140 -0.111180 0.763000 11030395
-0.050403 -0.107380 0.767000 12564438
-0.050731 -0.103669 0.772000 12695002
-0.051060 -0.099900 0.777000 12498652
-0.051191 -0.095706 0.779000 12563673
-0.049133 -0.191400 0.770000 13749740
-0.048687 -0.185300 0.763000 13880814
-0.048559 -0.180466 0.761000 13815535
-0.048176 -0.174729 0.755000 13880814
-0.047857 -0.169286 0.750000 13881071
-0.047538 -0.163900 0.745000 13880814
-0.047347 -0.159000 0.742000 14012911
-0.046836 -0.153091 0.734000 13880811
-0.046709 -0.148491 0.732000 13948660
-0.046645 -0.144111 0.731000 12892645
-0.046709 -0.140126 0.732000 12498400
-0.047155 -0.137243 0.739000 12367837
-0.047347 -0.133560 0.742000 12564434
-0.047538 -0.129843 0.745000 11444437
-0.047730 -0.126091 0.748000 12036825
-0.048049 -0.122631 0.753000 11368617
-0.048240 -0.118800 0.756000 12958685
-0.048559 -0.115237 0.761000 11571133
-0.048814 -0.111471 0.765000 11034985
-0.049006 -0.107520 0.768000 12827097
-0.049325 -0.103803 0.773000 12761053
-0.049580 -0.099900 0.777000 12696029
-0.049771 -0.095829 0.780000 12761565
-0.047667 -0.191400 0.770000 13749993
-0.047233 -0.185300 0.763000 13880815
-0.047110 -0.180466 0.761000 13881072
-0.046800 -0.174960 0.756000 13946351
-0.046429 -0.169286 0.750000 13881072
-0.046119 -0.163900 0.745000 13946607
-0.046119 -0.159643 0.745000 13947119
-0.045562 -0.153509 0.736000 13749484
-0.045314 -0.148491 0.732000 14015219
-0.045252 -0.144111 0.731000 12893670
-0.045438 -0.140509 0.734000 12695521
-0.045748 -0.137243 0.739000 12498907
-0.045933 -0.133560 0.742000 12763107
-0.046243 -0.130191 0.747000 11511508
-0.046429 -0.126429 0.750000 11845086
-0.046738 -0.122957 0.755000 10381730
-0.046924 -0.119114 0.758000 13223651
-0.047233 -0.115540 0.763000 11378901
-0.047357 -0.111471 0.765000 11036056
-0.047543 -0.107520 0.768000 13025760
-0.047852 -0.103803 0.773000 12892897
-0.048100 -0.099900 0.777000 12893407
-0.048410 -0.096074 0.782000 12893409
-0.046080 -0.190903 0.768000 13617381
-0.045780 -0.185300 0.763000 13880560
-0.045660 -0.180466 0.761000 13881072
-0.045300 -0.174729 0.755000 13946608
-0.045000 -0.169286 0.750000 13881072
-0.044700 -0.163900 0.745000 14012144
-0.044700 -0.159643 0.745000 13946863
-0.044160 -0.153509 0.736000 13617646
-0.043920 -0.148491 0.732000 13948402
-0.043920 -0.144309 0.732000 13023975
-0.044040 -0.140509 0.734000 12827874
-0.044400 -0.137429 0.740000 12629721
-0.044580 -0.133740 0.743000 12894963
-0.044880 -0.130366 0.748000 11443924
-0.045000 -0.126429 0.750000 12234978
-0.045300 -0.122957 0.755000 10042011
-0.045480 -0.119114 0.758000 13354728
-0.045780 -0.115540 0.763000 12434157
-0.045900 -0.111471 0.765000 11440071
-0.046200 -0.107800 0.770000 13289448
-0.046380 -0.103803 0.773000 13156836
-0.046620 -0.099900 0.777000 13156322
-0.046920 -0.096074 0.782000 12629476
-0.044443 -0.190157 0.765000 13550818
-0.044327 -0.185300 0.763000 13880815
-0.044210 -0.180466 0.761000 13881072
-0.043862 -0.174729 0.755000 13881328
-0.043688 -0.169737 0.752000 13881328
-0.043281 -0.163900 0.745000 14012400
-0.043165 -0.159214 0.743000 13946864
-0.042758 -0.153509 0.736000 13487596
-0.042526 -0.148491 0.732000 13948401
-0.042526 -0.144309 0.732000 13157098
-0.042758 -0.140891 0.736000 12959203
-0.042990 -0.137429 0.740000 12695267
-0.043165 -0.133740 0.743000 13028338
-0.043455 -0.130366 0.748000 11378390
-0.043688 -0.126766 0.752000 12568812
-0.043920 -0.123120 0.756000 9735365
-0.044152 -0.119429 0.760000 13486058
-0.044327 -0.115540 0.763000 13417966
-0.044559 -0.111763 0.767000 11846621
-0.044733 -0.107800 0.770000 13552105
-0.045024 -0.104071 0.775000 13419743
-0.045256 -0.100157 0.779000 13353960
-0.045547 -0.096320 0.784000 12435166
-0.042873 -0.189660 0.763000 13353695
-0.042873 -0.185300 0.763000 14011631
-0.042761 -0.180466 0.761000 13946608
-0.042424 -0.174729 0.755000 13881328
-0.042255 -0.169737 0.752000 13881327
-0.041862 -0.163900 0.745000 14078192
-0.041750 -0.159214 0.743000 13881328
-0.041356 -0.153509 0.736000 14077417
-0.041244 -0.148897 0.734000 14013424
-0.041244 -0.144703 0.734000 13355245
-0.041412 -0.141083 0.737000 13091299
-0.041581 -0.137429 0.740000 13022701
-0.041862 -0.134100 0.745000 13355760
-0.042143 -0.130714 0.750000 11507416
-0.042311 -0.126934 0.753000 13289462
-0.042592 -0.123446 0.758000 12043504
-0.042705 -0.119429 0.760000 13617643
-0.042986 -0.115843 0.765000 13681902
-0.043154 -0.111909 0.768000 12896243
-0.043379 -0.108080 0.772000 13552618
-0.043660 -0.104340 0.777000 13085657
-0.043829 -0.100286 0.780000 13551342
-0.044053 -0.096320 0.784000 12559575
-0.041529 -0.190157 0.765000 13222098
-0.041420 -0.185300 0.763000 14076908
-0.041311 -0.180466 0.761000 14012143
-0.041040 -0.174960 0.756000 13881328
-0.040823 -0.169737 0.752000 13881327
-0.040443 -0.163900 0.745000 14143984
-0.040334 -0.159214 0.743000 13815535
-0.039954 -0.153509 0.736000 14670062
-0.039846 -0.148897 0.734000 14013168
-0.039846 -0.144703 0.734000 13552110
-0.040117 -0.141466 0.739000 13222892
-0.040280 -0.137800 0.742000 13353454
-0.040551 -0.134460 0.747000 13684980
-0.040823 -0.131063 0.752000 11641567
-0.040986 -0.127271 0.755000 13946869
-0.041149 -0.123446 0.758000 14274033
-0.041311 -0.119586 0.761000 13749230
-0.041529 -0.115843 0.765000 13945839
-0.041691 -0.111909 0.768000 13946866
-0.041963 -0.108220 0.773000 13546471
-0.042289 -0.104609 0.779000 12748503
-0.042343 -0.100286 0.780000 13684208
-0.042560 -0.096320 0.784000 12758502
-0.040071 -0.190157 0.765000 13088197
-0.039967 -0.185300 0.763000 13814506
-0.039862 -0.180466 0.761000 13946350
-0.039600 -0.174960 0.756000 13881328
-0.039286 -0.169286 0.750000 13881327
-0.039024 -0.163900 0.745000 14078448
-0.038919 -0.159214 0.743000 13814509
-0.038552 -0.153509 0.736000 15068146
-0.038552 -0.149303 0.736000 14013167
-0.038552 -0.145097 0.736000 13683952
-0.038762 -0.141657 0.740000 13552373
-0.038919 -0.137986 0.743000 13616623
-0.039129 -0.134460 0.747000 14013944
-0.039390 -0.131063 0.752000 12098790
-0.039600 -0.127440 0.756000 14078452
-0.039705 -0.123446 0.758000 14275571
-0.039967 -0.119900 0.763000 13946609
-0.040176 -0.116146 0.767000 14077425
-0.040333 -0.112200 0.770000 14012401
-0.040595 -0.108500 0.775000 12483556
-0.040805 -0.104609 0.779000 12950740
-0.040962 -0.100543 0.782000 13881074
-0.041171 -0.096566 0.786000 13551348
-0.038513 -0.185300 0.763000 13486057
-0.038412 -0.180466 0.761000 13880811
-0.038160 -0.174960 0.756000 13881071
-0.037857 -0.169286 0.750000 13881071
-0.037605 -0.163900 0.745000 13947630
-0.037352 -0.158571 0.740000 13813992
-0.037201 -0.153717 0.737000 15393266
-0.037201 -0.149506 0.737000 14078959
-0.037302 -0.145689 0.739000 13815280
-0.037453 -0.142040 0.742000 13883125
-0.037504 -0.137986 0.743000 13880560
-0.037756 -0.134640 0.748000 14408943
-0.038009 -0.131237 0.753000 12558544
-0.038160 -0.127440 0.756000 14210293
-0.038362 -0.123771 0.760000 14210036
-0.038614 -0.120214 0.765000 14143723
-0.038766 -0.116297 0.768000 14143729
-0.038968 -0.112491 0.772000 14078193
-0.039220 -0.108780 0.777000 11378405
-0.039321 -0.104609 0.779000 13157862
-0.039472 -0.100543 0.782000 14078450
-0.039674 -0.096566 0.786000 14341106
-0.037060 -0.185300 0.763000 13419240
-0.036914 -0.180229 0.760000 13749480
-0.036671 -0.174729 0.755000 13881070
-0.036429 -0.169286 0.750000 13881071
-0.036186 -0.163900 0.745000 13816556
-0.035943 -0.158571 0.740000 13946594
-0.035797 -0.153717 0.737000 14868210
-0.035894 -0.149911 0.739000 14013167
-0.035943 -0.145886 0.740000 13750000
-0.036040 -0.142040 0.742000 14079221
-0.036283 -0.138729 0.747000 14079474
-0.036429 -0.135000 0.750000 13351142
-0.036671 -0.131586 0.755000 12613307
-0.036720 -0.127440 0.756000 14341621
-0.036963 -0.123934 0.761000 13423605
-0.037157 -0.120214 0.765000 13616612
-0.037400 -0.116600 0.770000 14209777
-0.037497 -0.112491 0.772000 14209521
-0.037740 -0.108780 0.777000 12822246
-0.037886 -0.104743 0.780000 13751543
-0.038080 -0.100800 0.784000 14275059
-0.038274 -0.096811 0.788000 14472432
-0.035607 -0.185300 0.763000 13354202
-0.035467 -0.180229 0.760000 13683686
-0.035140 -0.174266 0.753000 13815534
-0.035000 -0.169286 0.750000 13946863
-0.034860 -0.164340 0.747000 13617127
-0.034533 -0.158571 0.740000 14143468
-0.034487 -0.154134 0.739000 14277105
-0.034487 -0.149911 0.739000 14012911
-0.034627 -0.146280 0.742000 13684720
-0.034673 -0.142231 0.743000 14212085
-0.034860 -0.138729 0.747000 14273516
-0.035093 -0.135360 0.752000 12292307
-0.035233 -0.131586 0.755000 12684991
-0.035373 -0.127777 0.758000 14472431
-0.035513 -0.123934 0.761000 12627692
-0.035840 -0.120686 0.768000 13083855
-0.036027 -0.116903 0.772000 14210290
-0.036167 -0.112929 0.775000 14275569
-0.036353 -0.109060 0.779000 14208239
-0.036400 -0.104743 0.780000 14407670
-0.036587 -0.100800 0.784000 14472168
-0.036773 -0.096811 0.788000 14669296
-0.034153 -0.185300 0.763000 13421005
-0.034019 -0.180229 0.760000 13485540
-0.033706 -0.174266 0.753000 13683951
-0.033571 -0.169286 0.750000 13551342
-0.033437 -0.164340 0.747000 13481699
-0.033213 -0.159000 0.742000 14474485
-0.033124 -0.154343 0.740000 14209263
-0.033213 -0.150520 0.742000 14012399
-0.033258 -0.146477 0.743000 14209521
-0.033348 -0.142614 0.745000 13750517
-0.033571 -0.139286 0.750000 12759526
-0.033706 -0.135540 0.753000 12096192
-0.033840 -0.131760 0.756000 12164036
-0.033930 -0.127777 0.758000 14208233
-0.034153 -0.124260 0.763000 11821540
-0.034467 -0.121000 0.770000 13281977
-0.034601 -0.117054 0.773000 14275571
-0.034780 -0.113220 0.777000 14341361
-0.034870 -0.109060 0.779000 14343159
-0.035093 -0.105280 0.784000 13741300
-0.035272 -0.101314 0.788000 14539230
-0.032700 -0.185300 0.763000 13417407
-0.032571 -0.180229 0.760000 13354223
-0.032271 -0.174266 0.753000 13486314
-0.032143 -0.169286 0.750000 13155563
-0.032014 -0.164340 0.747000 13291244
-0.031843 -0.159214 0.743000 14804467
-0.031800 -0.154760 0.742000 14078191
-0.031843 -0.150723 0.743000 14011888
-0.031929 -0.146871 0.745000 14669555
-0.032014 -0.142997 0.747000 13287410
-0.032229 -0.139657 0.752000 11247048
-0.032271 -0.135540 0.753000 11959988
-0.032400 -0.131760 0.756000 11577289
-0.032614 -0.128283 0.761000 13945584
-0.032871 -0.124911 0.767000 10988262
-0.033086 -0.121314 0.772000 13421273
-0.033129 -0.117054 0.773000 14341618
-0.033386 -0.113511 0.779000 14406641
-0.033600 -0.109760 0.784000 14472690
-0.033686 -0.105549 0.786000 13011175
-0.033814 -0.101443 0.789000 14602474
-0.031124 -0.180229 0.760000 13684218
-0.030837 -0.174266 0.753000 13681637
-0.030714 -0.169286 0.750000 13813992
-0.030632 -0.164560 0.748000 14414326
-0.030428 -0.159214 0.743000 14539249
-0.030428 -0.154969 0.743000 14012655
-0.030510 -0.151129 0.745000 13946096
-0.030591 -0.147266 0.747000 14604021
-0.030632 -0.143189 0.748000 12951278
-0.030837 -0.139843 0.753000 11766954
-0.030960 -0.136080 0.756000 12024743
-0.031124 -0.132457 0.760000 12431823
-0.031329 -0.128957 0.765000 14275318
-0.031451 -0.125074 0.768000 12697064
-0.031656 -0.121471 0.773000 14080504
-0.031738 -0.117357 0.775000 14407410
-0.031943 -0.113657 0.780000 14537968
-0.032189 -0.110040 0.786000 14404332
-0.032311 -0.105951 0.789000 13211354
-0.032475 -0.101957 0.793000 14737398
-0.029676 -0.180229 0.760000 14012636
-0.029403 -0.174266 0.753000 13881837
-0.029286 -0.169286 0.750000 14473714
-0.029169 -0.164340 0.747000 15525109
-0.029090 -0.159643 0.745000 14274033
