# .PCD v.7 - Point Cloud Data file format
VERSION .7
FIELDS x y z rgb
SIZE 4 4 4 4
TYPE F F F I
COUNT 1 1 1 1
WIDTH 1261
HEIGHT 1
POINTS 1261
DATA ascii
-0.069720 -0.130200 0.882000 15327475
-0.069167 -0.124167 0.875000 15065845
-0.068692 -0.118350 0.869000 12821222
-0.068139 -0.112470 0.862000 13210049
-0.067665 -0.106796 0.856000 15656158
-0.066637 -0.100357 0.843000 15393009
-0.066321 -0.095087 0.839000 14737396
-0.066321 -0.090292 0.839000 10782894
-0.066321 -0.085498 0.839000 10454156
-0.066637 -0.081089 0.843000 10190733
-0.067032 -0.076724 0.848000 10846851
-0.067349 -0.072217 0.852000 9269114
-0.067665 -0.067665 0.856000 9406604
-0.067823 -0.062920 0.858000 9528701
-0.068139 -0.058288 0.862000 9657437
-0.068534 -0.053671 0.867000 10782086
-0.069009 -0.049054 0.873000 9395311
-0.069167 -0.044167 0.875000 10122111
-0.069562 -0.039390 0.880000 10585221
-0.069878 -0.034518 0.884000 10256519
-0.068040 -0.130200 0.882000 15196403
-0.067500 -0.124167 0.875000 14804470
-0.067037 -0.118350 0.869000 12950493
-0.066497 -0.112470 0.862000 13141179
-0.066034 -0.106796 0.856000 15589094
-0.064877 -0.100119 0.841000 15458546
-0.064723 -0.095087 0.839000 14535151
-0.064723 -0.090292 0.839000 10720167
-0.064723 -0.085498 0.839000 10453901
-0.065186 -0.081281 0.845000 10387848
-0.065417 -0.076724 0.848000 10452871
-0.065726 -0.072217 0.852000 9796736
-0.066034 -0.067665 0.856000 10717067
-0.066343 -0.063067 0.860000 9064844
-0.066497 -0.058288 0.862000 9066845
-0.066883 -0.053671 0.867000 10847627
-0.067346 -0.049054 0.873000 10515071
-0.067500 -0.044167 0.875000 10651011
-0.067886 -0.039390 0.880000 10715779
-0.068194 -0.034518 0.884000 10321011
-0.066360 -0.130200 0.882000 15327220
-0.065683 -0.123883 0.873000 14606839
-0.065231 -0.118077 0.867000 13200852
-0.064855 -0.112470 0.862000 13538229
-0.064253 -0.106547 0.854000 15591151
-0.063275 -0.100119 0.841000 15458802
-0.063125 -0.095087 0.839000 13880042
-0.063125 -0.090292 0.839000 10850208
-0.063275 -0.085702 0.841000 10520206
-0.063576 -0.081281 0.845000 10387842
-0.063802 -0.076724 0.848000 10387596
-0.063952 -0.072048 0.850000 9992582
-0.064404 -0.067665 0.856000 10782858
-0.064705 -0.063067 0.860000 9594522
-0.064855 -0.058288 0.862000 9000286
-0.065081 -0.053548 0.865000 10913680
-0.065683 -0.049054 0.873000 10651279
-0.065833 -0.044167 0.875000 10781831
-0.066210 -0.039390 0.880000 9467009
-0.066360 -0.034440 0.882000 9658206
-0.064533 -0.129905 0.880000 15458547
-0.064020 -0.123883 0.873000 14475768
-0.063580 -0.118077 0.867000 13472461
-0.063213 -0.112470 0.862000 13999569
-0.062627 -0.106547 0.854000 15591666
-0.061673 -0.100119 0.841000 15458546
-0.061527 -0.095087 0.839000 13156327
-0.061380 -0.090077 0.837000 10982813
-0.061673 -0.085702 0.841000 10586002
-0.061967 -0.081281 0.845000 10387336
-0.062187 -0.076724 0.848000 10257038
-0.062333 -0.072048 0.850000 10252426
-0.062773 -0.067665 0.856000 10848909
-0.063067 -0.063067 0.860000 10191253
-0.063213 -0.058288 0.862000 8941435
-0.063433 -0.053548 0.865000 10979472
-0.063873 -0.048942 0.871000 10782606
-0.064020 -0.044066 0.873000 10912905
-0.064387 -0.039301 0.878000 8155783
-0.064680 -0.034440 0.882000 8998739
-0.062857 -0.129905 0.880000 15327219
-0.062357 -0.123883 0.873000 14341880
-0.061786 -0.117805 0.865000 13544135
-0.061429 -0.112210 0.860000 14600941
-0.060857 -0.106297 0.852000 15459317
-0.060071 -0.100119 0.841000 15459313
-0.059929 -0.095087 0.839000 13087717
-0.059786 -0.090077 0.837000 11047066
-0.060071 -0.085702 0.841000 10651799
-0.060357 -0.081281 0.845000 10453390
-0.060714 -0.076905 0.850000 10257552
-0.060857 -0.072217 0.852000 10321806
-0.061143 -0.067665 0.856000 10914449
-0.061286 -0.062920 0.858000 10716816
-0.061571 -0.058288 0.862000 10127768
-0.061786 -0.053548 0.865000 10914192
-0.062214 -0.048942 0.871000 10848654
-0.062357 -0.044066 0.873000 10848138
-0.062500 -0.039167 0.875000 9732492
-0.062857 -0.034362 0.880000 9393224
-0.061181 -0.129905 0.880000 15196147
-0.060555 -0.123599 0.871000 14214649
-0.060138 -0.117805 0.865000 13541826
-0.059790 -0.112210 0.860000 15264500
-0.059095 -0.106048 0.850000 15327987
-0.058470 -0.100119 0.841000 15460083
-0.058330 -0.095087 0.839000 13024737
-0.058191 -0.090077 0.837000 11043738
-0.058470 -0.085702 0.841000 10719382
-0.058748 -0.081281 0.845000 10452625
-0.059095 -0.076905 0.850000 10257553
-0.059234 -0.072217 0.852000 10324110
-0.059512 -0.067665 0.856000 10979988
-0.059651 -0.062920 0.858000 11176340
-0.059930 -0.058288 0.862000 11307927
-0.060138 -0.053548 0.865000 10913938
-0.060555 -0.048942 0.871000 10914191
-0.060694 -0.044066 0.873000 10848648
-0.060833 -0.039167 0.875000 11240592
-0.061320 -0.034440 0.882000 9791600
-0.059370 -0.129610 0.878000 15392756
-0.058896 -0.123599 0.871000 14211321
-0.058490 -0.117805 0.865000 13209789
-0.058152 -0.112210 0.860000 15394042
-0.057476 -0.106048 0.850000 15458802
-0.056868 -0.100119 0.841000 15459316
-0.056732 -0.095087 0.839000 12892894
-0.056597 -0.090077 0.837000 11044505
-0.056732 -0.085498 0.839000 10918294
-0.057138 -0.081281 0.845000 10651027
-0.057341 -0.076724 0.848000 10389393
-0.057611 -0.072217 0.852000 10586254
-0.057747 -0.067507 0.854000 11045527
-0.058017 -0.062920 0.858000 11176599
-0.058288 -0.058288 0.862000 11176599
-0.058490 -0.053548 0.865000 10979988
-0.058761 -0.048830 0.869000 10914192
-0.059031 -0.044066 0.873000 10254214
-0.059167 -0.039167 0.875000 11176851
-0.059505 -0.034362 0.880000 10453399
-0.057500 -0.129167 0.875000 15524083
-0.057106 -0.123315 0.869000 14214391
-0.056646 -0.117396 0.862000 12889556
-0.056383 -0.111949 0.858000 15591159
-0.055857 -0.106048 0.850000 15590130
-0.055266 -0.100119 0.841000 15459317
-0.055134 -0.095087 0.839000 12760022
-0.055003 -0.090077 0.837000 11045021
-0.055266 -0.085702 0.841000 11047322
-0.055529 -0.081281 0.845000 10848919
-0.055726 -0.076724 0.848000 10519954
-0.055989 -0.072217 0.852000 10848915
-0.056120 -0.067507 0.854000 11111578
-0.056383 -0.062920 0.858000 11177112
-0.056514 -0.058152 0.860000 11045785
-0.056843 -0.053548 0.865000 11045782
-0.057106 -0.048830 0.869000 10849170
-0.057237 -0.043965 0.871000 9720960
-0.057500 -0.039167 0.875000 11110289
-0.057829 -0.034362 0.880000 11176595
-0.055833 -0.129167 0.875000 15393011
-0.055578 -0.123599 0.871000 14801909
-0.055004 -0.117396 0.862000 14342380
-0.054749 -0.111949 0.858000 15525107
-0.054238 -0.106048 0.850000 15458802
-0.053664 -0.100119 0.841000 15065845
-0.053536 -0.095087 0.839000 12561103
-0.053536 -0.090292 0.839000 11111584
-0.053664 -0.085702 0.841000 11178398
-0.053919 -0.081281 0.845000 10980506
-0.054238 -0.076905 0.850000 10388116
-0.054366 -0.072217 0.852000 10915479
-0.054621 -0.067665 0.856000 11177630
-0.054749 -0.062920 0.858000 11243160
-0.055004 -0.058288 0.862000 11046298
-0.055195 -0.053548 0.865000 11111832
-0.055450 -0.048830 0.869000 11112084
-0.055706 -0.044066 0.873000 9589625
-0.055833 -0.039167 0.875000 11308686
-0.056280 -0.034440 0.882000 11110798
-0.054167 -0.129167 0.875000 15262194
-0.053919 -0.123599 0.871000 15393268
-0.053362 -0.117396 0.862000 15786991
-0.052990 -0.111688 0.856000 15459058
-0.052619 -0.106048 0.850000 15261937
-0.052186 -0.100357 0.843000 14738422
-0.051938 -0.095087 0.839000 12298189
-0.051938 -0.090292 0.839000 11177896
-0.052062 -0.085702 0.841000 11243942
-0.052495 -0.081570 0.848000 11046302
-0.052619 -0.076905 0.850000 10193046
-0.052743 -0.072217 0.852000 11048091
-0.052990 -0.067665 0.856000 11243678
-0.053114 -0.062920 0.858000 11309211
-0.053238 -0.058152 0.860000 10981533
-0.053548 -0.053548 0.865000 11243674
-0.053795 -0.048830 0.869000 11308696
-0.053919 -0.043965 0.871000 9469286
-0.054167 -0.039167 0.875000 11438739
-0.054600 -0.034440 0.882000 11110548
-0.052500 -0.129167 0.875000 15392754
-0.052140 -0.123315 0.869000 15393522
-0.051720 -0.117396 0.862000 15590131
-0.051360 -0.111688 0.856000 15459057
-0.051000 -0.106048 0.850000 15392753
-0.050460 -0.100119 0.841000 14670326
-0.050340 -0.095087 0.839000 12168138
-0.050340 -0.090292 0.839000 11375535
-0.050460 -0.085702 0.841000 11375278
-0.050880 -0.081570 0.848000 11178402
-0.051000 -0.076905 0.850000 10520473
-0.051240 -0.072387 0.854000 11178398
-0.051360 -0.067665 0.856000 11440543
-0.051480 -0.062920 0.858000 11375261
-0.051600 -0.058152 0.860000 10916768
-0.051900 -0.053548 0.865000 11309723
-0.052260 -0.048942 0.871000 11441309
-0.052380 -0.044066 0.873000 9861203
-0.052500 -0.039167 0.875000 11374744
-0.052920 -0.034440 0.882000 11111066
-0.050833 -0.129167 0.875000 15458546
-0.050485 -0.123315 0.869000 15459058
-0.050078 -0.117396 0.862000 15327474
-0.049613 -0.111427 0.854000 15458801
-0.049265 -0.105798 0.848000 15458545
-0.048974 -0.100357 0.843000 14607088
-0.048858 -0.095313 0.841000 11969731
-0.048858 -0.090508 0.841000 11638702
-0.048974 -0.085906 0.843000 11441323
-0.049265 -0.081570 0.848000 11310502
-0.049497 -0.077086 0.852000 10782110
-0.049613 -0.072387 0.854000 11374219
-0.049730 -0.067665 0.856000 11571598
-0.049846 -0.062920 0.858000 11441313
-0.050078 -0.058288 0.862000 10841733
-0.050252 -0.053548 0.865000 11441312
-0.050601 -0.048942 0.871000 11506847
-0.050717 -0.044066 0.873000 10322810
-0.051008 -0.039301 0.878000 11309209
-0.051240 -0.034440 0.882000 11176348
-0.049054 -0.128871 0.873000 15525107
-0.048830 -0.123315 0.869000 15393265
-0.048436 -0.117396 0.862000 15326961
-0.047987 -0.111427 0.854000 15393265
-0.047650 -0.105798 0.848000 15327217
-0.047256 -0.100119 0.841000 14340841
-0.047256 -0.095313 0.841000 11966396
-0.047256 -0.090508 0.841000 11771309
-0.047481 -0.086110 0.845000 11636904
-0.047650 -0.081570 0.848000 11508137
-0.047874 -0.077086 0.852000 10782115
-0.047987 -0.072387 0.854000 10974327
-0.048099 -0.067665 0.856000 11506046
-0.048211 -0.062920 0.858000 10981540
-0.048436 -0.058288 0.862000 9439850
-0.048605 -0.053548 0.865000 11572388
-0.048942 -0.048942 0.871000 11572129
-0.049054 -0.044066 0.873000 10915745
-0.049335 -0.039301 0.878000 11374747
-0.049560 -0.034440 0.882000 11242653
-0.047391 -0.128871 0.873000 15524333
-0.047174 -0.123315 0.869000 15393522
-0.046686 -0.117124 0.860000 15261681
-0.046360 -0.111427 0.854000 15327473
-0.046034 -0.105798 0.848000 15131121
-0.045763 -0.100357 0.843000 14008041
-0.045654 -0.095313 0.841000 11903421
-0.045763 -0.090723 0.843000 11968187
-0.045871 -0.086110 0.845000 11770288
-0.046143 -0.081762 0.850000 11641523
-0.046360 -0.077267 0.854000 10717852
-0.046469 -0.072556 0.856000 10575504
-0.046577 -0.067823 0.858000 11435663
-0.046686 -0.063067 0.860000 10459818
-0.046794 -0.058288 0.862000 8074874
-0.047066 -0.053671 0.867000 11705508
-0.047283 -0.048942 0.871000 11572643
-0.047391 -0.044066 0.873000 11572386
-0.047663 -0.039301 0.878000 11440285
-0.047880 -0.034440 0.882000 11308957
-0.045729 -0.128871 0.873000 15259879
-0.045414 -0.123031 0.867000 15393522
-0.045048 -0.117124 0.860000 15327730
-0.044733 -0.111427 0.854000 15261424
-0.044419 -0.105798 0.848000 15590386
-0.044157 -0.100357 0.843000 13811944
-0.044157 -0.095540 0.843000 12297151
-0.044262 -0.090938 0.845000 12166600
-0.044419 -0.086415 0.848000 11967673
-0.044733 -0.082147 0.854000 11837884
-0.044838 -0.077448 0.856000 11240853
-0.044838 -0.072556 0.856000 10975145
-0.044943 -0.067823 0.858000 11899808
-0.045048 -0.063067 0.860000 11245744
-0.045310 -0.058490 0.865000 8532107
-0.045414 -0.053671 0.867000 11901604
-0.045624 -0.048942 0.871000 11638693
-0.045729 -0.044066 0.873000 11637922
-0.045990 -0.039301 0.878000 11571871
-0.046200 -0.034440 0.882000 11440284
-0.044066 -0.128871 0.873000 14931939
-0.043763 -0.123031 0.867000 15393779
-0.043410 -0.117124 0.860000 15327729
-0.043107 -0.111427 0.854000 15261422
-0.042804 -0.105798 0.848000 16051447
-0.042551 -0.100357 0.843000 13616356
-0.042652 -0.095767 0.845000 12625604
-0.042652 -0.090938 0.845000 12367558
-0.042804 -0.086415 0.848000 12165822
-0.043107 -0.082147 0.854000 12037057
-0.043208 -0.077448 0.856000 11767204
-0.043309 -0.072726 0.858000 11312056
-0.043410 -0.067981 0.860000 12295088
-0.043510 -0.063213 0.862000 11968693
-0.043662 -0.058490 0.865000 8943268
-0.043864 -0.053795 0.869000 12098729
-0.044066 -0.049054 0.873000 11705001
-0.044066 -0.044066 0.873000 11703719
-0.044419 -0.039390 0.880000 11638179
-0.044621 -0.034518 0.884000 11571610
-0.042403 -0.128871 0.873000 14931679
-0.042111 -0.123031 0.867000 15195891
-0.041771 -0.117124 0.860000 15262193
-0.041480 -0.111427 0.854000 15459308
-0.041189 -0.105798 0.848000 16121597
-0.041043 -0.100595 0.845000 13483488
-0.041043 -0.095767 0.845000 12692169
-0.041189 -0.091261 0.848000 12497092
-0.041286 -0.086619 0.850000 12692931
-0.041577 -0.082339 0.856000 12297157
-0.041674 -0.077629 0.858000 12494259
-0.041771 -0.072895 0.860000 12035527
-0.041869 -0.068139 0.862000 12429248
-0.042014 -0.063433 0.865000 12231098
-0.042111 -0.058626 0.867000 10720957
-0.042209 -0.053795 0.869000 12100014
-0.042403 -0.049054 0.873000 11705517
-0.042500 -0.044167 0.875000 11835563
-0.042743 -0.039390 0.880000 11574183
-0.040647 -0.128576 0.871000 14930639
-0.040367 -0.122748 0.865000 15062768
-0.040133 -0.117124 0.860000 15195631
-0.039853 -0.111427 0.854000 15654901
-0.039573 -0.105798 0.848000 16181752
-0.039573 -0.100952 0.848000 13415649
-0.039573 -0.096107 0.848000 12761045
-0.039667 -0.091476 0.850000 12693960
-0.039760 -0.086823 0.852000 13219538
-0.040040 -0.082531 0.858000 12563372
-0.040040 -0.077629 0.858000 13149873
-0.040133 -0.072895 0.860000 12822986
-0.040227 -0.068139 0.862000 12495811
-0.040460 -0.063580 0.867000 12494523
-0.040553 -0.058761 0.869000 12494014
-0.040647 -0.053919 0.871000 12166578
-0.040740 -0.049054 0.873000 11703968
-0.040973 -0.044318 0.878000 12033199
-0.041160 -0.039480 0.882000 11436438
-0.038988 -0.128576 0.871000 14866880
-0.038719 -0.122748 0.865000 15194093
-0.038495 -0.117124 0.860000 15259116
-0.038227 -0.111427 0.854000 16118526
-0.038048 -0.106048 0.850000 15457779
-0.038137 -0.101429 0.852000 13614562
-0.038137 -0.096560 0.852000 13485281
-0.038227 -0.091907 0.854000 13022668
-0.038227 -0.087027 0.854000 13157089
-0.038406 -0.082531 0.858000 12289427
-0.038495 -0.077810 0.860000 13284016
-0.038585 -0.073065 0.862000 12955852
-0.038719 -0.068376 0.865000 12825030
-0.038898 -0.063727 0.869000 12691900
-0.038988 -0.058896 0.871000 12561855
-0.039077 -0.054043 0.873000 11770550
-0.039167 -0.049167 0.875000 11306131
-0.039390 -0.044419 0.880000 12296371
-0.039480 -0.039480 0.882000 10899078
-0.037071 -0.122748 0.865000 15394038
-0.036857 -0.117124 0.860000 15262964
-0.036686 -0.111688 0.856000 16514042
-0.036514 -0.106297 0.852000 14669551
-0.036600 -0.101667 0.854000 13747685
-0.036600 -0.096787 0.854000 14140901
-0.036686 -0.092122 0.856000 13415887
-0.036686 -0.087230 0.856000 13019592
-0.036857 -0.082724 0.860000 12079770
-0.036943 -0.077990 0.862000 13350594
-0.036943 -0.073065 0.862000 13088467
-0.037157 -0.068534 0.867000 13083574
-0.037243 -0.063727 0.869000 12955078
-0.037329 -0.058896 0.871000 12561603
-0.037414 -0.054043 0.873000 11376552
-0.037629 -0.049335 0.878000 10852240
-0.037714 -0.044419 0.880000 12559033
-0.037886 -0.039570 0.884000 10319010
-0.035301 -0.122322 0.862000 15460094
-0.035219 -0.117124 0.860000 15593981
-0.035055 -0.111688 0.856000 15985654
-0.034973 -0.106547 0.854000 14734059
-0.034973 -0.101667 0.854000 14274280
-0.034973 -0.096787 0.854000 14208234
-0.035055 -0.092122 0.856000 13545425
-0.035219 -0.087638 0.860000 12217776
-0.035301 -0.082916 0.862000 11957409
-0.035424 -0.078262 0.865000 13878996
-0.035424 -0.073319 0.865000 12626650
-0.035588 -0.068692 0.869000 11497126
-0.035670 -0.063873 0.871000 13088208
-0.035751 -0.059031 0.873000 12692935
-0.035833 -0.054167 0.875000 11832986
-0.036038 -0.049448 0.880000 11969165
-0.036120 -0.044520 0.882000 12625855
-0.036202 -0.039570 0.884000 11636926
-0.033659 -0.122322 0.862000 15586506
-0.033581 -0.117124 0.860000 15917542
-0.033425 -0.111688 0.856000 15392748
-0.033347 -0.106547 0.854000 14798825
-0.033425 -0.101905 0.856000 14864621
-0.033425 -0.097013 0.856000 14208486
-0.033503 -0.092337 0.858000 13669822
-0.033659 -0.087842 0.862000 11436458
-0.033776 -0.083205 0.865000 11831446
-0.033776 -0.078262 0.865000 14401752
-0.033854 -0.073489 0.867000 12235995
-0.034010 -0.068850 0.871000 9927096
-0.034089 -0.064020 0.873000 13222358
-0.034089 -0.059031 0.873000 12826063
-0.034284 -0.054352 0.878000 12293305
-0.034440 -0.049560 0.882000 13019310
-0.034440 -0.044520 0.882000 12692676
-0.034635 -0.039704 0.887000 12953538
-0.031943 -0.117124 0.860000 14599888
-0.031794 -0.111688 0.856000 14535137
-0.031720 -0.106547 0.854000 14468327
-0.031794 -0.101905 0.856000 14800113
-0.031794 -0.097013 0.856000 14336226
-0.031943 -0.092552 0.860000 13274538
-0.032129 -0.088148 0.865000 12094628
-0.032203 -0.083397 0.867000 12683402
-0.032277 -0.078624 0.869000 14466524
-0.032351 -0.073828 0.871000 13152988
-0.032426 -0.069009 0.873000 12027595
-0.032500 -0.064167 0.875000 13681628
-0.032500 -0.059167 0.875000 13286871
-0.032686 -0.054476 0.880000 13088215
-0.032760 -0.049560 0.882000 13155536
-0.032834 -0.044621 0.884000 12758728
-0.030164 -0.111688 0.856000 13742791
-0.030164 -0.106796 0.856000 14139856
-0.030164 -0.101905 0.856000 14734807
-0.030164 -0.097013 0.856000 14402264
-0.030305 -0.092552 0.860000 12950977
-0.030481 -0.088148 0.865000 12683448
-0.030551 -0.083397 0.867000 13546942
-0.030692 -0.078805 0.871000 14473449
-0.030763 -0.073997 0.873000 14142183
-0.030833 -0.069167 0.875000 14139616
-0.030939 -0.064387 0.878000 14206947
-0.030939 -0.059370 0.878000 13746655
-0.031010 -0.054476 0.880000 13878237
-0.031150 -0.049672 0.884000 13217217
-0.031256 -0.044772 0.887000 12824267
-0.028533 -0.106796 0.856000 13676986
-0.028533 -0.101905 0.856000 14005692
-0.028467 -0.096787 0.854000 14204878
-0.028733 -0.092768 0.862000 13677783
-0.028833 -0.088148 0.865000 13545420
-0.028900 -0.083397 0.867000 14143218
-0.029100 -0.078986 0.873000 14801655
-0.029267 -0.074421 0.878000 14800626
-0.029267 -0.069404 0.878000 14080757
-0.029333 -0.064533 0.880000 14339561
-0.029333 -0.059505 0.880000 14273000
-0.029400 -0.054600 0.882000 13745123
-0.029567 -0.049841 0.887000 12164274
-0.029567 -0.044772 0.887000 13416654
-0.026903 -0.101905 0.856000 13345203
-0.026840 -0.096787 0.854000 14004412
-0.027091 -0.092768 0.862000 14401475
-0.027186 -0.088148 0.865000 14336197
-0.027374 -0.083782 0.871000 14733008
-0.027500 -0.079167 0.875000 15063019
-0.027594 -0.074421 0.878000 15456757
-0.027594 -0.069404 0.878000 14009321
-0.027720 -0.064680 0.882000 14535907
-0.027720 -0.059640 0.882000 14733294
-0.027783 -0.054724 0.884000 13682413
-0.027877 -0.049841 0.887000 11045579
-0.027940 -0.044873 0.889000 14013657
-0.025450 -0.092768 0.862000 14134959
-0.025538 -0.088148 0.865000 14137277
-0.025715 -0.083782 0.871000 14529966
-0.025833 -0.079167 0.875000 14865631
-0.025922 -0.074421 0.878000 15128823
-0.025981 -0.069562 0.880000 13999070
-0.026040 -0.064680 0.882000 14730972
-0.026099 -0.059775 0.884000 14931189
-0.026188 -0.054910 0.887000 14404086
-0.026247 -0.049953 0.889000 13284324
-0.026306 -0.044974 0.891000 13944291
-0.024056 -0.083782 0.871000 14398388
-0.024167 -0.079167 0.875000 14599884
-0.024305 -0.074590 0.880000 14865628
-0.024360 -0.069720 0.882000 14006743
-0.024415 -0.064827 0.884000 14929634
-0.024498 -0.059978 0.887000 15063022
-0.024553 -0.055033 0.889000 15128039
-0.024609 -0.050066 0.891000 15455723
-0.022629 -0.074590 0.880000 14532544
-0.022680 -0.069720 0.882000 14271952
-0.022809 -0.065047 0.887000 14863336
-0.022860 -0.060113 0.889000 14996711
-0.022860 -0.055033 0.889000 14797015
-0.022989 -0.050234 0.894000 15392243
-0.021000 -0.069720 0.882000 14530757
-0.021119 -0.065047 0.887000 14795985
-0.021167 -0.060113 0.889000 14861779
-0.021167 -0.055033 0.889000 14399954
-0.021333 -0.050347 0.896000 15325158
-0.019320 -0.069720 0.882000 14463930
-0.105108 -0.106763 0.869000 12952242
-0.104624 -0.101329 0.865000 13083314
-0.103929 -0.112243 0.873000 13089236
-0.103214 -0.106517 0.867000 12168661
-0.102381 -0.100743 0.860000 12032695
-0.102381 -0.095829 0.860000 11897238
-0.102851 -0.117903 0.878000 14137769
-0.102031 -0.111986 0.871000 14672115
-0.101329 -0.106271 0.865000 13880824
-0.100743 -0.100743 0.860000 11834044
-0.100509 -0.095606 0.858000 11306387
-0.100509 -0.090703 0.858000 12027535
-0.101410 -0.123200 0.880000 13938104
-0.100833 -0.117500 0.875000 14600658
-0.100372 -0.111986 0.871000 16181747
-0.099681 -0.106271 0.865000 15594487
-0.099105 -0.100743 0.860000 11645136
-0.098874 -0.095606 0.858000 10783381
-0.098644 -0.090491 0.856000 9863052
-0.099105 -0.086000 0.860000 13674909
-0.099960 -0.123480 0.882000 13805499
-0.099167 -0.117500 0.875000 15130363
-0.098487 -0.111729 0.869000 15720948
-0.098033 -0.106271 0.865000 15525877
-0.097013 -0.100274 0.856000 13290213
-0.096787 -0.095160 0.854000 10782871
-0.096560 -0.090069 0.852000 10188938
-0.097693 -0.086200 0.862000 12029570
-0.098280 -0.123480 0.882000 13679817
-0.097834 -0.117903 0.878000 15657974
-0.096831 -0.111729 0.869000 15195890
-0.096386 -0.106271 0.865000 15523827
-0.095383 -0.100274 0.856000 14866158
-0.094937 -0.094937 0.852000 10849948
-0.094937 -0.090069 0.852000 10452106
-0.095383 -0.085600 0.856000 10452863
-0.097277 -0.077323 0.873000 12882840
-0.097500 -0.072500 0.875000 13738654
-0.097834 -0.067731 0.878000 13871782
-0.097834 -0.062714 0.878000 13412268
-0.097834 -0.057697 0.878000 13477295
-0.096831 -0.052140 0.869000 13345709
-0.096381 -0.123200 0.880000 14601431
-0.095833 -0.117500 0.875000 15459569
-0.095176 -0.111729 0.869000 15195889
-0.094190 -0.105657 0.860000 15327217
-0.093752 -0.100274 0.856000 15263479
-0.093095 -0.094714 0.850000 11112352
-0.093095 -0.089857 0.850000 10388106
-0.093533 -0.085400 0.854000 10386555
-0.094410 -0.081274 0.862000 10911873
-0.094957 -0.076791 0.867000 11564920
-0.095833 -0.072500 0.875000 12289931
-0.095833 -0.067500 0.875000 12950940
-0.096162 -0.062714 0.878000 13347500
-0.096162 -0.057697 0.878000 13544113
-0.095176 -0.052140 0.869000 13280174
-0.094920 -0.128520 0.882000 13675184
-0.094705 -0.123200 0.880000 15522275
-0.094167 -0.117500 0.875000 15326705
-0.093306 -0.111471 0.867000 15195889
-0.092552 -0.105657 0.860000 15195633
-0.091907 -0.100040 0.854000 15589878
-0.091476 -0.094714 0.850000 11374263
-0.091476 -0.089857 0.850000 10322058
-0.091691 -0.085200 0.852000 10386047
-0.092552 -0.081086 0.860000 10846597
-0.093521 -0.076969 0.869000 10317693
-0.093951 -0.072334 0.873000 10780810
-0.093951 -0.067346 0.873000 12096658
-0.094490 -0.062714 0.878000 13276566
-0.094920 -0.057960 0.882000 13676456
-0.095889 -0.053460 0.891000 13149100
-0.093451 -0.128811 0.884000 13938607
-0.093240 -0.123480 0.882000 15459823
-0.092500 -0.117500 0.875000 15195888
-0.091654 -0.111471 0.867000 15261425
-0.090703 -0.105411 0.858000 15195632
-0.090280 -0.100040 0.854000 15524597
-0.089646 -0.094491 0.848000 11836621
-0.089646 -0.089646 0.848000 10321035
-0.089857 -0.085000 0.850000 10189698
-0.090491 -0.080709 0.856000 10584714
-0.091443 -0.076614 0.865000 10188162
-0.091866 -0.072003 0.869000 10912649
-0.092289 -0.067346 0.873000 11438215
-0.092500 -0.062500 0.875000 11890817
-0.093029 -0.057829 0.880000 12622750
-0.094191 -0.053460 0.891000 12951722
-0.091768 -0.128811 0.884000 14265791
-0.091560 -0.123480 0.882000 15328498
-0.090626 -0.117231 0.873000 15130097
-0.090003 -0.111471 0.867000 15261425
-0.089069 -0.105411 0.858000 15195633
-0.088653 -0.100040 0.854000 15393268
-0.088030 -0.094491 0.848000 12358880
-0.088030 -0.089646 0.848000 10322059
-0.088238 -0.085000 0.850000 9927810
-0.088861 -0.080709 0.856000 10322052
-0.089484 -0.076349 0.862000 10057587
-0.090003 -0.071837 0.867000 10973817
-0.090626 -0.067346 0.873000 10847879
-0.090833 -0.062500 0.875000 10451590
-0.091145 -0.057697 0.878000 11570068
-0.092287 -0.053340 0.889000 12752793
-0.092806 -0.048531 0.894000 13018012
-0.089880 -0.123480 0.882000 15327733
-0.089167 -0.117500 0.875000 15130097
-0.088351 -0.111471 0.867000 15195889
-0.087434 -0.105411 0.858000 15261425
-0.086823 -0.099806 0.852000 15393012
-0.086415 -0.094491 0.848000 12561395
-0.086415 -0.089646 0.848000 10189964
-0.086619 -0.085000 0.850000 9993090
-0.087027 -0.080520 0.854000 10124671
-0.087638 -0.076171 0.860000 9395043
-0.087842 -0.071423 0.862000 10116969
-0.088759 -0.067191 0.871000 10912903
-0.088963 -0.062357 0.873000 10650507
-0.089472 -0.057697 0.878000 11306378
-0.090390 -0.053220 0.887000 11698568
-0.090797 -0.048369 0.891000 11766925
-0.090797 -0.043277 0.891000 11635841
-0.090390 -0.038014 0.887000 10911870
-0.090593 -0.033020 0.889000 10451578
-0.088400 -0.128811 0.884000 14536154
-0.088000 -0.123200 0.880000 15261683
-0.087300 -0.117231 0.873000 15130354
-0.086700 -0.111471 0.867000 15130610
-0.085800 -0.105411 0.858000 15327217
-0.085200 -0.099806 0.852000 15393268
-0.084800 -0.094491 0.848000 12759793
-0.084500 -0.089329 0.845000 10058894
-0.084800 -0.084800 0.848000 9992831
-0.085200 -0.080331 0.852000 9860222
-0.085800 -0.075994 0.858000 8672097
-0.086000 -0.071257 0.860000 9263705
-0.086900 -0.067037 0.869000 10978185
-0.087300 -0.062357 0.873000 10779001
-0.087800 -0.057697 0.878000 11109761
-0.088400 -0.053040 0.884000 10649733
-0.088900 -0.048260 0.889000 10581638
-0.089100 -0.043277 0.891000 10848386
-0.089100 -0.038186 0.891000 10517604
-0.088900 -0.033020 0.889000 10320247
-0.086716 -0.128811 0.884000 14734565
-0.086324 -0.123200 0.880000 15260914
-0.085637 -0.117231 0.873000 15130611
-0.085049 -0.111471 0.867000 15131124
-0.084166 -0.105411 0.858000 15261681
-0.083577 -0.099806 0.852000 15393269
-0.082890 -0.094157 0.845000 12958959
-0.082694 -0.089117 0.843000 10123664
-0.083185 -0.084800 0.848000 10058620
-0.083577 -0.080331 0.852000 10057853
-0.083970 -0.075817 0.856000 8736606
-0.084362 -0.071257 0.860000 8273993
-0.085049 -0.066883 0.867000 10254986
-0.085637 -0.062357 0.873000 9853800
-0.085833 -0.057500 0.875000 10385016
-0.086716 -0.053040 0.884000 10649729
-0.087010 -0.048151 0.887000 10386046
-0.087403 -0.043277 0.891000 10714755
-0.087403 -0.038186 0.891000 10252105
-0.085321 -0.129249 0.887000 14935279
-0.084648 -0.123200 0.880000 15195634
-0.083974 -0.117231 0.873000 15130356
-0.083397 -0.111471 0.867000 15063525
-0.082531 -0.105411 0.858000 15261681
-0.081762 -0.099571 0.850000 15327476
-0.081281 -0.094157 0.845000 13094127
-0.081089 -0.089117 0.843000 10124434
-0.081281 -0.084500 0.845000 10124161
-0.081762 -0.080143 0.850000 10189696
-0.082339 -0.075817 0.856000 8735325
-0.082531 -0.071091 0.858000 7292240
-0.083205 -0.066729 0.865000 9466991
-0.083782 -0.062214 0.871000 8875633
-0.084167 -0.057500 0.875000 9660525
-0.084840 -0.052920 0.882000 10584192
-0.085321 -0.048151 0.887000 10190210
-0.085513 -0.043180 0.889000 10583939
-0.085706 -0.038186 0.891000 9991017
-0.083631 -0.129249 0.887000 15130360
-0.082971 -0.123200 0.880000 15195890
-0.082311 -0.117231 0.873000 14601460
-0.081746 -0.111471 0.867000 14863318
-0.080897 -0.105411 0.858000 15327729
-0.079954 -0.099337 0.848000 15393011
-0.079483 -0.093934 0.843000 13157871
-0.079483 -0.089117 0.843000 10189972
-0.079671 -0.084500 0.845000 10059141
-0.080143 -0.080143 0.850000 10518148
-0.080520 -0.075640 0.854000 8999260
-0.080897 -0.071091 0.858000 8211542
-0.081557 -0.066729 0.865000 9529940
-0.081934 -0.062071 0.869000 9533563
-0.082311 -0.057369 0.873000 9923170
-0.082971 -0.052800 0.880000 10584192
-0.083349 -0.047989 0.884000 10321541
-0.083631 -0.043083 0.887000 10584451
-0.084009 -0.038186 0.891000 10189961
-0.081665 -0.128811 0.884000 15328502
-0.081295 -0.123200 0.880000 15195890
-0.080649 -0.117231 0.873000 14080233
-0.080094 -0.111471 0.867000 14599116
-0.079078 -0.105166 0.856000 15458803
-0.078339 -0.099337 0.848000 15458547
-0.077877 -0.093934 0.843000 13226734
-0.077692 -0.088906 0.841000 10256020
-0.078062 -0.084500 0.845000 10059142
-0.078524 -0.080143 0.850000 10780548
-0.078893 -0.075640 0.854000 9326684
-0.079078 -0.070926 0.856000 9064276
-0.079448 -0.066343 0.860000 9526090
-0.080094 -0.061929 0.867000 10123634
-0.080649 -0.057369 0.873000 10187125
-0.081110 -0.052680 0.878000 10584194
-0.081480 -0.047880 0.882000 10452867
-0.081942 -0.043083 0.887000 10584194
-0.082311 -0.038186 0.891000 10452081
-0.079981 -0.128811 0.884000 15262196
-0.079619 -0.123200 0.880000 15129842
-0.078805 -0.116963 0.871000 14140125
-0.078262 -0.111214 0.865000 14467779
-0.077448 -0.105166 0.856000 15393269
-0.076724 -0.099337 0.848000 15393011
-0.076271 -0.093934 0.843000 13223660
-0.076090 -0.088906 0.841000 10255765
-0.076452 -0.084500 0.845000 10190726
-0.076724 -0.079954 0.848000 10584197
-0.077086 -0.075463 0.852000 9196123
-0.077448 -0.070926 0.856000 9064785
-0.077810 -0.066343 0.860000 8928575
-0.078443 -0.061929 0.867000 10452329
-0.078805 -0.057237 0.871000 10320776
-0.079167 -0.052500 0.875000 10518661
-0.079800 -0.047880 0.882000 10387328
-0.079981 -0.042937 0.884000 10583937
-0.080433 -0.038100 0.889000 9790296
-0.078297 -0.128811 0.884000 15196403
-0.077943 -0.123200 0.880000 15064563
-0.077146 -0.116963 0.871000 14270956
-0.076614 -0.111214 0.865000 14262721
-0.075817 -0.105166 0.856000 15329528
-0.075109 -0.099337 0.848000 15327731
-0.074489 -0.093711 0.841000 13293547
-0.074489 -0.088906 0.841000 10256279
-0.074843 -0.084500 0.845000 10321800
-0.075109 -0.079954 0.848000 10322055
-0.075463 -0.075463 0.852000 9064548
-0.075817 -0.070926 0.856000 9000289
-0.076171 -0.066343 0.860000 8274775
-0.076614 -0.061786 0.865000 10712943
-0.076969 -0.057106 0.869000 10452872
-0.077500 -0.052500 0.875000 10452868
-0.077943 -0.047771 0.880000 10387583
-0.078297 -0.042937 0.884000 10582914
-0.078740 -0.038100 0.889000 9127496
-0.076873 -0.134317 0.887000 14138572
-0.076613 -0.128811 0.884000 15261938
-0.076093 -0.122920 0.878000 15327220
-0.075487 -0.116963 0.871000 13812474
-0.074967 -0.111214 0.865000 13271231
-0.074013 -0.104920 0.854000 15459578
-0.073233 -0.098986 0.845000 15261939
-0.072887 -0.093711 0.841000 13289449
-0.072887 -0.088906 0.841000 10320793
-0.073233 -0.084500 0.845000 10322057
-0.073493 -0.079954 0.848000 10322313
-0.073840 -0.075463 0.852000 9198956
-0.074013 -0.070760 0.854000 8872305
-0.074533 -0.066343 0.860000 8344175
-0.074967 -0.061786 0.865000 10649974
-0.075140 -0.056974 0.867000 10518663
-0.075660 -0.052380 0.873000 10387587
-0.076093 -0.047663 0.878000 10187645
-0.076613 -0.042937 0.884000 10518914
-0.076873 -0.038014 0.887000 9590583
-0.075184 -0.134317 0.887000 14336462
-0.074930 -0.128811 0.884000 15261938
-0.074421 -0.122920 0.878000 15524594
-0.073658 -0.116694 0.869000 13417941
-0.073065 -0.110829 0.862000 12224964
-0.072387 -0.104920 0.854000 15591673
-0.071624 -0.098986 0.845000 15196659
-0.071285 -0.093711 0.841000 13290213
-0.071285 -0.088906 0.841000 10322075
-0.071454 -0.084300 0.843000 10321802
-0.071878 -0.079954 0.848000 10256778
-0.072048 -0.075286 0.850000 9397883
-0.072387 -0.070760 0.854000 8675682
-0.072726 -0.066189 0.858000 8413294
-0.073319 -0.061786 0.865000 10518914
-0.073489 -0.056974 0.867000 10518924
-0.073997 -0.052380 0.873000 10322563
-0.074421 -0.047663 0.878000 9980997
-0.074760 -0.042840 0.882000 10387844
-0.074930 -0.037886 0.884000 10050657
-0.075523 -0.033094 0.891000 10321792
-0.073494 -0.134317 0.887000 14468048
-0.073246 -0.128811 0.884000 15327474
-0.072500 -0.122500 0.875000 15394800
-0.072003 -0.116694 0.869000 13406128
-0.071423 -0.110829 0.862000 12357065
-0.070760 -0.104920 0.854000 15525111
-0.070014 -0.098986 0.845000 15327219
-0.069683 -0.093711 0.841000 13222625
-0.069683 -0.088906 0.841000 10322077
-0.069849 -0.084300 0.843000 10190987
-0.070263 -0.079954 0.848000 10322060
-0.070429 -0.075286 0.850000 9796490
-0.070760 -0.070760 0.854000 8475474
-0.071091 -0.066189 0.858000 8810604
-0.071671 -0.061786 0.865000 10126223
-0.071837 -0.056974 0.867000 10453904
-0.072334 -0.052380 0.873000 10519684
-0.072500 -0.047500 0.875000 9130252
-0.072914 -0.042743 0.880000 10584199
-0.073246 -0.037886 0.884000 10188682
-0.071805 -0.134317 0.887000 14534866
-0.071400 -0.128520 0.882000 15458033
-0.070833 -0.122500 0.875000 15193331
-0.070024 -0.116157 0.865000 13403844
-0.069457 -0.110314 0.858000 12492486
-0.068810 -0.104429 0.850000 15524855
-0.068243 -0.098751 0.843000 15393268
-0.067919 -0.093489 0.839000 13089257
-0.067919 -0.088694 0.839000 10322333
-0.068081 -0.084100 0.841000 10059917
-0.068405 -0.079671 0.845000 10387595
-0.068810 -0.075286 0.850000 10259077
-0.068971 -0.070594 0.852000 8282986
-0.069295 -0.066034 0.856000 9206142
-0.069619 -0.061429 0.860000 9727605
-0.070024 -0.056843 0.865000 10389129
-0.070671 -0.052380 0.873000 10715527
-0.070671 -0.047391 0.873000 8287790
-0.071076 -0.042646 0.878000 10713988
-0.071238 -0.037714 0.880000 10322313
-0.071805 -0.032946 0.887000 10321798
-0.070115 -0.134317 0.887000 14733269
-0.069720 -0.128520 0.882000 15392752
-0.069009 -0.122220 0.873000 14736885
-0.068534 -0.116426 0.867000 13409751
-0.067981 -0.110571 0.860000 12486852
-0.067190 -0.104429 0.850000 15525110
-0.066479 -0.098517 0.841000 15458804
-0.066321 -0.093489 0.839000 12889841
-0.066321 -0.088694 0.839000 10518940
-0.066479 -0.084100 0.841000 10190990
-0.066795 -0.079671 0.845000 10452874
-0.067190 -0.075286 0.850000 9992575
-0.067349 -0.070594 0.852000 9469569
-0.067665 -0.066034 0.856000 9732495
-0.067981 -0.061429 0.860000 9062747
-0.068376 -0.056843 0.865000 10189186
-0.068692 -0.052140 0.869000 10716810
-0.069009 -0.047391 0.873000 9396816
-0.069404 -0.042646 0.878000 10781825
-0.069562 -0.037714 0.880000 10388871
-0.069878 -0.032834 0.884000 10321801
-0.068426 -0.134317 0.887000 14929882
-0.068040 -0.128520 0.882000 15327217
-0.067191 -0.121940 0.871000 14210039
-0.066729 -0.116157 0.865000 13413826
-0.066343 -0.110571 0.860000 12426441
-0.065417 -0.104183 0.848000 15525877
-0.064723 -0.098283 0.839000 15524853
-0.064723 -0.093489 0.839000 12621286
-0.064723 -0.088694 0.839000 10716826
-0.064877 -0.084100 0.841000 10387598
-0.065186 -0.079671 0.845000 10453385
-0.065571 -0.075286 0.850000 9730437
-0.065726 -0.070594 0.852000 10584196
-0.066034 -0.066034 0.856000 10258573
-0.066343 -0.061429 0.860000 8340583
-0.066729 -0.056843 0.865000 10058360
-0.066883 -0.052020 0.867000 10716812
-0.067346 -0.047391 0.873000 10510192
-0.067500 -0.042500 0.875000 10781829
-0.067886 -0.037714 0.880000 10521471
-0.068194 -0.032834 0.884000 10322046
-0.066736 -0.134317 0.887000 15063263
-0.066210 -0.128229 0.880000 15393009
-0.065532 -0.121940 0.871000 13818873
-0.065081 -0.116157 0.865000 13472172
-0.064705 -0.110571 0.860000 13475023
-0.063802 -0.104183 0.848000 15459572
-0.063125 -0.098283 0.839000 15524853
-0.063125 -0.093489 0.839000 12428251
-0.063125 -0.088694 0.839000 10781335
-0.063275 -0.084100 0.841000 10454158
-0.063576 -0.079671 0.845000 10453640
-0.063952 -0.075286 0.850000 9927819
-0.064103 -0.070594 0.852000 10584456
-0.064404 -0.066034 0.856000 10651786
-0.064705 -0.061429 0.860000 8797300
-0.064855 -0.056646 0.862000 9991533
-0.065231 -0.052020 0.867000 10847631
-0.065683 -0.047391 0.873000 10714256
-0.065833 -0.042500 0.875000 10781834
-0.066210 -0.037714 0.880000 9068662
-0.066360 -0.032760 0.882000 10584947
-0.064533 -0.128229 0.880000 15523825
-0.063873 -0.121940 0.871000 13352937
-0.063433 -0.116157 0.865000 13540799
-0.063067 -0.110571 0.860000 14469089
-0.062333 -0.104429 0.850000 15458546
-0.061527 -0.098283 0.839000 15524597
-0.061527 -0.093489 0.839000 12164311
-0.061527 -0.088694 0.839000 10783129
-0.061673 -0.084100 0.841000 10520977
-0.061967 -0.079671 0.845000 10388364
-0.062333 -0.075286 0.850000 10124685
-0.062480 -0.070594 0.852000 10584971
-0.062773 -0.066034 0.856000 11044750
-0.063067 -0.061429 0.860000 9202564
-0.063213 -0.056646 0.862000 9927298
-0.063580 -0.052020 0.867000 10979215
-0.064020 -0.047391 0.873000 10913936
-0.064167 -0.042500 0.875000 10781834
-0.064387 -0.037629 0.878000 7623298
-0.064680 -0.032760 0.882000 10844016
-0.062714 -0.127937 0.878000 15458545
-0.062214 -0.121940 0.871000 13086426
-0.061571 -0.115754 0.862000 13806034
-0.061143 -0.110057 0.856000 15134195
-0.060714 -0.104429 0.850000 15393520
-0.060071 -0.098517 0.841000 15524596
-0.059929 -0.093489 0.839000 12166610
-0.059929 -0.088694 0.839000 10848410
-0.060214 -0.084300 0.843000 10455443
-0.060571 -0.079954 0.848000 10585232
-0.060714 -0.075286 0.850000 10059407
-0.060857 -0.070594 0.852000 10784143
-0.061143 -0.066034 0.856000 11045010
-0.061429 -0.061429 0.860000 10258836
-0.061571 -0.056646 0.862000 10520215
-0.061929 -0.052020 0.867000 10979727
-0.062214 -0.047283 0.871000 10913935
-0.062357 -0.042403 0.873000 10847883
-0.062714 -0.037629 0.878000 8804493
-0.063000 -0.032760 0.882000 10847084
-0.061042 -0.127937 0.878000 15458290
-0.060416 -0.121660 0.869000 12761815
-0.059930 -0.115754 0.862000 14133454
-0.059651 -0.110314 0.858000 15788021
-0.058956 -0.104183 0.848000 15393521
-0.058330 -0.098283 0.839000 15524596
-0.058191 -0.093266 0.837000 12167373
-0.058330 -0.088694 0.839000 10848409
-0.058609 -0.084300 0.843000 10458004
-0.058956 -0.079954 0.848000 10716305
-0.059095 -0.075286 0.850000 9994384
-0.059234 -0.070594 0.852000 10914705
-0.059512 -0.066034 0.856000 11045013
-0.059790 -0.061429 0.860000 11307670
-0.059930 -0.056646 0.862000 11111319
-0.060277 -0.052020 0.867000 10914193
-0.060555 -0.047283 0.871000 10848399
-0.060694 -0.042403 0.873000 10847371
-0.061042 -0.037629 0.878000 9992593
-0.061320 -0.032760 0.882000 10846336
-0.059370 -0.127937 0.878000 15524082
-0.058626 -0.121380 0.867000 12759764
-0.058288 -0.115754 0.862000 14203338
-0.057882 -0.110057 0.856000 15590134
-0.057341 -0.104183 0.848000 15393522
-0.056732 -0.098283 0.839000 15524596
-0.056597 -0.093266 0.837000 12034248
-0.056597 -0.088483 0.837000 10980249
-0.057003 -0.084300 0.843000 10718868
-0.057138 -0.079671 0.845000 10848658
-0.057476 -0.075286 0.850000 10257041
-0.057611 -0.070594 0.852000 11045779
-0.057882 -0.066034 0.856000 11111063
-0.058152 -0.061429 0.860000 11242136
-0.058288 -0.056646 0.862000 11111062
-0.058490 -0.051900 0.865000 10980243
-0.058896 -0.047283 0.871000 10651791
-0.059031 -0.042403 0.873000 10057868
-0.059167 -0.037500 0.875000 10585748
-0.059640 -0.032760 0.882000 10980244
-0.057500 -0.127500 0.875000 15589106
-0.056974 -0.121380 0.867000 12695263
-0.056646 -0.115754 0.862000 14339553
-0.056251 -0.110057 0.856000 15393780
-0.055726 -0.104183 0.848000 15459570
-0.055266 -0.098517 0.841000 15523310
-0.055003 -0.093266 0.837000 11901637
-0.055134 -0.088694 0.839000 11046043
-0.055397 -0.084300 0.843000 10914202
-0.055726 -0.079954 0.848000 10914709
-0.055857 -0.075286 0.850000 10583954
-0.055989 -0.070594 0.852000 11111576
-0.056251 -0.066034 0.856000 11176856
-0.056383 -0.061286 0.858000 11111576
-0.056646 -0.056646 0.862000 11045272
-0.056843 -0.051900 0.865000 10980244
-0.057237 -0.047283 0.871000 10521233
-0.057369 -0.042403 0.873000 9267079
-0.057697 -0.037629 0.878000 11177106
-0.057960 -0.032760 0.882000 11111057
-0.055833 -0.127500 0.875000 15458545
-0.055323 -0.121380 0.867000 14074859
-0.055004 -0.115754 0.862000 14998776
-0.054493 -0.109800 0.854000 15393523
-0.054110 -0.104183 0.848000 15393265
-0.053664 -0.098517 0.841000 14803177
-0.053536 -0.093489 0.839000 11771073
-0.053536 -0.088694 0.839000 11177630
-0.053791 -0.084300 0.843000 11046303
-0.054110 -0.079954 0.848000 10981016
-0.054238 -0.075286 0.850000 10585746
-0.054493 -0.070760 0.854000 11112605
-0.054621 -0.066034 0.856000 11243161
-0.054876 -0.061429 0.860000 11177881
-0.055004 -0.056646 0.862000 11111578
-0.055195 -0.051900 0.865000 11111830
-0.055578 -0.047283 0.871000 10449299
-0.055706 -0.042403 0.873000 9394051
-0.056025 -0.037629 0.878000 11177104
-0.056280 -0.032760 0.882000 11176590
-0.054167 -0.127500 0.875000 15327474
-0.053671 -0.121380 0.867000 15392239
-0.053238 -0.115486 0.860000 15656693
-0.052867 -0.109800 0.854000 15393522
-0.052495 -0.104183 0.848000 15326705
-0.052062 -0.098517 0.841000 14076650
-0.051938 -0.093489 0.839000 11706298
-0.051938 -0.088694 0.839000 11243947
-0.052186 -0.084300 0.843000 11177886
-0.052495 -0.079954 0.848000 10981019
-0.052619 -0.075286 0.850000 10587028
-0.052867 -0.070760 0.854000 11047582
-0.052990 -0.066034 0.856000 11308955
-0.053114 -0.061286 0.858000 11243932
-0.053362 -0.056646 0.862000 11112092
-0.053548 -0.051900 0.865000 11177880
-0.053919 -0.047283 0.871000 10389913
-0.054043 -0.042403 0.873000 9467516
-0.054352 -0.037629 0.878000 11242387
-0.054600 -0.032760 0.882000 11175318
-0.052500 -0.127500 0.875000 15393010
-0.052020 -0.121380 0.867000 15459571
-0.051480 -0.115217 0.858000 15524849
-0.051240 -0.109800 0.854000 15393265
-0.050880 -0.104183 0.848000 15393009
-0.050460 -0.098517 0.841000 13876204
-0.050340 -0.093489 0.839000 11770803
-0.050340 -0.088694 0.839000 11441079
-0.050580 -0.084300 0.843000 11308701
-0.050880 -0.079954 0.848000 11112863
-0.051120 -0.075463 0.852000 10848406
-0.051240 -0.070760 0.854000 11178655
-0.051360 -0.066034 0.856000 11374749
-0.051480 -0.061286 0.858000 11376032
-0.051720 -0.056646 0.862000 11177630
-0.051900 -0.051900 0.865000 11309211
-0.052260 -0.047283 0.871000 10323103
-0.052380 -0.042403 0.873000 10585206
-0.052680 -0.037629 0.878000 11242902
-0.052920 -0.032760 0.882000 11111325
-0.050833 -0.127500 0.875000 15458547
-0.050369 -0.121380 0.867000 15524594
-0.049846 -0.115217 0.858000 15458545
-0.049497 -0.109543 0.852000 15393265
-0.049265 -0.104183 0.848000 15524337
-0.048858 -0.098517 0.841000 13682659
-0.048742 -0.093489 0.839000 11833520
-0.048858 -0.088906 0.841000 11574962
-0.048974 -0.084300 0.843000 11438496
-0.049381 -0.080143 0.850000 11178146
-0.049497 -0.075463 0.852000 11173277
-0.049613 -0.070760 0.854000 11240834
-0.049730 -0.066034 0.856000 11505827
-0.049962 -0.061429 0.860000 11440025
-0.050078 -0.056646 0.862000 11175289
-0.050369 -0.052020 0.867000 11375519
-0.050601 -0.047283 0.871000 10262688
-0.050717 -0.042403 0.873000 11635594
-0.051008 -0.037629 0.878000 11308441
-0.051240 -0.032760 0.882000 11045787
-0.049054 -0.127209 0.873000 15459059
-0.048717 -0.121380 0.867000 15458801
-0.048211 -0.115217 0.858000 15392753
-0.047874 -0.109543 0.852000 15327729
-0.047650 -0.104183 0.848000 15262449
-0.047256 -0.098517 0.841000 13419482
-0.047256 -0.093711 0.841000 11900845
-0.047369 -0.089117 0.843000 11708077
-0.047481 -0.084500 0.845000 11637667
-0.047762 -0.080143 0.850000 11309221
-0.047874 -0.075463 0.852000 10978724
-0.047987 -0.070760 0.854000 10773861
-0.048211 -0.066189 0.858000 11572393
-0.048324 -0.061429 0.860000 10321554
-0.048605 -0.056843 0.865000 10574420
-0.048717 -0.052020 0.867000 11507363
-0.048942 -0.047283 0.871000 10917280
-0.049054 -0.042403 0.873000 11505822
-0.049448 -0.037714 0.880000 11308699
-0.049560 -0.032760 0.882000 11176857
-0.047391 -0.127209 0.873000 15459060
-0.047066 -0.121380 0.867000 15327729
-0.046577 -0.115217 0.858000 15327218
-0.046251 -0.109543 0.852000 15261679
-0.046034 -0.104183 0.848000 15066101
-0.045654 -0.098517 0.841000 13088983
-0.045654 -0.093711 0.841000 11967668
-0.045763 -0.089117 0.843000 11837879
-0.046034 -0.084800 0.848000 11835565
-0.046251 -0.080331 0.852000 11375778
-0.046360 -0.075640 0.854000 10784935
-0.046469 -0.070926 0.856000 10310783
-0.046577 -0.066189 0.858000 11574192
-0.046794 -0.061571 0.862000 9206937
-0.046957 -0.056843 0.865000 9916525
-0.047174 -0.052140 0.869000 11638948
-0.047283 -0.047283 0.871000 11637923
-0.047500 -0.042500 0.875000 11375007
-0.047771 -0.037714 0.880000 11374493
-0.047880 -0.032760 0.882000 11242906
-0.045729 -0.127209 0.873000 15261428
-0.045310 -0.121100 0.865000 15393010
-0.044838 -0.114949 0.856000 15262194
-0.044629 -0.109543 0.852000 15325678
-0.044262 -0.103814 0.845000 15131384
-0.044052 -0.098517 0.841000 12955861
-0.044157 -0.093934 0.843000 12231355
-0.044262 -0.089329 0.845000 12033986
-0.044419 -0.084800 0.848000 12165559
-0.044733 -0.080520 0.854000 11374494
-0.044838 -0.075817 0.856000 11441065
-0.044838 -0.070926 0.856000 10244762
-0.045048 -0.066343 0.860000 11901878
-0.045152 -0.061571 0.862000 10586784
-0.045310 -0.056843 0.865000 10250885
-0.045519 -0.052140 0.869000 11770277
-0.045624 -0.047283 0.871000 11703973
-0.045729 -0.042403 0.873000 11506081
-0.046095 -0.037714 0.880000 11506078
-0.044066 -0.127209 0.873000 15130350
-0.043662 -0.121100 0.865000 15459058
-0.043309 -0.115217 0.858000 15262449
-0.043006 -0.109543 0.852000 15328497
-0.042804 -0.104183 0.848000 15267066
-0.042551 -0.098751 0.843000 12759764
-0.042652 -0.094157 0.845000 12559811
-0.042804 -0.089646 0.848000 12231873
-0.042905 -0.085000 0.850000 12495040
-0.043107 -0.080520 0.854000 11306921
-0.043208 -0.075817 0.856000 12101047
-0.043309 -0.071091 0.858000 10193328
-0.043410 -0.066343 0.860000 12165304
-0.043662 -0.061786 0.865000 11899565
-0.043763 -0.056974 0.867000 10588579
-0.043864 -0.052140 0.869000 11902122
-0.044066 -0.047391 0.873000 11704744
-0.044167 -0.042500 0.875000 11638181
-0.044419 -0.037714 0.880000 11637666
-0.042306 -0.126917 0.871000 15063527
-0.042014 -0.121100 0.865000 15262707
-0.041674 -0.115217 0.858000 15064303
-0.041383 -0.109543 0.852000 16056053
-0.041189 -0.104183 0.848000 15132156
-0.040946 -0.098751 0.843000 12889812
-0.041189 -0.094491 0.848000 12693707
-0.041189 -0.089646 0.848000 12362433
-0.041383 -0.085200 0.852000 12956360
-0.041577 -0.080709 0.856000 11369395
-0.041771 -0.076171 0.860000 12495045
-0.041771 -0.071257 0.860000 11577031
-0.041869 -0.066497 0.862000 12297657
-0.042111 -0.061929 0.867000 12229562
-0.042209 -0.057106 0.869000 11508673
-0.042306 -0.052260 0.871000 11968943
-0.042403 -0.047391 0.873000 11770538
-0.042500 -0.042500 0.875000 11835562
-0.042743 -0.037714 0.880000 11178149
-0.040553 -0.126626 0.869000 14996979
-0.040227 -0.120680 0.862000 15063535
-0.040040 -0.115217 0.858000 14933232
-0.039760 -0.109543 0.852000 16709112
-0.039573 -0.104183 0.848000 14996469
-0.039433 -0.098986 0.845000 13022681
-0.039573 -0.094491 0.848000 12826841
-0.039667 -0.089857 0.850000 12496586
-0.039853 -0.085400 0.854000 13483480
-0.040040 -0.080897 0.858000 11372705
-0.040133 -0.076171 0.860000 12889804
-0.040133 -0.071257 0.860000 12954568
-0.040367 -0.066729 0.865000 12494783
-0.040460 -0.061929 0.867000 12494270
-0.040647 -0.057237 0.871000 12427964
-0.040647 -0.052260 0.871000 12032417
-0.040833 -0.047500 0.875000 11902127
-0.040973 -0.042646 0.878000 11967407
-0.041160 -0.037800 0.882000 10715774
-0.038898 -0.126626 0.869000 15063550
-0.038585 -0.120680 0.862000 15125482
-0.038406 -0.115217 0.858000 15393777
-0.038227 -0.109800 0.854000 16645883
-0.038048 -0.104429 0.850000 14668014
-0.038048 -0.099571 0.850000 13351647
-0.038137 -0.094937 0.852000 13287142
-0.038227 -0.090280 0.854000 13023700
-0.038316 -0.085600 0.856000 13089511
-0.038406 -0.080897 0.858000 11558800
-0.038585 -0.076349 0.862000 13087955
-0.038585 -0.071423 0.862000 13021898
-0.038809 -0.066883 0.867000 12758724
-0.038898 -0.062071 0.869000 12691650
-0.038988 -0.057237 0.871000 12495031
-0.039077 -0.052380 0.873000 11043988
-0.039301 -0.047663 0.878000 11836084
-0.039390 -0.042743 0.880000 12230580
-0.039570 -0.037886 0.884000 10510167
-0.037243 -0.126626 0.869000 15195849
-0.036943 -0.120680 0.862000 15131380
-0.036771 -0.115217 0.858000 15854582
-0.036600 -0.109800 0.854000 16576503
-0.036514 -0.104674 0.852000 14275049
-0.036600 -0.100040 0.854000 13616103
-0.036600 -0.095160 0.854000 13748706
-0.036686 -0.090491 0.856000 13547472
-0.036771 -0.085800 0.858000 12761536
-0.036857 -0.081086 0.860000 11696545
-0.036943 -0.076349 0.862000 13221595
-0.037071 -0.071671 0.865000 13084615
-0.037157 -0.066883 0.867000 13088178
-0.037329 -0.062214 0.871000 12824007
-0.037329 -0.057237 0.871000 12626622
-0.037414 -0.052380 0.873000 10061958
-0.037714 -0.047771 0.880000 11773883
-0.037800 -0.042840 0.882000 12493242
-0.037886 -0.037886 0.884000 10376584
-0.035301 -0.120680 0.862000 15793406
-0.035137 -0.115217 0.858000 15789307
-0.035055 -0.110057 0.856000 15919348
