# .PCD v.7 - Point Cloud Data file format
VERSION .7
FIELDS x y z rgb
SIZE 4 4 4 4
TYPE F F F I
COUNT 1 1 1 1
WIDTH 1330
HEIGHT 1
POINTS 1330
DATA ascii
0.024257 0.058756 0.566000 11637642
0.024300 0.062100 0.567000 11703182
0.024343 0.065455 0.568000 11768211
0.024429 0.068943 0.570000 11701643
0.024471 0.072327 0.571000 11305346
0.024557 0.075854 0.573000 11304061
0.024600 0.079267 0.574000 11107963
0.024729 0.082978 0.577000 10780275
0.024771 0.086425 0.578000 10187892
0.024900 0.090193 0.581000 10123118
0.025917 0.046871 0.579000 13353963
0.025828 0.050007 0.577000 15392738
0.025425 0.052472 0.568000 13419219
0.025335 0.055522 0.566000 10320777
0.025290 0.058652 0.565000 11637641
0.025290 0.061881 0.565000 11702925
0.025335 0.065225 0.566000 11768207
0.025470 0.068822 0.569000 11833739
0.025514 0.072200 0.570000 11306884
0.025604 0.075722 0.572000 11304327
0.025649 0.079129 0.573000 11174267
0.025693 0.082547 0.574000 11041397
0.025783 0.086126 0.576000 10910068
0.025962 0.090038 0.580000 10188393
0.025917 0.093191 0.579000 9139306
0.027253 0.043939 0.584000 15722487
0.027067 0.046952 0.580000 13608683
0.027020 0.050180 0.579000 15061977
0.026460 0.052380 0.567000 14538460
0.026367 0.055424 0.565000 10519428
0.026320 0.058549 0.564000 11768457
0.026320 0.061771 0.564000 11702667
0.026367 0.065110 0.565000 11702411
0.026507 0.068701 0.568000 11637131
0.026553 0.072073 0.569000 10847367
0.026600 0.075457 0.570000 11306640
0.026647 0.078852 0.571000 11437691
0.026740 0.082403 0.573000 11172726
0.026787 0.085827 0.574000 10910323
0.026880 0.089417 0.576000 10383972
0.026973 0.093030 0.578000 10122600
0.028366 0.043939 0.584000 15792890
0.028171 0.046952 0.580000 13878760
0.028074 0.050093 0.578000 14802668
0.027491 0.052288 0.566000 15588069
0.027394 0.055326 0.564000 10780061
0.027346 0.058445 0.563000 11833227
0.027346 0.061662 0.563000 11702411
0.027394 0.064994 0.564000 11636873
0.027443 0.068338 0.565000 11505802
0.027540 0.071820 0.567000 10324101
0.027589 0.075192 0.568000 11307913
0.027589 0.078438 0.568000 11700864
0.027783 0.082259 0.572000 11304059
0.027831 0.085677 0.573000 10910839
0.027831 0.088951 0.573000 10579827
0.027929 0.092548 0.575000 11105906
0.029579 0.044090 0.586000 16118781
0.029226 0.046871 0.579000 13811685
0.029175 0.050093 0.578000 15526910
0.028570 0.052288 0.566000 15656431
0.028469 0.055326 0.564000 11441590
0.028368 0.058341 0.562000 11505294
0.028368 0.061552 0.562000 11702411
0.028418 0.064879 0.563000 11505287
0.028469 0.068217 0.564000 11439752
0.028570 0.071693 0.566000 10652546
0.028620 0.075060 0.567000 10781570
0.028620 0.078300 0.567000 11243398
0.028721 0.081828 0.569000 10911103
0.028771 0.085229 0.570000 10977402
0.028822 0.088641 0.571000 11109761
0.028973 0.092387 0.574000 11171708
0.030695 0.044090 0.586000 16383742
0.030329 0.046871 0.579000 13683942
0.030224 0.050007 0.577000 16184556
0.029595 0.052195 0.565000 15722482
0.029438 0.055130 0.562000 12101064
0.029333 0.058133 0.560000 11176070
0.029333 0.061333 0.560000 11702409
0.029386 0.064649 0.561000 11308937
0.029438 0.067975 0.562000 11372935
0.029543 0.071440 0.564000 10914433
0.029595 0.074795 0.565000 10322303
0.029595 0.078024 0.565000 10782592
0.029648 0.081396 0.566000 10517632
0.029752 0.084930 0.568000 10977913
0.029805 0.088330 0.569000 11638146
0.029910 0.091904 0.571000 11174787
0.030014 0.095500 0.573000 11045764
0.031757 0.044014 0.585000 16447486
0.031431 0.046871 0.579000 14734567
0.031214 0.049833 0.575000 15325146
0.030671 0.052195 0.565000 15590390
0.030509 0.055130 0.562000 12892634
0.030346 0.058030 0.559000 10649214
0.030346 0.061224 0.559000 11571590
0.030400 0.064533 0.560000 11375244
0.030400 0.067733 0.560000 11241861
0.030509 0.071187 0.562000 10519680
0.030617 0.074663 0.564000 10453628
0.030671 0.078024 0.565000 10716026
0.030671 0.081252 0.565000 10649728
0.030726 0.084630 0.566000 10847096
0.030834 0.088175 0.568000 10911362
0.030997 0.091904 0.571000 11241610
0.031051 0.095333 0.572000 10716552
0.032928 0.044090 0.586000 16511733
0.032647 0.047033 0.581000 15787759
0.032197 0.049660 0.573000 14466255
0.031860 0.052380 0.567000 15461364
0.031523 0.055031 0.561000 13751532
0.031354 0.057926 0.558000 10059661
0.031354 0.061114 0.558000 11440769
0.031410 0.064418 0.559000 11375244
0.031410 0.067612 0.559000 11176328
0.031467 0.070933 0.560000 10060154
0.031523 0.074266 0.561000 10584957
0.031691 0.077886 0.564000 10649724
0.031748 0.081252 0.565000 10781572
0.031748 0.084481 0.565000 10716802
0.031916 0.088175 0.568000 10251649
0.031972 0.091582 0.569000 11241602
0.032085 0.095167 0.571000 10456197
0.034102 0.040810 0.587000 15060694
0.034102 0.044165 0.587000 16247531
0.033928 0.047276 0.584000 16250872
0.033230 0.049573 0.572000 14070724
0.032998 0.052472 0.568000 16053490
0.032533 0.054933 0.560000 14737662
0.032417 0.057926 0.558000 10712733
0.032301 0.060895 0.556000 10715771
0.032301 0.064072 0.556000 10916492
0.032417 0.067491 0.558000 11176842
0.032417 0.070680 0.558000 10255732
0.032533 0.074133 0.560000 10452861
0.032708 0.077748 0.563000 10255998
0.032766 0.081109 0.564000 10783111
0.032766 0.084331 0.564000 11308684
0.032824 0.087710 0.565000 10781824
0.032998 0.091421 0.568000 11372409
0.033056 0.094833 0.569000 11111554
0.035580 0.034450 0.593000 14663875
0.035580 0.037839 0.593000 14532287
0.035340 0.040950 0.589000 15457242
0.035220 0.044165 0.587000 16047086
0.035040 0.047276 0.584000 16642295
0.034320 0.049573 0.572000 13675463
0.034080 0.052472 0.568000 16641002
0.033600 0.054933 0.560000 15662334
0.033420 0.057822 0.557000 11315404
0.033360 0.060895 0.556000 9991603
0.033300 0.063957 0.555000 10454163
0.033360 0.067250 0.556000 11111557
0.033420 0.070553 0.557000 10388865
0.033420 0.073736 0.557000 10321282
0.033660 0.077471 0.561000 9862013
0.033720 0.080821 0.562000 10847620
0.033780 0.084182 0.563000 11897729
0.033840 0.087554 0.564000 11375230
0.033960 0.091099 0.566000 11439230
0.034020 0.094500 0.567000 11767429
0.036710 0.034450 0.593000 14598339
0.036710 0.037839 0.593000 14531776
0.036648 0.041158 0.592000 15789022
0.036400 0.044240 0.588000 15852272
0.036214 0.047357 0.585000 16643062
0.035410 0.049573 0.572000 13809353
0.035162 0.052472 0.568000 15983842
0.034605 0.054835 0.559000 16184829
0.034481 0.057822 0.557000 14018812
0.034357 0.060786 0.555000 12891883
0.034357 0.063957 0.555000 11433369
0.034357 0.067129 0.555000 10650752
0.034419 0.070427 0.556000 10653326
0.034481 0.073736 0.557000 10848135
0.034543 0.077057 0.558000 10057597
0.034667 0.080533 0.560000 10386048
0.034729 0.083883 0.561000 11369590
0.034852 0.087399 0.563000 11110523
0.034790 0.090455 0.562000 11570818
0.034976 0.094167 0.565000 11702407
0.035162 0.097912 0.568000 10983054
0.037839 0.034450 0.593000 14467265
0.037775 0.037775 0.592000 14466236
0.037775 0.041158 0.592000 16115685
0.037392 0.044090 0.586000 15722735
0.037329 0.047357 0.585000 16642037
0.036499 0.049573 0.572000 13941983
0.036244 0.052472 0.568000 15325663
0.035733 0.054933 0.560000 16643836
0.035542 0.057822 0.557000 16710141
0.035414 0.060786 0.555000 15859445
0.035350 0.063842 0.554000 12434892
0.035414 0.067129 0.555000 10126524
0.035414 0.070300 0.555000 10913439
0.035478 0.073604 0.556000 11440261
0.035542 0.076919 0.557000 10258312
0.035670 0.080390 0.559000 9925762
0.035733 0.083733 0.560000 10846331
0.035797 0.087089 0.561000 10846849
0.035733 0.090133 0.560000 11636101
0.035861 0.093667 0.562000 11702414
0.035989 0.097223 0.564000 11834761
0.038903 0.037775 0.592000 14531511
0.038903 0.041158 0.592000 16117228
0.038574 0.044165 0.587000 15654637
0.038377 0.047276 0.584000 16380660
0.037589 0.049573 0.572000 14272500
0.037326 0.052472 0.568000 15520477
0.036800 0.054933 0.560000 16645115
0.036603 0.057822 0.557000 16645886
0.036537 0.060895 0.556000 16318206
0.036406 0.063842 0.554000 14614270
0.036471 0.067129 0.555000 13420023
0.036471 0.070300 0.555000 12420528
0.036471 0.073471 0.555000 10979715
0.036603 0.076919 0.557000 10590098
0.036669 0.080246 0.558000 10585732
0.036734 0.083584 0.559000 11176319
0.036734 0.086778 0.559000 11111302
0.036734 0.089972 0.559000 11636359
0.036800 0.093333 0.560000 11768212
0.036931 0.096878 0.562000 11769221
0.040030 0.037775 0.592000 14529977
0.039895 0.041019 0.590000 16051185
0.039692 0.044165 0.587000 15654385
0.039422 0.047195 0.583000 16114925
0.038408 0.052472 0.568000 15718366
0.037731 0.054737 0.558000 16711164
0.037664 0.057822 0.557000 16580093
0.037529 0.060786 0.555000 16711422
0.037461 0.063842 0.554000 16711422
0.037461 0.067008 0.554000 16645883
0.037461 0.070173 0.554000 13946839
0.037529 0.073471 0.555000 10588606
0.037596 0.076781 0.556000 10916268
0.037731 0.080246 0.558000 11309971
0.037799 0.083584 0.559000 11440014
0.037799 0.086778 0.559000 11441290
0.037731 0.089811 0.558000 11636102
0.037799 0.093167 0.559000 11899793
0.037867 0.096533 0.560000 11634289
0.041228 0.037839 0.593000 14794938
0.041019 0.041019 0.590000 15919863
0.040810 0.044165 0.587000 15721461
0.040532 0.047195 0.583000 15652070
0.039559 0.049313 0.569000 14666728
0.038933 0.054933 0.560000 16711165
0.038725 0.057822 0.557000 16580093
0.038586 0.060786 0.555000 16645629
0.038516 0.063842 0.554000 16711421
0.038516 0.067008 0.554000 16645886
0.038516 0.070173 0.554000 15335166
0.038586 0.073471 0.555000 13618937
0.038586 0.076643 0.555000 12883399
0.038725 0.080102 0.557000 11506593
0.038725 0.083285 0.557000 11244702
0.038725 0.086468 0.557000 11376014
0.038794 0.089811 0.558000 11570309
0.038794 0.093000 0.558000 11308173
0.038864 0.096361 0.559000 8477533
0.042357 0.037839 0.593000 15055814
0.042143 0.041019 0.590000 15722998
0.041929 0.044165 0.587000 15789815
0.041571 0.047114 0.582000 15193575
0.040643 0.049313 0.569000 14733797
0.040071 0.055031 0.561000 16710909
0.039857 0.057926 0.558000 16579581
0.039714 0.060895 0.556000 16645630
0.039571 0.063842 0.554000 16645629
0.039571 0.067008 0.554000 16711166
0.039571 0.070173 0.554000 16711422
0.039643 0.073471 0.555000 16711420
0.039643 0.076643 0.555000 14866658
0.039714 0.079958 0.556000 11708623
0.039786 0.083285 0.557000 11048376
0.039714 0.086312 0.556000 11376792
0.039786 0.089650 0.557000 11504778
0.039857 0.093000 0.558000 10717310
0.040000 0.096533 0.560000 5266771
0.043487 0.037839 0.593000 15257554
0.043267 0.041019 0.590000 15719670
0.043047 0.044165 0.587000 15853817
0.042827 0.047276 0.584000 15390952
0.041947 0.049573 0.572000 15128034
0.041140 0.055031 0.561000 16645628
0.040920 0.057926 0.558000 16315901
0.040847 0.061005 0.557000 16580094
0.040700 0.063957 0.555000 16645629
0.040627 0.067008 0.554000 16645629
0.040627 0.070173 0.554000 16711422
0.040700 0.073471 0.555000 16711422
0.040700 0.076643 0.555000 15793918
0.040700 0.079814 0.555000 14211837
0.040700 0.082986 0.555000 13346771
0.040700 0.086157 0.555000 11901601
0.040773 0.089490 0.556000 10979727
0.040920 0.093000 0.558000 10516335
0.041067 0.096533 0.560000 6052937
0.044767 0.037967 0.595000 15390684
0.044466 0.041089 0.591000 15721716
0.044165 0.044165 0.587000 15985909
0.043864 0.047195 0.583000 15522282
0.042961 0.049487 0.571000 15521000
0.043036 0.052842 0.572000 16578036
0.042209 0.055031 0.561000 16645629
0.041983 0.057926 0.558000 16052986
0.041908 0.061005 0.557000 16579834
0.041757 0.063957 0.555000 16645629
0.041757 0.067129 0.555000 16645629
0.041757 0.070300 0.555000 16645629
0.041757 0.073471 0.555000 16711422
0.041757 0.076643 0.555000 16711422
0.041757 0.079814 0.555000 16711422
0.041757 0.082986 0.555000 15589608
0.041757 0.086157 0.555000 12498640
0.041757 0.089329 0.555000 10390956
0.041908 0.092833 0.557000 10254724
0.042058 0.096361 0.559000 6784115
0.045900 0.037967 0.595000 15457766
0.045669 0.041158 0.592000 15522290
0.045437 0.044315 0.589000 15853553
0.044897 0.047114 0.582000 15523053
0.044203 0.049660 0.573000 15324397
0.043971 0.052657 0.570000 16249327
0.043277 0.055031 0.561000 16645629
0.043123 0.058030 0.559000 16113400
0.043046 0.061114 0.558000 16513014
0.042891 0.064072 0.556000 16645885
0.042814 0.067129 0.555000 16645629
0.042814 0.070300 0.555000 16645629
0.042814 0.073471 0.555000 16711422
0.042814 0.076643 0.555000 16711422
0.042814 0.079814 0.555000 16711422
0.042814 0.082986 0.555000 16187134
0.042814 0.086157 0.555000 14607614
0.042814 0.089329 0.555000 12424393
0.042969 0.092833 0.557000 12758425
0.043123 0.096361 0.559000 8820892
0.047033 0.037967 0.595000 15462386
0.046796 0.041158 0.592000 15261168
0.046559 0.044315 0.589000 15788020
0.045927 0.047033 0.581000 15523053
0.045294 0.049660 0.573000 15194858
0.045057 0.052657 0.570000 15917039
0.044346 0.055031 0.561000 16710909
0.044188 0.058030 0.559000 16184827
0.044109 0.061114 0.558000 16514554
0.043950 0.064072 0.556000 16645885
0.043950 0.067250 0.556000 16645629
0.043871 0.070300 0.555000 16645629
0.043871 0.073471 0.555000 16711422
0.043871 0.076643 0.555000 16711422
0.043871 0.079814 0.555000 16711422
0.043871 0.082986 0.555000 16711422
0.043871 0.086157 0.555000 16711422
0.043871 0.089329 0.555000 14406365
0.044030 0.092833 0.557000 15185300
0.044267 0.096533 0.560000 10847105
0.047843 0.041089 0.591000 15457007
0.047600 0.044240 0.588000 15786742
0.046952 0.046952 0.580000 15522541
0.046386 0.049660 0.573000 15391463
0.046062 0.052565 0.569000 15780847
0.045414 0.055031 0.561000 16711165
0.045252 0.058030 0.559000 16449278
0.045252 0.061224 0.559000 16580094
0.045252 0.064418 0.559000 16645630
0.045171 0.067491 0.558000 16645629
0.045090 0.070553 0.557000 16645630
0.045010 0.073604 0.556000 16711422
0.045010 0.076781 0.556000 16711422
0.044929 0.079814 0.555000 16711422
0.044929 0.082986 0.555000 16711422
0.044929 0.086157 0.555000 16711422
0.044929 0.089329 0.555000 15265521
0.045010 0.092667 0.556000 13275534
0.045333 0.096533 0.560000 10708838
0.048886 0.041019 0.590000 15589360
0.048720 0.044240 0.588000 15854066
0.048140 0.047033 0.581000 15523055
0.047394 0.049573 0.572000 15653870
0.047063 0.052472 0.568000 15589360
0.046566 0.055130 0.562000 16711165
0.046400 0.058133 0.560000 16645629
0.046400 0.061333 0.560000 16711166
0.046400 0.064533 0.560000 16645629
0.046317 0.067612 0.559000 16645629
0.046234 0.070680 0.558000 16645886
0.046069 0.073604 0.556000 16711422
0.046151 0.076919 0.557000 16711422
0.046151 0.080102 0.557000 16711422
0.045986 0.082986 0.555000 16711422
0.045986 0.086157 0.555000 16711422
0.045986 0.089329 0.555000 16045798
0.045986 0.092500 0.555000 11367316
0.046400 0.096533 0.560000 10579309
0.050179 0.041158 0.592000 15654130
0.049840 0.044240 0.588000 15852270
0.049247 0.047033 0.581000 15720432
0.048484 0.049573 0.572000 15654644
0.048145 0.052472 0.568000 15982577
0.047721 0.055228 0.563000 16711164
0.047467 0.058133 0.560000 16645629
0.047467 0.061333 0.560000 16645629
0.047467 0.064533 0.560000 16645629
0.047382 0.067612 0.559000 16645629
0.047212 0.070553 0.557000 16711422
0.047212 0.073736 0.557000 16711422
0.047212 0.076919 0.557000 16711422
0.047212 0.080102 0.557000 16711422
0.047128 0.083135 0.556000 16711422
0.047043 0.086157 0.555000 16711422
0.047043 0.089329 0.555000 14531803
0.047212 0.092833 0.557000 10779033
0.047551 0.096706 0.561000 10317428
0.051307 0.041158 0.592000 15720946
0.050960 0.044240 0.588000 15850220
0.050267 0.046952 0.580000 15852530
0.049660 0.049660 0.573000 15722996
0.049227 0.052472 0.568000 16378868
0.048793 0.055228 0.563000 16710909
0.048533 0.058133 0.560000 16645629
0.048533 0.061333 0.560000 16645883
0.048620 0.064649 0.561000 16645629
0.048533 0.067733 0.560000 16645630
0.048273 0.070553 0.557000 16711422
0.048273 0.073736 0.557000 16711422
0.048360 0.077057 0.558000 16711422
0.048447 0.080390 0.559000 16711422
0.048273 0.083285 0.557000 16711422
0.048187 0.086312 0.556000 16711422
0.048100 0.089329 0.555000 12952776
0.048273 0.092833 0.557000 10189720
0.052523 0.041228 0.593000 15787506
0.052257 0.044390 0.590000 15785706
0.051283 0.046871 0.579000 15851508
0.050929 0.049833 0.575000 15787507
0.050131 0.052288 0.566000 16580344
0.049866 0.055228 0.563000 16645629
0.049777 0.058341 0.562000 16645629
0.049777 0.061552 0.562000 16579321
0.049777 0.064764 0.562000 16645630
0.049689 0.067854 0.561000 16645630
0.049600 0.070933 0.560000 16711422
0.049423 0.073869 0.558000 16711422
0.049511 0.077195 0.559000 16711422
0.049511 0.080390 0.559000 16711422
0.049423 0.083434 0.558000 16711422
0.049246 0.086312 0.556000 16711422
0.049157 0.089329 0.555000 12288436
0.049246 0.092667 0.556000 10583190
0.054376 0.038350 0.601000 15919863
0.053562 0.041158 0.592000 15787247
0.053381 0.044390 0.590000 15720170
0.052295 0.046790 0.578000 15852529
0.052114 0.049920 0.576000 15787249
0.051300 0.052380 0.567000 16710650
0.050938 0.055228 0.563000 16645629
0.050848 0.058341 0.562000 16645629
0.050848 0.061552 0.562000 16512763
0.050848 0.064764 0.562000 16645630
0.050757 0.067854 0.561000 16711422
0.050757 0.071060 0.561000 16711422
0.050486 0.073869 0.558000 16711422
0.050576 0.077195 0.559000 16711422
0.050486 0.080246 0.558000 16711422
0.050395 0.083285 0.557000 16711422
0.050214 0.086157 0.555000 16645886
0.050214 0.089329 0.555000 11566498
0.055521 0.038350 0.601000 15919608
0.054690 0.041158 0.592000 15653867
0.054597 0.044466 0.591000 15522282
0.053304 0.046710 0.577000 15984879
0.053119 0.049833 0.575000 15850990
0.052288 0.052288 0.566000 16711421
0.052103 0.055326 0.564000 16645629
0.051918 0.058341 0.562000 16645629
0.051918 0.061552 0.562000 16579837
0.051918 0.064764 0.562000 16711166
0.051918 0.067975 0.562000 16711422
0.051826 0.071060 0.561000 16711422
0.051826 0.074266 0.561000 16711422
0.051733 0.077333 0.560000 16711422
0.051549 0.080246 0.558000 16711422
0.051549 0.083434 0.558000 16711422
0.051456 0.086468 0.557000 16118014
0.056666 0.038350 0.601000 15984364
0.056100 0.041367 0.595000 15522539
0.055723 0.044466 0.591000 15390955
0.054403 0.046710 0.577000 16115183
0.054214 0.049833 0.575000 15915248
0.053649 0.052565 0.569000 16711165
0.053177 0.055326 0.564000 16645629
0.053460 0.058860 0.567000 16645629
0.052989 0.061552 0.562000 16711422
0.052894 0.064649 0.561000 16711422
0.052894 0.067854 0.561000 16711422
0.052894 0.071060 0.561000 16711422
0.052800 0.074133 0.560000 16711422
0.052800 0.077333 0.560000 16711422
0.052706 0.080390 0.559000 16711422
0.052706 0.083584 0.559000 16711422
0.052611 0.086623 0.558000 15531493
0.058099 0.035090 0.604000 15920352
0.057714 0.038286 0.600000 15652831
0.057137 0.041297 0.594000 15589099
0.056945 0.044541 0.592000 15522540
0.055406 0.046629 0.576000 15784687
0.055310 0.049833 0.575000 16182769
0.054732 0.052565 0.569000 16711166
0.054348 0.055424 0.565000 16645629
0.054540 0.058860 0.567000 16645629
0.054059 0.061552 0.562000 16711422
0.054059 0.064764 0.562000 16711422
0.054059 0.067975 0.562000 16711422
0.053963 0.071060 0.561000 16711422
0.053867 0.074133 0.560000 16711422
0.053867 0.077333 0.560000 16711422
0.054059 0.080821 0.562000 16711422
0.053867 0.083733 0.560000 16711422
0.053770 0.086778 0.559000 14991308
0.059250 0.035090 0.604000 15983842
0.058759 0.038222 0.599000 15388895
0.058269 0.041297 0.594000 15654891
0.057974 0.044466 0.591000 15653869
0.056405 0.046548 0.575000 15391981
0.056307 0.049747 0.574000 16447480
0.056012 0.052750 0.571000 16645629
0.055424 0.055424 0.565000 16645629
0.055620 0.058860 0.567000 16645629
0.055522 0.061990 0.566000 16711422
0.055130 0.064764 0.562000 16711422
0.055228 0.068096 0.563000 16711422
0.055130 0.071187 0.562000 16711422
0.055031 0.074266 0.561000 16711422
0.055031 0.077471 0.561000 16711422
0.055130 0.080821 0.562000 16711422
0.055031 0.083883 0.561000 16711422
0.054835 0.086778 0.559000 14454726
0.060400 0.035090 0.604000 16049125
0.059900 0.038222 0.599000 15258078
0.059400 0.041297 0.594000 15588331
0.059100 0.044466 0.591000 15522541
0.057400 0.046467 0.574000 15456234
0.057300 0.049660 0.573000 16579326
0.057100 0.052750 0.571000 16645629
0.056600 0.055522 0.566000 16645629
0.056700 0.058860 0.567000 16711166
0.056600 0.061990 0.566000 16711422
0.056300 0.064879 0.563000 16711422
0.056300 0.068096 0.563000 16711422
0.056400 0.071440 0.564000 16711422
0.056100 0.074266 0.561000 16711422
0.056100 0.077471 0.561000 16711422
0.056100 0.080677 0.561000 16711422
0.056100 0.083883 0.561000 16711422
0.056100 0.087089 0.561000 13796031
0.061550 0.035090 0.604000 16116719
0.060837 0.038094 0.597000 15127264
0.060328 0.041158 0.592000 15522539
0.060022 0.044315 0.589000 15456750
0.058290 0.046305 0.572000 15523565
0.058391 0.049660 0.573000 16711422
0.058188 0.052750 0.571000 16645629
0.057780 0.055620 0.567000 16711165
0.057780 0.058860 0.567000 16711422
0.057678 0.061990 0.566000 16711422
0.057372 0.064879 0.563000 16711422
0.057576 0.068338 0.565000 16711422
0.057474 0.071440 0.564000 16711422
0.057474 0.074663 0.564000 16711422
0.057474 0.077886 0.564000 16711422
0.057474 0.081109 0.564000 16711422
0.057067 0.083733 0.560000 16711422
0.057169 0.087089 0.561000 13127851
0.057372 0.090616 0.563000 11426160
0.063012 0.035264 0.607000 16449018
0.061974 0.038094 0.597000 15192802
0.061455 0.041158 0.592000 15587819
0.061144 0.044315 0.589000 15523567
0.059379 0.046305 0.572000 15785456
0.059483 0.049660 0.573000 16711422
0.059275 0.052750 0.571000 16645629
0.058964 0.055718 0.568000 16711165
0.058860 0.058860 0.567000 16711422
0.058860 0.062100 0.567000 16711422
0.058860 0.065340 0.567000 16711422
0.058445 0.068096 0.563000 16711422
0.058341 0.071187 0.562000 16711422
0.058549 0.074663 0.564000 16711422
0.058652 0.078024 0.565000 16711422
0.058652 0.081252 0.565000 16711422
0.058237 0.083883 0.561000 16711422
0.058237 0.087089 0.561000 12469910
0.058445 0.090616 0.563000 11164791
0.064169 0.035264 0.607000 16709111
0.063111 0.038094 0.597000 15258860
0.062583 0.041158 0.592000 15587304
0.062160 0.044240 0.588000 15590894
0.060574 0.046386 0.573000 15986423
0.060574 0.049660 0.573000 16711166
0.060363 0.052750 0.571000 16645630
0.060046 0.055718 0.568000 16711166
0.060046 0.058964 0.568000 16711422
0.060046 0.062210 0.568000 16711422
0.060046 0.065455 0.568000 16711422
0.059834 0.068459 0.566000 16711422
0.059623 0.071440 0.564000 16711422
0.059517 0.074530 0.563000 16711422
0.059729 0.078024 0.565000 16711422
0.059729 0.081252 0.565000 16711422
0.059729 0.084481 0.565000 16710890
0.059623 0.087554 0.564000 11862402
0.065217 0.035206 0.606000 16248053
0.064571 0.038286 0.600000 15391990
0.063818 0.041228 0.593000 15521510
0.063280 0.044240 0.588000 15786732
0.061881 0.046548 0.575000 16383230
0.061666 0.049660 0.573000 16711422
0.061450 0.052750 0.571000 16711422
0.061343 0.055914 0.570000 16711422
0.061128 0.058964 0.568000 16711422
0.061128 0.062210 0.568000 16711422
0.061128 0.065455 0.568000 16711422
0.061020 0.068580 0.567000 16711422
0.060912 0.071693 0.566000 16711422
0.060805 0.074795 0.565000 16711422
0.060805 0.078024 0.565000 16711422
0.060805 0.081252 0.565000 16711422
0.060697 0.084331 0.564000 16514773
0.060697 0.087554 0.564000 11220333
0.066371 0.035206 0.606000 15720686
0.065714 0.038286 0.600000 15525615
0.064838 0.041158 0.592000 15455975
0.064290 0.044165 0.587000 15982063
0.063086 0.046629 0.576000 16711166
0.062757 0.049660 0.573000 16711422
0.062648 0.052842 0.572000 16707808
0.062429 0.055914 0.570000 16711410
0.062319 0.059068 0.569000 16711421
0.062210 0.062210 0.568000 16711422
0.062210 0.065455 0.568000 16711422
0.062210 0.068701 0.568000 16711422
0.062100 0.071820 0.567000 16711422
0.061990 0.074928 0.566000 16711422
0.061881 0.078024 0.565000 16711422
0.061881 0.081252 0.565000 16711422
0.061881 0.084481 0.565000 16238028
0.061881 0.087710 0.565000 10573950
0.068083 0.032005 0.611000 15523310
0.067749 0.035322 0.608000 15389416
0.067303 0.038541 0.604000 15522535
0.065966 0.041158 0.592000 15390184
0.065409 0.044165 0.587000 15984114
0.064517 0.046871 0.579000 16514302
0.063960 0.049747 0.574000 15921918
0.063737 0.052842 0.572000 14206913
0.063514 0.055914 0.570000 15589350
0.063403 0.059068 0.569000 16252411
0.063403 0.062319 0.569000 16250878
0.063403 0.065570 0.569000 16711422
0.063291 0.068701 0.568000 16711422
0.063180 0.071820 0.567000 16711422
0.063180 0.075060 0.567000 16711422
0.063180 0.078300 0.567000 16711422
0.063180 0.081540 0.567000 16711422
0.063180 0.084780 0.567000 15711427
0.062957 0.087710 0.565000 10185359
0.069360 0.032057 0.612000 15464182
0.068907 0.035322 0.608000 14995686
0.068453 0.038541 0.604000 15454951
0.067093 0.041158 0.592000 15325416
0.066413 0.044090 0.586000 15919088
0.065620 0.046871 0.579000 16316924
0.065167 0.049833 0.575000 15204094
0.064827 0.052842 0.572000 11644347
0.064600 0.055914 0.570000 14395082
0.064713 0.059275 0.571000 15783388
0.064713 0.062538 0.571000 15720944
0.064600 0.065686 0.570000 16706272
0.064373 0.068701 0.568000 16711396
0.064487 0.072073 0.569000 16709866
0.064373 0.075192 0.568000 16711417
0.064260 0.078300 0.567000 16711422
0.064260 0.081540 0.567000 16711422
0.064260 0.084780 0.567000 15184826
0.070526 0.032057 0.612000 15856126
0.070065 0.035322 0.608000 15191781
0.069604 0.038541 0.604000 15520999
0.068336 0.041228 0.593000 15455720
0.067530 0.044090 0.586000 15853038
0.066723 0.046871 0.579000 16511994
0.066262 0.049833 0.575000 14608894
0.065916 0.052842 0.572000 11113909
0.065916 0.056110 0.572000 12952238
0.065916 0.059379 0.572000 14857917
0.065801 0.062538 0.571000 16179938
0.065686 0.065686 0.570000 14861761
0.065570 0.068822 0.569000 14473673
0.065570 0.072073 0.569000 15197399
0.065570 0.075325 0.569000 15790580
0.065455 0.078438 0.568000 15990526
0.065340 0.081540 0.567000 16711166
0.065340 0.084780 0.567000 12949169
0.071691 0.032057 0.612000 16252414
0.071340 0.035380 0.609000 15389670
0.070637 0.038477 0.603000 15523304
0.069583 0.041297 0.594000 15521257
0.068646 0.044090 0.586000 15853038
0.067943 0.046952 0.580000 16644347
0.067357 0.049833 0.575000 14018804
0.067123 0.052934 0.573000 10589108
0.067006 0.056110 0.572000 11446196
0.067006 0.059379 0.572000 13879498
0.067006 0.062648 0.572000 16645872
0.066889 0.065801 0.571000 12963279
0.066889 0.069064 0.571000 12301754
0.066889 0.072327 0.571000 13615280
0.066771 0.075457 0.570000 14866619
0.066654 0.078576 0.569000 15258303
0.066537 0.081684 0.568000 16710358
0.066537 0.084930 0.568000 10716590
0.072976 0.032110 0.613000 15922174
0.072500 0.035380 0.609000 15585768
0.071905 0.038541 0.604000 15588584
0.070714 0.041297 0.594000 15521003
0.069762 0.044090 0.586000 15786989
0.069048 0.046952 0.580000 16711420
0.068571 0.049920 0.576000 13880041
0.068214 0.052934 0.573000 11049907
0.068095 0.056110 0.572000 11643322
0.068214 0.059483 0.573000 14076120
0.068095 0.062648 0.572000 16711422
0.067976 0.065801 0.571000 11909084
0.067976 0.069064 0.571000 11646122
0.067976 0.072327 0.571000 11970698
0.067976 0.075590 0.571000 12365953
0.067857 0.078714 0.570000 12951167
0.067738 0.081828 0.569000 15260334
0.067738 0.085079 0.569000 10121642
0.074144 0.032110 0.613000 15661043
0.073660 0.035380 0.609000 15717602
0.072934 0.038477 0.603000 15720423
0.071967 0.041367 0.595000 15520744
0.070878 0.044090 0.586000 15721190
0.070152 0.046952 0.580000 16709619
0.069910 0.050093 0.578000 13811691
0.069548 0.053119 0.575000 11446451
0.069427 0.056307 0.574000 11908793
0.069427 0.059587 0.574000 14208473
0.069427 0.062867 0.574000 16711422
0.069306 0.066031 0.573000 10858710
0.069185 0.069185 0.572000 11055790
0.069064 0.072327 0.571000 10332060
0.069185 0.075722 0.572000 9937300
0.069064 0.078852 0.571000 10595213
0.068943 0.081971 0.570000 13815993
0.068822 0.085079 0.569000 9465235
0.075311 0.032110 0.613000 14534632
0.075066 0.035496 0.611000 15919325
0.074206 0.038541 0.604000 15586789
0.073100 0.041367 0.595000 15520741
0.071871 0.044014 0.585000 15324894
0.071503 0.047114 0.582000 16445930
0.071134 0.050180 0.579000 14012140
0.070889 0.053304 0.577000 12039348
0.070520 0.056307 0.574000 11579575
0.070643 0.059690 0.575000 14404826
0.070520 0.062867 0.574000 16514046
0.070397 0.066031 0.573000 10915793
0.070397 0.069306 0.573000 10856114
0.070274 0.072453 0.572000 10066095
0.070274 0.075722 0.572000 9936295
0.070151 0.078852 0.571000 11189659
0.070151 0.082115 0.571000 13290948
0.070274 0.085528 0.572000 9126523
0.076479 0.032110 0.613000 13342908
0.076230 0.035496 0.611000 16045779
0.075231 0.038477 0.603000 15454178
0.074233 0.041367 0.595000 15455205
0.073110 0.044090 0.586000 14931163
0.072736 0.047195 0.583000 16182242
0.072237 0.050180 0.579000 14274280
0.072112 0.053396 0.578000 12564924
0.071738 0.056405 0.575000 11318722
0.071738 0.059690 0.575000 14602202
0.071738 0.062976 0.575000 16251646
0.071613 0.066147 0.574000 10988753
0.071489 0.069306 0.573000 10659767
0.071364 0.072453 0.572000 9738413
0.071364 0.075722 0.572000 9936806
0.071239 0.078852 0.571000 11709842
0.071239 0.082115 0.571000 12769996
0.071489 0.085677 0.573000 8729963
0.077773 0.032162 0.614000 12545680
0.077520 0.035554 0.612000 15653832
0.076380 0.038477 0.603000 15520479
0.075240 0.041297 0.594000 15455462
0.074100 0.044014 0.585000 14865112
0.073847 0.047195 0.583000 16180954
0.073467 0.050267 0.580000 14340835
0.073213 0.053396 0.578000 12565956
0.072833 0.056405 0.575000 12303309
0.072833 0.059690 0.575000 15127770
0.072833 0.062976 0.575000 16120062
0.072707 0.066147 0.574000 11186641
0.072707 0.069427 0.574000 12501435
0.072707 0.072707 0.574000 10789547
0.072580 0.075854 0.573000 10397604
0.072453 0.078990 0.572000 10981770
0.072327 0.082115 0.571000 12895700
0.072453 0.085528 0.572000 8793179
0.078814 0.032110 0.613000 11665766
0.078686 0.035554 0.612000 15190201
0.077529 0.038477 0.603000 15651563
0.076371 0.041297 0.594000 15390186
0.075214 0.044014 0.585000 14865377
0.074957 0.047195 0.583000 16182753
0.074700 0.050353 0.581000 14405089
0.074443 0.053489 0.579000 12565445
0.074057 0.056503 0.576000 13354446
0.074057 0.059794 0.576000 15588318
0.074057 0.063086 0.576000 15990526
0.073929 0.066262 0.575000 11382729
0.073800 0.069427 0.574000 14343101
0.073800 0.072707 0.574000 11846572
0.073671 0.075854 0.573000 10925739
0.073543 0.078990 0.572000 10202269
0.073543 0.082259 0.572000 13034191
0.073543 0.085528 0.572000 8873583
0.080112 0.032162 0.614000 11417659
0.079851 0.035554 0.612000 14594217
0.078808 0.038541 0.604000 15918583
0.077503 0.041297 0.594000 15521263
0.076329 0.044014 0.585000 15392746
0.076068 0.047195 0.583000 16313833
0.075807 0.050353 0.581000 14471390
0.075546 0.053489 0.579000 12563910
0.075285 0.056601 0.577000 13025231
0.075285 0.059898 0.577000 16181986
0.075154 0.063086 0.576000 15988478
0.075024 0.066262 0.575000 10984130
0.075024 0.069548 0.575000 13552574
0.075024 0.072833 0.575000 12633518
0.074893 0.075987 0.574000 11911601
0.074763 0.079129 0.573000 11385776
0.074632 0.082259 0.572000 13485258
0.074632 0.085528 0.572000 11903107
0.081282 0.032162 0.614000 11094097
0.081017 0.035554 0.612000 14001310
0.079958 0.038541 0.604000 16249595
0.078237 0.041089 0.591000 15654125
0.077443 0.044014 0.585000 15919083
0.077310 0.047276 0.584000 16447210
0.077046 0.050440 0.582000 14534623
0.076781 0.053581 0.580000 12500937
0.076649 0.056797 0.579000 12697555
0.076649 0.060106 0.579000 16706024
0.076384 0.063195 0.577000 16056062
0.076251 0.066377 0.576000 10529221
0.076119 0.069548 0.575000 12826308
0.076119 0.072833 0.575000 13420211
0.076119 0.076119 0.575000 12900523
0.075854 0.079129 0.573000 12504503
0.075722 0.082259 0.572000 13940918
0.075854 0.085677 0.573000 14856594
0.082586 0.032214 0.615000 11823462
0.082183 0.035554 0.612000 13272978
0.081243 0.038605 0.605000 16051198
0.079363 0.041089 0.591000 15652075
0.078691 0.044090 0.586000 15985899
0.078423 0.047276 0.584000 16578283
0.078289 0.050527 0.583000 14866656
0.077886 0.053581 0.580000 13420748
0.077751 0.056797 0.579000 13487063
0.077751 0.060106 0.579000 16711405
0.077617 0.063305 0.578000 16186110
0.077349 0.066377 0.576000 11249864
0.077349 0.069669 0.576000 12499145
0.077349 0.072960 0.576000 12764601
0.077214 0.076119 0.575000 12962981
0.077080 0.079267 0.574000 14015678
0.076946 0.082403 0.573000 14203298
0.083893 0.032267 0.616000 12548711
0.083349 0.035554 0.612000 12490122
0.082259 0.038541 0.604000 15858425
0.080216 0.040950 0.589000 15588072
0.079944 0.044165 0.587000 16050142
0.079535 0.047276 0.584000 16710121
0.079399 0.050527 0.583000 15191003
0.079127 0.053673 0.581000 14275540
0.079127 0.056993 0.581000 14345430
0.078990 0.060210 0.580000 16706792
0.078854 0.063414 0.579000 16383739
0.078582 0.066492 0.577000 11909581
0.078582 0.069790 0.577000 12172233
0.078446 0.072960 0.576000 12104886
0.078446 0.076251 0.576000 13021085
0.078310 0.079405 0.575000 15523512
0.078446 0.082834 0.576000 14399150
0.085067 0.032267 0.616000 12217959
0.084514 0.035554 0.612000 12753027
0.083410 0.038541 0.604000 15262195
0.081338 0.040950 0.589000 15128805
0.081062 0.044165 0.587000 15854032
0.080648 0.047276 0.584000 16711400
0.080648 0.050613 0.584000 15523030
0.080371 0.053766 0.582000 14342108
0.080371 0.057091 0.582000 14474709
0.080233 0.060313 0.581000 15520739
0.080095 0.063524 0.580000 15131895
0.079819 0.066608 0.578000 12962514
0.079681 0.069790 0.577000 12040137
0.079681 0.073087 0.577000 11182003
0.079543 0.076251 0.576000 13813652
0.079543 0.079543 0.576000 15851443
0.079543 0.082834 0.576000 14069689
0.086380 0.032319 0.617000 11887453
0.085680 0.035554 0.612000 13010546
0.084700 0.038605 0.605000 14606534
0.083860 0.041645 0.599000 14600907
0.082180 0.044165 0.587000 15726012
0.081900 0.047357 0.585000 16710379
0.081760 0.050613 0.584000 15915754
0.081620 0.053858 0.583000 14345192
0.081480 0.057091 0.582000 14605537
0.081480 0.060417 0.582000 14278887
0.081200 0.063524 0.580000 13880299
0.081060 0.066723 0.579000 13946069
0.081060 0.070031 0.579000 11909320
0.081060 0.073340 0.579000 10200501
0.080780 0.076384 0.577000 14541469
0.080640 0.079543 0.576000 16178108
0.080640 0.082834 0.576000 13737884
0.087555 0.032319 0.617000 11493459
0.086988 0.035612 0.613000 11958625
0.085852 0.038605 0.605000 13811608
0.085001 0.041645 0.599000 13675186
0.083440 0.044240 0.588000 15723432
0.083156 0.047438 0.586000 16711406
0.082872 0.050613 0.584000 16315390
0.082730 0.053858 0.583000 15528947
0.082730 0.057190 0.583000 15592940
0.082589 0.060417 0.582000 15529195
0.082305 0.063524 0.580000 14866655
0.082305 0.066838 0.580000 14405336
0.082305 0.070152 0.580000 12304071
0.082163 0.073340 0.579000 10527158
0.081879 0.076384 0.577000 13026470
0.081879 0.079681 0.577000 16047557
0.081879 0.082978 0.577000 13213822
0.088730 0.032319 0.617000 11098462
0.088155 0.035612 0.613000 10909033
0.085998 0.038158 0.598000 13022851
0.085998 0.041575 0.598000 12762284
0.084704 0.044315 0.589000 15791041
0.084272 0.047438 0.586000 16707809
0.084129 0.050700 0.585000 16709097
0.083985 0.053950 0.584000 16709098
0.083841 0.057190 0.583000 16580335
0.083841 0.060521 0.583000 16709873
0.083697 0.063743 0.582000 15922415
0.083697 0.067069 0.582000 14803947
0.083553 0.070273 0.581000 12699859
0.083410 0.073467 0.580000 10857396
0.083266 0.076649 0.579000 11577240
0.082978 0.079681 0.577000 15843499
0.090926 0.029120 0.624000 14669554
0.089906 0.032319 0.617000 11165289
0.089469 0.035670 0.614000 11040625
0.087574 0.038350 0.601000 12228718
0.086991 0.041506 0.597000 13285542
0.085826 0.044315 0.589000 15525082
0.085389 0.047438 0.586000 15060181
0.085389 0.050787 0.586000 15192275
0.085243 0.054043 0.585000 15197410
0.085097 0.057288 0.584000 15721969
0.085097 0.060625 0.584000 16383224
0.084951 0.063852 0.583000 16316670
0.084951 0.067184 0.583000 15793918
0.084806 0.070394 0.582000 14411231
0.084806 0.073720 0.582000 11116467
0.084369 0.076649 0.579000 11180170
0.084369 0.079957 0.579000 14202513
0.092114 0.029120 0.624000 15784180
0.091229 0.032371 0.618000 11297900
0.090638 0.035670 0.614000 11173488
0.088719 0.038350 0.601000 11508354
0.088424 0.041645 0.599000 13813169
0.087538 0.044616 0.593000 15326155
0.086652 0.047519 0.587000 13350085
0.086652 0.050873 0.587000 13743056
0.086505 0.054135 0.586000 13608127
0.086210 0.057288 0.584000 14859742
0.086210 0.060625 0.584000 15977168
0.086062 0.063852 0.583000 16707542
0.086062 0.067184 0.583000 16708067
0.086062 0.070515 0.583000 16121058
0.085914 0.073720 0.582000 11387344
0.085471 0.076649 0.579000 10850237
0.085324 0.079819 0.578000 12561051
0.093303 0.029120 0.624000 15724534
0.092406 0.032371 0.618000 11363183
0.091658 0.035612 0.613000 12232304
0.089714 0.038286 0.600000 12229013
0.089415 0.041575 0.598000 14078397
0.088668 0.044616 0.593000 14204859
0.087770 0.047519 0.587000 13413301
0.087770 0.050873 0.587000 12821452
0.087621 0.054135 0.586000 12352157
0.087322 0.057288 0.584000 13872074
0.087322 0.060625 0.584000 13798825
0.087172 0.063852 0.583000 14269102
0.087172 0.067184 0.583000 13945031
0.087322 0.070636 0.584000 14601957
0.087023 0.073720 0.582000 12837870
0.086724 0.076781 0.580000 12370415
0.086425 0.079819 0.578000 11508389
0.094946 0.025677 0.627000 15728379
0.094491 0.029120 0.624000 15655926
0.093431 0.032319 0.617000 11428739
0.092977 0.035670 0.614000 13206384
0.090706 0.038222 0.599000 12948894
0.090403 0.041506 0.597000 14271686
0.089646 0.044541 0.592000 13154236
0.089191 0.047681 0.589000 13478323
0.089040 0.050960 0.588000 11966385
0.088889 0.054228 0.587000 11111845
0.088586 0.057386 0.585000 12956861
0.088586 0.060729 0.585000 11573680
0.088283 0.063852 0.583000 11837366
0.088434 0.067299 0.584000 11181504
0.088283 0.070515 0.583000 13073594
0.088283 0.073847 0.583000 14262443
0.087980 0.076913 0.581000 13876866
0.087677 0.079957 0.579000 10391435
0.096140 0.025677 0.627000 15856638
0.095833 0.029167 0.625000 15656439
0.094607 0.032319 0.617000 12550295
0.094147 0.035670 0.614000 11892849
0.091847 0.038222 0.599000 13278631
0.091233 0.041367 0.595000 13547726
0.090773 0.044541 0.592000 12954812
0.090313 0.047681 0.589000 13149874
0.090313 0.051047 0.589000 11373205
0.090007 0.054228 0.587000 11377070
0.089853 0.057484 0.586000 12691376
0.089853 0.060832 0.586000 11968696
0.089547 0.063962 0.584000 12231614
0.089547 0.067299 0.584000 11838394
0.089547 0.070636 0.584000 11763342
0.089547 0.073973 0.584000 11088232
0.089393 0.077178 0.583000 12290581
0.088780 0.079957 0.579000 10848881
0.097490 0.025718 0.628000 16053233
0.097024 0.029167 0.625000 15658745
0.095937 0.032371 0.618000 13662394
0.095316 0.035670 0.614000 10579304
0.093143 0.038286 0.600000 13604505
0.092367 0.041367 0.595000 12824262
0.091901 0.044541 0.592000 12758203
0.091590 0.047762 0.590000 12821939
0.091435 0.051047 0.589000 10847384
0.091280 0.054320 0.588000 11636388
0.091280 0.057680 0.588000 12490915
0.091125 0.060936 0.587000 12296623
0.090814 0.064071 0.585000 12559794
0.090814 0.067414 0.585000 12494259
0.090659 0.070636 0.584000 10523283
0.090504 0.073847 0.583000 7952250
0.090349 0.077046 0.582000 10794078
0.090504 0.080510 0.583000 11305340
0.098686 0.025718 0.628000 15852772
0.098057 0.029120 0.624000 16185084
0.097114 0.032371 0.618000 13932509
0.096643 0.035729 0.615000 9849952
0.094286 0.038286 0.600000 13209739
0.093814 0.041506 0.597000 12751550
0.093186 0.044616 0.593000 12690874
0.092871 0.047843 0.591000 12756660
0.092714 0.051133 0.590000 10717082
0.092557 0.054412 0.589000 11042458
0.092557 0.057778 0.589000 11702933
0.092400 0.061040 0.588000 12162726
0.092243 0.064290 0.587000 12097958
0.092086 0.067530 0.586000 11639981
0.091771 0.070636 0.584000 9930135
0.091771 0.073973 0.584000 8214669
0.091614 0.077178 0.583000 12237478
0.091300 0.080233 0.581000 10840455
0.100041 0.022165 0.629000 14666709
0.099882 0.025718 0.628000 15651301
0.099405 0.029167 0.625000 16708856
0.098291 0.032371 0.618000 14263270
0.097655 0.035670 0.614000 9065051
0.095429 0.038286 0.600000 12813440
0.095110 0.041575 0.598000 12625854
0.094474 0.044691 0.594000 12624826
0.093997 0.047843 0.591000 12691127
0.093997 0.051220 0.591000 10651294
0.093838 0.054505 0.590000 10454172
0.093679 0.057778 0.589000 10915220
0.093520 0.061040 0.588000 12030368
0.093361 0.064290 0.587000 11638432
0.093361 0.067645 0.587000 10719136
0.093043 0.070757 0.585000 9336727
0.093043 0.074100 0.585000 8420495
0.093043 0.077443 0.585000 13752005
0.092407 0.080233 0.581000 10384525
0.101722 0.022270 0.632000 15193048
0.101239 0.025759 0.629000 15520229
0.100434 0.029120 0.624000 16051189
0.099308 0.032319 0.617000 14268654
0.098986 0.035729 0.615000 8866391
0.096732 0.038350 0.601000 12549492
0.096250 0.041575 0.598000 12888766
0.095606 0.044691 0.594000 12558777
0.095284 0.047924 0.592000 12955067
0.095123 0.051220 0.591000 10717345
0.094962 0.054505 0.590000 10651550
0.094962 0.057876 0.590000 10715538
0.094640 0.061040 0.588000 11503258
0.094640 0.064400 0.588000 11441050
0.094479 0.067645 0.587000 10715028
0.094318 0.070878 0.586000 9335959
0.094318 0.074227 0.586000 10456210
0.094479 0.077708 0.587000 14142436
0.094479 0.081062 0.587000 10451858
0.102926 0.022270 0.632000 15719130
0.102437 0.025759 0.629000 15454693
0.101786 0.029167 0.625000 15393008
0.100483 0.032319 0.617000 14278902
0.099994 0.035670 0.614000 8666461
0.097877 0.038350 0.601000 12224385
0.097389 0.041575 0.598000 13087685
0.096900 0.044767 0.595000 12491433
0.096574 0.048005 0.593000 13216175
0.096411 0.051307 0.592000 10848421
0.096411 0.054690 0.592000 10849447
0.096086 0.057876 0.590000 10518174
0.096086 0.061248 0.590000 10979484
0.095923 0.064510 0.589000 11308700
0.095597 0.067645 0.587000 10650778
0.095434 0.070878 0.586000 9336466
0.095434 0.074227 0.586000 12429988
0.095597 0.077708 0.587000 14538460
0.095597 0.081062 0.587000 10519187
0.104130 0.022270 0.632000 15853532
0.103635 0.025759 0.629000 15389156
0.102811 0.029120 0.624000 15458795
0.101658 0.032319 0.617000 14605822
0.101164 0.035670 0.614000 9455460
0.099187 0.038413 0.602000 13740174
0.098528 0.041575 0.598000 13413324
0.098033 0.044767 0.595000 11767192
0.097869 0.048086 0.594000 12230563
0.097704 0.051393 0.593000 10980777
0.097539 0.054690 0.592000 11048113
0.097374 0.057974 0.591000 10849194
0.097210 0.061248 0.590000 11046046
0.097045 0.064510 0.589000 11176349
0.097045 0.067875 0.589000 10585504
0.096715 0.070999 0.587000 9795212
0.096715 0.074353 0.587000 13746102
0.096715 0.077708 0.587000 13550291
0.096715 0.081062 0.587000 10251924
0.105333 0.022270 0.632000 15983330
0.105167 0.025841 0.631000 15323360
0.104000 0.029120 0.624000 15456234
0.103000 0.032371 0.618000 15006974
0.102167 0.035612 0.613000 10243717
0.100500 0.038477 0.603000 15328701
0.099833 0.041645 0.599000 13685474
0.099333 0.044842 0.596000 11112119
0.099000 0.048086 0.594000 11178149
0.098833 0.051393 0.593000 11112360
0.098833 0.054782 0.593000 11179180
0.098500 0.057974 0.591000 11178410
0.098333 0.061248 0.590000 11111585
0.098333 0.064619 0.590000 10979486
0.098333 0.067990 0.590000 10522015
0.098167 0.071241 0.589000 10187920
0.098000 0.074480 0.588000 15061690
0.098333 0.078105 0.590000 12630188
0.106369 0.025841 0.631000 15389147
0.105020 0.029073 0.623000 15187688
0.104177 0.032371 0.618000 15593726
0.103503 0.035670 0.614000 10043814
0.101649 0.038477 0.603000 15259628
0.100974 0.041645 0.599000 15204088
0.100469 0.044842 0.596000 11773141
0.100300 0.048167 0.595000 11175847
0.100131 0.051480 0.594000 11045799
0.100131 0.054874 0.594000 11244456
0.099626 0.057974 0.591000 11572393
0.099626 0.061351 0.591000 11242148
0.099626 0.064729 0.591000 10848926
0.099626 0.068106 0.591000 11575199
0.099457 0.071362 0.590000 10715283
0.099289 0.074607 0.589000 15590846
0.099457 0.078105 0.590000 11570309
0.099794 0.081752 0.592000 11434623
0.108934 0.022517 0.639000 16311007
0.107059 0.025718 0.628000 15518685
0.106207 0.029073 0.623000 14930919
0.105354 0.032371 0.618000 16186878
0.104331 0.035554 0.612000 9850786
0.102968 0.038541 0.604000 15190993
0.102115 0.041645 0.599000 16695246
0.101774 0.044917 0.597000 12427453
0.101433 0.048167 0.595000 11111847
0.101263 0.051480 0.594000 10980004
0.101263 0.054874 0.594000 11309221
0.101092 0.058170 0.593000 11966889
0.100751 0.061351 0.591000 11310245
0.100751 0.064729 0.591000 10718881
0.100751 0.068106 0.591000 12557474
0.100581 0.071362 0.590000 11237262
0.100581 0.074733 0.590000 16112840
0.100581 0.078105 0.590000 10506377
0.100922 0.081752 0.592000 12812942
0.110151 0.022517 0.639000 15981525
0.108255 0.025718 0.628000 15453663
0.107566 0.029120 0.624000 15192551
0.106531 0.032371 0.618000 16185342
0.104808 0.035322 0.608000 9114783
0.104290 0.038605 0.605000 13146549
0.103256 0.041645 0.599000 12865701
0.102911 0.044917 0.597000 11835044
0.102739 0.048248 0.596000 11507367
0.102567 0.051567 0.595000 10717345
0.102567 0.054967 0.595000 11111075
0.102394 0.058269 0.594000 11637929
0.102050 0.061455 0.592000 11312806
0.101877 0.064729 0.591000 10981027
0.101877 0.068106 0.591000 11966373
0.101877 0.071483 0.591000 11769481
0.102222 0.075113 0.593000 15981523
0.101877 0.078237 0.591000 11566477
0.111194 0.022482 0.638000 15647188
0.109451 0.025718 0.628000 15389160
0.108580 0.029073 0.623000 15388390
0.107709 0.032371 0.618000 16186872
0.106140 0.035380 0.609000 8414905
0.105443 0.038605 0.605000 11057105
0.104397 0.041645 0.599000 9075383
0.104049 0.044917 0.597000 11243175
0.103874 0.048248 0.596000 11899557
0.103874 0.051653 0.596000 10519970
0.103874 0.055059 0.596000 10914722
0.103700 0.058367 0.595000 11309222
0.103351 0.061559 0.593000 11310243
0.103177 0.064838 0.592000 11243692
0.103526 0.068451 0.594000 11308705
0.103526 0.071846 0.594000 12369546
0.103526 0.075240 0.594000 15849681
0.103526 0.078634 0.594000 12681857
0.112410 0.022482 0.638000 14716883
0.110824 0.025759 0.629000 15654897
0.109943 0.029120 0.624000 15455461
0.108886 0.032371 0.618000 16051442
0.107300 0.035380 0.609000 10253523
0.106595 0.038605 0.605000 13420269
0.105714 0.041714 0.600000 12433865
0.105362 0.044992 0.598000 11178410
0.105186 0.048329 0.597000 11439779
0.105010 0.051653 0.596000 10257059
0.105010 0.055059 0.596000 10849697
0.104833 0.058367 0.595000 11046051
0.104657 0.061663 0.594000 11240864
0.104833 0.065167 0.595000 11310517
0.104657 0.068451 0.594000 11309725
0.104657 0.071846 0.594000 13354635
0.104657 0.075240 0.594000 15322831
0.104657 0.078634 0.594000 13076597
0.113625 0.022482 0.638000 13806545
0.112378 0.025841 0.631000 15917814
0.111131 0.029120 0.624000 15521511
0.110241 0.032424 0.619000 15919086
0.108282 0.035322 0.608000 12106205
0.107748 0.038605 0.605000 15859190
0.107035 0.041784 0.601000 15718107
0.106679 0.045068 0.599000 11176619
0.106323 0.048329 0.597000 10913698
0.106323 0.051740 0.597000 9993633
0.106323 0.055151 0.597000 10783130
0.106323 0.058563 0.597000 10849440
0.105967 0.061767 0.595000 11176865
0.106145 0.065276 0.596000 11442348
0.105967 0.068567 0.595000 11245217
0.105967 0.071967 0.595000 14407315
0.105967 0.075367 0.595000 14796755
0.105789 0.078634 0.594000 13537186
0.114840 0.022482 0.638000 13998543
0.113580 0.025841 0.631000 15655163
0.112500 0.029167 0.625000 15521513
0.111240 0.032371 0.618000 15852009
0.109440 0.035322 0.608000 13880551
0.108900 0.038605 0.605000 16252158
0.108180 0.041784 0.601000 15654126
0.108000 0.045143 0.600000 11244715
0.107820 0.048490 0.599000 10911905
0.107640 0.051827 0.598000 10257567
0.107640 0.055244 0.598000 10781331
0.107640 0.058661 0.598000 10849693
0.107460 0.061974 0.597000 11178147
0.107280 0.065276 0.596000 11179426
0.107280 0.068682 0.596000 11179173
0.107280 0.072088 0.596000 14405274
0.107100 0.075367 0.595000 14993623
0.106920 0.078634 0.594000 14597838
0.116055 0.022482 0.638000 14140105
0.114782 0.025841 0.631000 15462394
0.113690 0.029167 0.625000 15456234
0.112417 0.032371 0.618000 15783913
0.110780 0.035380 0.609000 15658737
0.110052 0.038605 0.605000 16711422
0.109507 0.041853 0.602000 15524084
0.109325 0.045218 0.601000 11377845
0.109143 0.048571 0.600000 10918834
0.108961 0.051913 0.599000 10588582
0.108961 0.055336 0.599000 10715550
0.108961 0.058759 0.599000 10849952
0.108779 0.062078 0.598000 11112869
0.108597 0.065386 0.597000 10983073
0.108597 0.068797 0.597000 11110554
0.108415 0.072088 0.596000 14406318
0.108415 0.075493 0.596000 15126206
