# .PCD v.7 - Point Cloud Data file format
VERSION .7
FIELDS x y z rgb
SIZE 4 4 4 4
TYPE F F F I
COUNT 1 1 1 1
WIDTH 1307
HEIGHT 1
POINTS 1307
DATA ascii
-0.070754 0.155890 0.604000 11516550
-0.070871 0.159605 0.605000 11369111
-0.070989 0.163331 0.606000 12555965
-0.071678 0.103667 0.622000 16118258
-0.071448 0.106876 0.620000 15655157
-0.071102 0.109885 0.617000 15985133
-0.070871 0.113043 0.615000 15718634
-0.070065 0.115230 0.608000 15325172
-0.069834 0.118314 0.606000 16643064
-0.069604 0.121375 0.604000 16112880
-0.069258 0.124207 0.601000 16111084
-0.069143 0.127429 0.600000 4803190
-0.069028 0.130639 0.599000 8223619
-0.069143 0.134286 0.600000 11246767
-0.069143 0.137714 0.600000 15788024
-0.069373 0.141613 0.602000 9592750
-0.069489 0.145294 0.603000 8750991
-0.069489 0.148740 0.603000 8093572
-0.069604 0.152438 0.604000 6454881
-0.069719 0.156148 0.605000 11253129
-0.069834 0.159869 0.606000 10782106
-0.069834 0.163331 0.606000 12622523
-0.070493 0.103667 0.622000 15457777
-0.070267 0.106876 0.620000 15854072
-0.069927 0.109885 0.617000 15717599
-0.069700 0.113043 0.615000 15189740
-0.069020 0.115420 0.609000 15392758
-0.068680 0.118314 0.606000 16710137
-0.068340 0.121174 0.603000 16116719
-0.068113 0.124207 0.601000 15327718
-0.068000 0.127429 0.600000 6515328
-0.067887 0.130639 0.599000 8686483
-0.068000 0.134286 0.600000 11379639
-0.068000 0.137714 0.600000 15457778
-0.068340 0.141849 0.603000 9799325
-0.068340 0.145294 0.603000 8553101
-0.068340 0.148740 0.603000 7897730
-0.068453 0.152438 0.604000 6778705
-0.068567 0.156148 0.605000 11052172
-0.068680 0.159869 0.606000 11109532
-0.068680 0.163331 0.606000 12885688
-0.069309 0.103667 0.622000 14860017
-0.069086 0.106876 0.620000 16046057
-0.068751 0.109885 0.617000 15392479
-0.068529 0.113043 0.615000 14603762
-0.067860 0.115420 0.609000 15523571
-0.067526 0.118314 0.606000 16709879
-0.067191 0.121174 0.603000 16183019
-0.066969 0.124207 0.601000 14536929
-0.066857 0.127429 0.600000 8160642
-0.066746 0.130639 0.599000 9145483
-0.066857 0.134286 0.600000 11578550
-0.066857 0.137714 0.600000 15130354
-0.067191 0.141849 0.603000 9932439
-0.067191 0.145294 0.603000 8363404
-0.067191 0.148740 0.603000 7705217
-0.067303 0.152438 0.604000 7048033
-0.067414 0.156148 0.605000 10796197
-0.067526 0.159869 0.606000 11438495
-0.067526 0.163331 0.606000 13148599
-0.068124 0.103667 0.622000 15059952
-0.067905 0.106876 0.620000 15774939
-0.067576 0.109885 0.617000 15127007
-0.067248 0.112859 0.614000 15201528
-0.066700 0.115420 0.609000 15784687
-0.066371 0.118314 0.606000 16710388
-0.066043 0.121174 0.603000 15788263
-0.065824 0.124207 0.601000 14342364
-0.065714 0.127429 0.600000 8554884
-0.065714 0.130857 0.600000 9343364
-0.065714 0.134286 0.600000 11709108
-0.065824 0.137944 0.601000 15261938
-0.066043 0.141849 0.603000 10395281
-0.066043 0.145294 0.603000 10408332
-0.066043 0.148740 0.603000 9217663
-0.066152 0.152438 0.604000 8103538
-0.066262 0.156148 0.605000 11450046
-0.066481 0.160132 0.607000 11306145
-0.066939 0.103667 0.622000 15330523
-0.066616 0.106704 0.619000 15520232
-0.066401 0.109885 0.617000 14933998
-0.066078 0.112859 0.614000 15718118
-0.065540 0.115420 0.609000 16115941
-0.065325 0.118510 0.607000 16709108
-0.065002 0.121375 0.604000 15459027
-0.064679 0.124207 0.601000 14143184
-0.064571 0.127429 0.600000 8882308
-0.064571 0.130857 0.600000 9542294
-0.064679 0.134510 0.601000 11909057
-0.064679 0.137944 0.601000 15393778
-0.064894 0.141849 0.603000 10846345
-0.065002 0.145535 0.604000 12437914
-0.065002 0.148987 0.604000 10726529
-0.065110 0.152690 0.605000 9153152
-0.065110 0.156148 0.605000 12111289
-0.065325 0.160132 0.607000 11176355
-0.065860 0.103833 0.623000 14795461
-0.065437 0.106704 0.619000 15722742
-0.065226 0.109885 0.617000 15525116
-0.064909 0.112859 0.614000 15512020
-0.064274 0.115230 0.608000 15319515
-0.064063 0.118314 0.606000 15855603
-0.063851 0.121375 0.604000 14866110
-0.063534 0.124207 0.601000 13948612
-0.063429 0.127429 0.600000 9080708
-0.063429 0.130857 0.600000 10726313
-0.063534 0.134510 0.601000 12631757
-0.063640 0.138173 0.602000 15656179
-0.063746 0.141849 0.603000 9798273
-0.063746 0.145294 0.603000 11712169
-0.063957 0.149233 0.605000 11647107
-0.064063 0.152943 0.606000 10989967
-0.064063 0.156406 0.606000 12564147
-0.064169 0.160132 0.607000 11438757
-0.064777 0.100434 0.624000 16510966
-0.064673 0.103833 0.623000 14271713
-0.064258 0.106704 0.619000 15851253
-0.063947 0.109707 0.616000 16184302
-0.063739 0.112859 0.614000 15324386
-0.063220 0.115420 0.609000 14530541
-0.063012 0.118510 0.607000 14995691
-0.062597 0.121174 0.603000 14274985
-0.062390 0.124207 0.601000 13748676
-0.062286 0.127429 0.600000 9211791
-0.062390 0.131075 0.601000 11903650
-0.062493 0.134733 0.602000 13355466
-0.062493 0.138173 0.602000 15853300
-0.062597 0.141849 0.603000 8814481
-0.062701 0.145535 0.604000 10986666
-0.062805 0.149233 0.605000 12568970
-0.062909 0.152943 0.606000 12830350
-0.063012 0.156664 0.607000 13021873
-0.063116 0.160396 0.608000 11702947
-0.063589 0.100434 0.624000 16578814
-0.063589 0.104000 0.624000 15130364
-0.062977 0.106531 0.618000 15850741
-0.062773 0.109707 0.616000 15716064
-0.062570 0.112859 0.614000 15196401
-0.062060 0.115420 0.609000 15326462
-0.061856 0.118510 0.607000 15055331
-0.061449 0.121174 0.603000 14274196
-0.061245 0.124207 0.601000 13487301
-0.061143 0.127429 0.600000 9079962
-0.061245 0.131075 0.601000 10787739
-0.061347 0.134733 0.602000 13552070
-0.061347 0.138173 0.602000 16249334
-0.061449 0.141849 0.603000 9145761
-0.061550 0.145535 0.604000 10721962
-0.061652 0.149233 0.605000 9605520
-0.061856 0.153195 0.607000 12435853
-0.061856 0.156664 0.607000 12954286
-0.061958 0.160396 0.608000 11835554
-0.062400 0.100434 0.624000 16644606
-0.062400 0.104000 0.624000 16044780
-0.061800 0.106531 0.618000 15784682
-0.061600 0.109707 0.616000 15193068
-0.061500 0.113043 0.615000 15062261
-0.060800 0.115230 0.608000 16112877
-0.060700 0.118510 0.607000 15062749
-0.060300 0.121174 0.603000 14272919
-0.060200 0.124413 0.602000 13224395
-0.060100 0.127641 0.601000 9015449
-0.060200 0.131293 0.602000 9674148
-0.060300 0.134957 0.603000 13819095
-0.060300 0.138403 0.603000 16575992
-0.060400 0.142084 0.604000 9537964
-0.060400 0.145535 0.604000 10394285
-0.060600 0.149480 0.606000 6714504
-0.060700 0.153195 0.607000 11974040
-0.060700 0.156664 0.607000 12890545
-0.061310 0.100595 0.625000 16316157
-0.061211 0.104000 0.624000 15716059
-0.060623 0.106531 0.618000 15380192
-0.060427 0.109707 0.616000 15458552
-0.060230 0.112859 0.614000 15593976
-0.059642 0.115230 0.608000 15648219
-0.059446 0.118314 0.606000 15193303
-0.059250 0.121375 0.604000 14340249
-0.059053 0.124413 0.602000 13358290
-0.059053 0.127853 0.602000 9936792
-0.059053 0.131293 0.602000 10724781
-0.059151 0.134957 0.603000 14212072
-0.059151 0.138403 0.603000 16645627
-0.059250 0.142084 0.604000 10263990
-0.059348 0.145776 0.605000 10330288
-0.059446 0.149480 0.606000 8490368
-0.059544 0.153195 0.607000 13549986
-0.059544 0.156664 0.607000 12689332
-0.060119 0.100595 0.625000 15985653
-0.060023 0.104000 0.624000 15393762
-0.059446 0.106531 0.618000 14931435
-0.059253 0.109707 0.616000 15647733
-0.059157 0.113043 0.615000 16111077
-0.058484 0.115230 0.608000 15197160
-0.058291 0.118314 0.606000 15260642
-0.058099 0.121375 0.604000 14405267
-0.057907 0.124413 0.602000 13422544
-0.057907 0.127853 0.602000 10924202
-0.058003 0.131511 0.603000 11777203
-0.058003 0.134957 0.603000 14672849
-0.058003 0.138403 0.603000 16701929
-0.058099 0.142084 0.604000 10991798
-0.058195 0.145776 0.605000 10265522
-0.058291 0.149480 0.606000 10194571
-0.058388 0.153195 0.607000 15123362
-0.058484 0.156922 0.608000 12423598
-0.058929 0.100595 0.625000 15914477
-0.058834 0.104000 0.624000 14926313
-0.058269 0.106531 0.618000 15529718
-0.058080 0.109707 0.616000 15584753
-0.057891 0.112859 0.614000 15311570
-0.057326 0.115230 0.608000 15590388
-0.057137 0.118314 0.606000 15460589
-0.056854 0.121174 0.603000 14406285
-0.056760 0.124413 0.602000 13289679
-0.056760 0.127853 0.602000 11384508
-0.056854 0.131511 0.603000 12172730
-0.056854 0.134957 0.603000 12960186
-0.056949 0.138632 0.604000 13543383
-0.056949 0.142084 0.604000 11187637
-0.057043 0.145776 0.605000 10988468
-0.057137 0.149480 0.606000 9540758
-0.057231 0.153195 0.607000 13216929
-0.057326 0.156922 0.608000 12424615
-0.057646 0.100434 0.624000 15783914
-0.057646 0.104000 0.624000 14464754
-0.057184 0.106704 0.619000 16046320
-0.056907 0.109707 0.616000 15590375
-0.056722 0.112859 0.614000 14471909
-0.056168 0.115230 0.608000 15981816
-0.055983 0.118314 0.606000 15592683
-0.055706 0.121174 0.603000 14405001
-0.055613 0.124413 0.602000 13093581
-0.055613 0.127853 0.602000 11844280
-0.055706 0.131511 0.603000 12501688
-0.055706 0.134957 0.603000 11256522
-0.055798 0.138632 0.604000 10398932
-0.055890 0.142319 0.605000 11384247
-0.055983 0.146017 0.606000 11711410
-0.055983 0.149480 0.606000 8883088
-0.056075 0.153195 0.607000 11314068
-0.056168 0.156922 0.608000 12424361
-0.056548 0.100595 0.625000 15057383
-0.056367 0.103833 0.623000 15062779
-0.056005 0.106704 0.619000 16044010
-0.055733 0.109707 0.616000 15388380
-0.055462 0.112675 0.613000 14868472
-0.054919 0.115041 0.607000 15986427
-0.054829 0.118314 0.606000 15525865
-0.054648 0.121375 0.604000 14602884
-0.054467 0.124413 0.602000 13091531
-0.054467 0.127853 0.602000 12172724
-0.054557 0.131511 0.603000 12436663
-0.054557 0.134957 0.603000 12766938
-0.054648 0.138632 0.604000 12106705
-0.054738 0.142319 0.605000 11843000
-0.054829 0.146017 0.606000 11646896
-0.054829 0.149480 0.606000 8286858
-0.054919 0.153195 0.607000 11509639
-0.055010 0.156922 0.608000 12949930
-0.055357 0.100595 0.625000 14339054
-0.055180 0.103833 0.623000 15720685
-0.054737 0.106531 0.618000 15980264
-0.054560 0.109707 0.616000 15189992
-0.054294 0.112675 0.613000 15194100
-0.053763 0.115041 0.607000 15922156
-0.053586 0.118119 0.605000 15459544
-0.053409 0.121174 0.603000 14797968
-0.053320 0.124413 0.602000 13097434
-0.053409 0.128066 0.603000 12567755
-0.053409 0.131511 0.603000 12373198
-0.053497 0.135181 0.604000 14345447
-0.053497 0.138632 0.604000 13818598
-0.053674 0.142554 0.606000 12240088
-0.053674 0.146017 0.606000 11584452
-0.053674 0.149480 0.606000 7696022
-0.053763 0.153195 0.607000 11640223
-0.053851 0.156922 0.608000 13539754
-0.054167 0.100595 0.625000 15397110
-0.053993 0.103833 0.623000 15714783
-0.053560 0.106531 0.618000 15186150
-0.053387 0.109707 0.616000 15126772
-0.053127 0.112675 0.613000 15718128
-0.052693 0.115230 0.608000 15720156
-0.052520 0.118314 0.606000 14603719
-0.052260 0.121174 0.603000 14865051
-0.052173 0.124413 0.602000 14675177
-0.052260 0.128066 0.603000 14278882
-0.052347 0.131730 0.604000 14148837
-0.052347 0.135181 0.604000 15331060
-0.052433 0.138862 0.605000 15269628
-0.052520 0.142554 0.606000 14478840
-0.052520 0.146017 0.606000 14150872
-0.052607 0.149727 0.607000 11052962
-0.052607 0.153195 0.607000 12824247
-0.052607 0.156664 0.607000 13542057
-0.052976 0.100595 0.625000 16443633
-0.052722 0.103667 0.622000 15656431
-0.052383 0.106531 0.618000 14339568
-0.052213 0.109707 0.616000 15059951
-0.051959 0.112675 0.613000 16243429
-0.051535 0.115230 0.608000 15593954
-0.051366 0.118314 0.606000 13750961
-0.051196 0.121375 0.604000 14997931
-0.051111 0.124620 0.603000 16180443
-0.051111 0.128066 0.603000 16052180
-0.051196 0.131730 0.604000 15850967
-0.051196 0.135181 0.604000 16316887
-0.051281 0.138862 0.605000 16706524
-0.051366 0.142554 0.606000 16711123
-0.051366 0.146017 0.606000 16704959
-0.051366 0.149480 0.606000 14474152
-0.051450 0.153195 0.607000 14005683
-0.051450 0.156664 0.607000 13608360
-0.051869 0.097179 0.626000 16186110
-0.051786 0.100595 0.625000 15323885
-0.051537 0.103667 0.622000 15986942
-0.051123 0.106359 0.617000 15527419
-0.051040 0.109707 0.616000 15519722
-0.050709 0.112491 0.612000 15644891
-0.050377 0.115230 0.608000 14536936
-0.050211 0.118314 0.606000 13814428
-0.050046 0.121375 0.604000 14209467
-0.049880 0.124413 0.602000 13548237
-0.049963 0.128066 0.603000 13415878
-0.050046 0.131730 0.604000 13087178
-0.050046 0.135181 0.604000 11966906
-0.050211 0.139091 0.606000 12694461
-0.050294 0.142790 0.607000 12230574
-0.050211 0.146017 0.606000 12172199
-0.050294 0.149727 0.607000 10129070
-0.050294 0.153195 0.607000 13545136
-0.050294 0.156664 0.607000 13476262
-0.050676 0.097179 0.626000 15597054
-0.050595 0.100595 0.625000 14136514
-0.050352 0.103667 0.622000 16248056
-0.049948 0.106359 0.617000 16709114
-0.049867 0.109707 0.616000 15989748
-0.049624 0.112675 0.613000 15061479
-0.049219 0.115230 0.608000 13477818
-0.049057 0.118314 0.606000 13814175
-0.048895 0.121375 0.604000 13420208
-0.048814 0.124620 0.603000 10914729
-0.048814 0.128066 0.603000 10778020
-0.048895 0.131730 0.604000 10321845
-0.048895 0.135181 0.604000 7676562
-0.049057 0.139091 0.606000 8680612
-0.049138 0.142790 0.607000 7738780
-0.049138 0.146258 0.607000 7618952
-0.049138 0.149727 0.607000 5833077
-0.049138 0.153195 0.607000 13013157
-0.049138 0.156664 0.607000 13409189
-0.049563 0.097334 0.627000 15000062
-0.049405 0.100595 0.625000 12419991
-0.049168 0.103667 0.622000 15456497
-0.048772 0.106359 0.617000 16381178
-0.048693 0.109707 0.616000 16120574
-0.048456 0.112675 0.613000 15660787
-0.048061 0.115230 0.608000 13479819
-0.047903 0.118314 0.606000 13880227
-0.047745 0.121375 0.604000 12294820
-0.047666 0.124620 0.603000 10978182
-0.047666 0.128066 0.603000 9660801
-0.047745 0.131730 0.604000 10717344
-0.047824 0.135405 0.605000 8278889
-0.047903 0.139091 0.606000 9272715
-0.047982 0.142790 0.607000 8542857
-0.047982 0.146258 0.607000 7291497
-0.047982 0.149727 0.607000 7025468
-0.047982 0.153195 0.607000 12881051
-0.047982 0.156664 0.607000 13407395
-0.048291 0.097179 0.626000 14413037
-0.048214 0.100595 0.625000 10646677
-0.047983 0.103667 0.622000 14733495
-0.047597 0.106359 0.617000 16050412
-0.047520 0.109707 0.616000 16186621
-0.047289 0.112675 0.613000 16181224
-0.046903 0.115230 0.608000 13482135
-0.046671 0.118119 0.605000 13873571
-0.046594 0.121375 0.604000 11241105
-0.046517 0.124620 0.603000 10977674
-0.046517 0.128066 0.603000 8544393
-0.046594 0.131730 0.604000 11109275
-0.046671 0.135405 0.605000 8873338
-0.046749 0.139091 0.606000 9863055
-0.046826 0.142790 0.607000 9405327
-0.046903 0.146499 0.608000 6968937
-0.046903 0.149973 0.608000 8212300
-0.046903 0.153448 0.608000 12684951
-0.046903 0.156922 0.608000 13342381
-0.047099 0.097179 0.626000 13612763
-0.047024 0.100595 0.625000 12027027
-0.046798 0.103667 0.622000 13146748
-0.046422 0.106359 0.617000 14538975
-0.046347 0.109707 0.616000 15789563
-0.046121 0.112675 0.613000 15525085
-0.045745 0.115230 0.608000 13747106
-0.045594 0.118314 0.606000 12160418
-0.045444 0.121375 0.604000 10386558
-0.045444 0.124827 0.604000 9532558
-0.045444 0.128278 0.604000 8875921
-0.045444 0.131730 0.604000 10320790
-0.045594 0.135629 0.606000 9139594
-0.045670 0.139321 0.607000 9797267
-0.045670 0.142790 0.607000 9273493
-0.045745 0.146499 0.608000 6178409
-0.045745 0.149973 0.608000 9137756
-0.045820 0.153700 0.609000 12615571
-0.045907 0.097179 0.626000 12875441
-0.045833 0.100595 0.625000 13404562
-0.045467 0.103333 0.620000 11561608
-0.045247 0.106359 0.617000 12950184
-0.045173 0.109707 0.616000 15394279
-0.044953 0.112675 0.613000 14865096
-0.044587 0.115230 0.608000 13948866
-0.044367 0.118119 0.605000 10387610
-0.044293 0.121375 0.604000 9531520
-0.044293 0.124827 0.604000 8022907
-0.044293 0.128278 0.604000 9205880
-0.044367 0.131948 0.605000 9467267
-0.044440 0.135629 0.606000 9404807
-0.044513 0.139321 0.607000 9663876
-0.044513 0.142790 0.607000 9141374
-0.044587 0.146499 0.608000 5322322
-0.044587 0.149973 0.608000 10067835
-0.044807 0.154205 0.611000 12486551
-0.044786 0.097334 0.627000 11487111
-0.044643 0.100595 0.625000 12160658
-0.044429 0.103667 0.622000 12418963
-0.044143 0.106531 0.618000 10958449
-0.044000 0.109707 0.616000 12891602
-0.043714 0.112491 0.612000 13350067
-0.043429 0.115230 0.608000 14209506
-0.043214 0.118119 0.605000 9860242
-0.043143 0.121375 0.604000 9531777
-0.043143 0.124827 0.604000 7165031
-0.043143 0.128278 0.604000 7296607
-0.043214 0.131948 0.605000 7756912
-0.043286 0.135629 0.606000 9533828
-0.043357 0.139321 0.607000 8478837
-0.043429 0.143025 0.608000 7164519
-0.043429 0.146499 0.608000 4856635
-0.043429 0.149973 0.608000 11052442
-0.043714 0.154457 0.612000 12419484
-0.043591 0.097334 0.627000 10027384
-0.043452 0.100595 0.625000 10841196
-0.043244 0.103667 0.622000 13210022
-0.042966 0.106531 0.618000 9008258
-0.042827 0.109707 0.616000 10386794
-0.042549 0.112491 0.612000 11842477
-0.042270 0.115230 0.608000 14409687
-0.042062 0.118119 0.605000 9270407
-0.041992 0.121375 0.604000 9532800
-0.041992 0.124827 0.604000 6248293
-0.042062 0.128490 0.605000 5457763
-0.042131 0.132166 0.606000 5984619
-0.042131 0.135629 0.606000 9663093
-0.042201 0.139321 0.607000 7234670
-0.042270 0.143025 0.608000 5258341
-0.042270 0.146499 0.608000 4404050
-0.042340 0.150220 0.609000 12112042
-0.042549 0.154457 0.612000 12288150
-0.042330 0.097179 0.626000 10825576
-0.042194 0.100434 0.624000 10899015
-0.042059 0.103667 0.622000 12423352
-0.041856 0.106704 0.619000 10523795
-0.041586 0.109529 0.615000 9393409
-0.041383 0.112491 0.612000 12231591
-0.041112 0.115230 0.608000 13681356
-0.040977 0.118314 0.606000 8543101
-0.040910 0.121576 0.605000 8941182
-0.040842 0.124827 0.604000 5983075
-0.040910 0.128490 0.605000 5719911
-0.040977 0.132166 0.606000 6178661
-0.040977 0.135629 0.606000 8609638
-0.041045 0.139321 0.607000 7694439
-0.041112 0.143025 0.608000 5850722
-0.041112 0.146499 0.608000 4273770
-0.041180 0.150220 0.609000 12499642
-0.041450 0.154710 0.613000 12152464
-0.041203 0.097334 0.627000 11624038
-0.041071 0.100595 0.625000 10971999
-0.040874 0.103667 0.622000 11700626
-0.040677 0.106704 0.619000 12020362
-0.040414 0.109529 0.615000 8492386
-0.040217 0.112491 0.612000 12558507
-0.039954 0.115230 0.608000 12956102
-0.039823 0.118314 0.606000 7758720
-0.039757 0.121576 0.605000 8416388
-0.039757 0.125033 0.605000 5720668
-0.039757 0.128490 0.605000 6047079
-0.039823 0.132166 0.606000 6376032
-0.039823 0.135629 0.606000 7556449
-0.039889 0.139321 0.607000 8084568
-0.039954 0.143025 0.608000 6440796
-0.040020 0.146740 0.609000 4145757
-0.040020 0.150220 0.609000 12898242
-0.040283 0.154710 0.613000 12026007
-0.040009 0.097334 0.627000 11956580
-0.039881 0.100595 0.625000 11303543
-0.039690 0.103667 0.622000 11691372
-0.039498 0.106704 0.619000 9776513
-0.039179 0.109350 0.614000 11118274
-0.039051 0.112491 0.612000 12746160
-0.038796 0.115230 0.608000 12823232
-0.038669 0.118314 0.606000 7956098
-0.038605 0.121576 0.605000 8810890
-0.038605 0.125033 0.605000 5782101
-0.038669 0.128703 0.606000 6311527
-0.038732 0.132384 0.607000 6442075
-0.038732 0.135852 0.607000 7098459
-0.038732 0.139321 0.607000 6830921
-0.038796 0.143025 0.608000 6178134
-0.038860 0.146740 0.609000 6368593
-0.038988 0.150713 0.611000 13286090
-0.039115 0.154710 0.613000 12422559
-0.038814 0.097334 0.627000 12350572
-0.038690 0.100595 0.625000 11622741
-0.038505 0.103667 0.622000 11704427
-0.038319 0.106704 0.619000 7498628
-0.038010 0.109350 0.614000 13740965
-0.037886 0.112491 0.612000 12951474
-0.037638 0.115230 0.608000 12759231
-0.037514 0.118314 0.606000 8152447
-0.037452 0.121576 0.605000 9207944
-0.037452 0.125033 0.605000 5786716
-0.037514 0.128703 0.606000 6577778
-0.037576 0.132384 0.607000 6508384
-0.037576 0.135852 0.607000 6640989
-0.037576 0.139321 0.607000 5522512
-0.037638 0.143025 0.608000 5916762
-0.037700 0.146740 0.609000 8544609
-0.037824 0.150713 0.611000 13746368
-0.037948 0.154710 0.613000 12815770
-0.037620 0.097334 0.627000 11950196
-0.037500 0.100595 0.625000 8456756
-0.037320 0.103667 0.622000 11505002
-0.037080 0.106531 0.618000 10857607
-0.036840 0.109350 0.614000 12881288
-0.036720 0.112491 0.612000 13278644
-0.036480 0.115230 0.608000 12692158
-0.036360 0.118314 0.606000 7558012
-0.036300 0.121576 0.605000 8547973
-0.036300 0.125033 0.605000 5853283
-0.036360 0.128703 0.606000 6444924
-0.036420 0.132384 0.607000 6311782
-0.036420 0.135852 0.607000 6507614
-0.036420 0.139321 0.607000 5983319
-0.036540 0.143260 0.609000 6179677
-0.036540 0.146740 0.609000 9594737
-0.036660 0.150713 0.611000 13346229
-0.036780 0.154710 0.613000 13012373
-0.036658 0.094350 0.631000 11621783
-0.036426 0.097334 0.627000 11626867
-0.036310 0.100595 0.625000 5320782
-0.036135 0.103667 0.622000 11361334
-0.035903 0.106531 0.618000 14128504
-0.035670 0.109350 0.614000 12024697
-0.035554 0.112491 0.612000 13606054
-0.035380 0.115420 0.609000 12692165
-0.035206 0.118314 0.606000 6965872
-0.035206 0.121777 0.606000 7890800
-0.035148 0.125033 0.605000 5919069
-0.035264 0.128915 0.607000 6312301
-0.035264 0.132384 0.607000 6115428
-0.035264 0.135852 0.607000 6373471
-0.035264 0.139321 0.607000 6441295
-0.035380 0.143260 0.609000 6509661
-0.035380 0.146740 0.609000 10584954
-0.035554 0.150960 0.612000 12951733
-0.035612 0.154710 0.613000 13146530
-0.035456 0.094350 0.631000 10423948
-0.035231 0.097334 0.627000 12084593
-0.035119 0.100595 0.625000 8277353
-0.034950 0.103667 0.622000 9058561
-0.034726 0.106531 0.618000 11173737
-0.034445 0.109172 0.613000 12087658
-0.034389 0.112491 0.612000 12616089
-0.034164 0.115230 0.608000 12693964
-0.034051 0.118314 0.606000 6106213
-0.034051 0.121777 0.606000 7165274
-0.034051 0.125240 0.606000 5914968
-0.034108 0.128915 0.607000 6377054
-0.034108 0.132384 0.607000 6443106
-0.034108 0.135852 0.607000 6572383
-0.034164 0.139550 0.608000 6309704
-0.034332 0.143730 0.611000 5979484
-0.034332 0.147222 0.611000 12035460
-0.034389 0.150960 0.612000 13084084
-0.034445 0.154710 0.613000 13149104
-0.034146 0.094050 0.629000 9194669
-0.034037 0.097334 0.627000 12607594
-0.033929 0.100595 0.625000 11231348
-0.033766 0.103667 0.622000 6766144
-0.033549 0.106531 0.618000 8144472
-0.033331 0.109350 0.614000 12151369
-0.033223 0.112491 0.612000 11637404
-0.033006 0.115230 0.608000 12765921
-0.032897 0.118314 0.606000 5262725
-0.032897 0.121777 0.606000 6377306
-0.032897 0.125240 0.606000 5849943
-0.032951 0.128915 0.607000 6507611
-0.032951 0.132384 0.607000 6771807
-0.033006 0.136076 0.608000 6772589
-0.033006 0.139550 0.608000 6113362
-0.033169 0.143730 0.611000 5453378
-0.033223 0.147463 0.612000 13481868
-0.033277 0.151207 0.613000 13279409
-0.033277 0.154710 0.613000 13149871
-0.032948 0.094050 0.629000 11759566
-0.032790 0.097179 0.626000 12014946
-0.032738 0.100595 0.625000 12219775
-0.032581 0.103667 0.622000 10316415
-0.032371 0.106531 0.618000 6881608
-0.032162 0.109350 0.614000 10041127
-0.032057 0.112491 0.612000 13474464
-0.031848 0.115230 0.608000 14280438
-0.031795 0.118510 0.607000 8029093
-0.031795 0.121978 0.607000 6507097
-0.031743 0.125240 0.606000 5653846
-0.031795 0.128915 0.607000 6046807
-0.031795 0.132384 0.607000 6444123
-0.031848 0.136076 0.608000 6642555
-0.031900 0.139780 0.609000 6178141
-0.032057 0.143966 0.612000 5845287
-0.032110 0.147704 0.613000 14407573
-0.032110 0.151207 0.613000 13148590
-0.032110 0.154710 0.613000 13543854
-0.031750 0.094050 0.629000 14336998
-0.031649 0.097334 0.627000 11423902
-0.031497 0.100434 0.624000 13133684
-0.031396 0.103667 0.622000 13926268
-0.031194 0.106531 0.618000 5651547
-0.030992 0.109350 0.614000 7930926
-0.030841 0.112308 0.611000 15320255
-0.030690 0.115230 0.608000 15857910
-0.030589 0.118314 0.606000 10780811
-0.030639 0.121978 0.607000 6572386
-0.030589 0.125240 0.606000 5390419
-0.030639 0.128915 0.607000 5650257
-0.030690 0.132602 0.608000 6113623
-0.030690 0.136076 0.608000 6511205
-0.030841 0.140239 0.611000 6180190
-0.030891 0.143966 0.612000 6235969
-0.030942 0.147704 0.613000 15256989
-0.030942 0.151207 0.613000 13015968
-0.030942 0.154710 0.613000 13938095
-0.030551 0.094050 0.629000 15531774
-0.030454 0.097334 0.627000 12815578
-0.030309 0.100434 0.624000 12210792
-0.030114 0.103333 0.620000 13398392
-0.030017 0.106531 0.618000 8803695
-0.029871 0.109529 0.615000 8794677
-0.029677 0.112308 0.611000 15264990
-0.029483 0.115041 0.607000 14011637
-0.029434 0.118314 0.606000 9267826
-0.029483 0.121978 0.607000 6836331
-0.029483 0.125447 0.607000 4996689
-0.029483 0.128915 0.607000 5453130
-0.029531 0.132602 0.608000 5649747
-0.029531 0.136076 0.608000 6310222
-0.029677 0.140239 0.611000 6575967
-0.029726 0.143966 0.612000 7623514
-0.029774 0.147704 0.613000 15324326
-0.029774 0.151207 0.613000 13015442
-0.029353 0.094050 0.629000 16708601
-0.029260 0.097334 0.627000 14278124
-0.029120 0.100434 0.624000 11298205
-0.028933 0.103333 0.620000 12871025
-0.028840 0.106531 0.618000 11952246
-0.028700 0.109529 0.615000 9581645
-0.028513 0.112308 0.611000 15123399
-0.028373 0.115230 0.608000 12161706
-0.028280 0.118314 0.606000 7755384
-0.028327 0.121978 0.607000 7101801
-0.028327 0.125447 0.607000 4536656
-0.028373 0.129128 0.608000 5322829
-0.028373 0.132602 0.608000 5191761
-0.028373 0.136076 0.608000 6111829
-0.028513 0.140239 0.611000 6902879
-0.028560 0.143966 0.612000 9004378
-0.028607 0.147704 0.613000 15319975
-0.028607 0.151207 0.613000 13014664
-0.028155 0.094050 0.629000 15064052
-0.028066 0.097334 0.627000 15331326
-0.027931 0.100434 0.624000 13010130
-0.027752 0.103333 0.620000 12013929
-0.027618 0.106359 0.617000 11887230
-0.027529 0.109529 0.615000 10703716
-0.027350 0.112308 0.611000 14122416
-0.027170 0.115041 0.607000 10113887
-0.027126 0.118314 0.606000 8019839
-0.027170 0.121978 0.607000 7034470
-0.027215 0.125653 0.608000 4402511
-0.027215 0.129128 0.608000 5324368
-0.027215 0.132602 0.608000 5389392
-0.027260 0.136300 0.609000 6047835
-0.027350 0.140239 0.611000 6704480
-0.027439 0.144201 0.613000 8742745
-0.027439 0.147704 0.613000 14989224
-0.027439 0.151207 0.613000 12687229
-0.026957 0.094050 0.629000 13424622
-0.026829 0.097179 0.626000 16383742
-0.026743 0.100434 0.624000 14666216
-0.026571 0.103333 0.620000 11159719
-0.026443 0.106359 0.617000 11819123
-0.026357 0.109529 0.615000 11752544
-0.026229 0.112491 0.612000 13085369
-0.026014 0.115041 0.607000 8086674
-0.025971 0.118314 0.606000 8218494
-0.026014 0.121978 0.607000 6969189
-0.026057 0.125653 0.608000 4272970
-0.026057 0.129128 0.608000 5322832
-0.026057 0.132602 0.608000 5587028
-0.026100 0.136300 0.609000 6049116
-0.026229 0.140469 0.612000 6442592
-0.026229 0.143966 0.612000 8473917
-0.026271 0.147704 0.613000 14594987
-0.026314 0.151453 0.614000 12359328
-0.025759 0.094050 0.629000 13682153
-0.025636 0.097179 0.626000 16316670
-0.025554 0.100434 0.624000 15728126
-0.025390 0.103333 0.620000 12618981
-0.025268 0.106359 0.617000 10504039
-0.025145 0.109350 0.614000 11225180
-0.025022 0.112308 0.611000 14871234
-0.024899 0.115230 0.608000 10787269
-0.024858 0.118510 0.607000 7887741
-0.024858 0.121978 0.607000 6441828
-0.024899 0.125653 0.608000 4205381
-0.024899 0.129128 0.608000 4930384
-0.024899 0.132602 0.608000 5715545
-0.025022 0.136748 0.611000 5852764
-0.025063 0.140469 0.612000 6048865
-0.025104 0.144201 0.613000 7813153
-0.025104 0.147704 0.613000 14727599
-0.025145 0.151453 0.614000 13213634
-0.024561 0.094050 0.629000 13886707
-0.024444 0.097179 0.626000 16318204
-0.024327 0.100273 0.623000 16710137
-0.024210 0.103333 0.620000 14015730
-0.024092 0.106359 0.617000 9197724
-0.023975 0.109350 0.614000 10695518
-0.023858 0.112308 0.611000 16571069
-0.023663 0.114851 0.606000 13489362
-0.023663 0.118314 0.606000 7562880
-0.023702 0.121978 0.607000 5917028
-0.023702 0.125447 0.607000 4077393
-0.023780 0.129340 0.609000 4599629
-0.023780 0.132820 0.609000 5850970
-0.023897 0.136971 0.612000 5721421
-0.023897 0.140469 0.612000 5588057
-0.023936 0.144201 0.613000 7147052
-0.023936 0.147704 0.613000 14795972
-0.023975 0.151453 0.614000 14068155
-0.023363 0.094050 0.629000 15335165
-0.023177 0.096869 0.624000 16117497
-0.023103 0.100112 0.622000 16512501
-0.022991 0.103167 0.619000 15331070
-0.022843 0.106014 0.615000 11631568
-0.022731 0.108994 0.612000 10241119
-0.022583 0.111756 0.608000 15849656
-0.022546 0.115041 0.607000 13419487
-0.022509 0.118314 0.606000 7427459
-0.022546 0.121978 0.607000 7102051
-0.022583 0.125653 0.608000 6247517
-0.022620 0.129340 0.609000 5059657
-0.022620 0.132820 0.609000 6244955
-0.022694 0.136748 0.611000 5523518
-0.022694 0.140239 0.611000 5521745
-0.022731 0.143966 0.612000 7092790
-0.022731 0.147463 0.612000 14862809
-0.022769 0.151207 0.613000 13871539
-0.022130 0.093901 0.628000 16708336
-0.021989 0.096869 0.624000 15987964
-0.021918 0.100112 0.622000 16250104
-0.021812 0.103167 0.619000 16579067
-0.021671 0.106014 0.615000 14075367
-0.021566 0.108994 0.612000 9787548
-0.021460 0.111940 0.609000 15132367
-0.021390 0.115041 0.607000 13416164
-0.021354 0.118314 0.606000 7232652
-0.021390 0.121978 0.607000 8351867
-0.021425 0.125653 0.608000 8415591
-0.021460 0.129340 0.609000 5581918
-0.021530 0.133256 0.611000 6574175
-0.021530 0.136748 0.611000 5391696
-0.021566 0.140469 0.612000 5456467
-0.021566 0.143966 0.612000 7024736
-0.021566 0.147463 0.612000 14928331
-0.021636 0.151453 0.614000 13674159
-0.020933 0.093901 0.628000 15652579
-0.020800 0.096869 0.624000 15922430
-0.020733 0.100112 0.622000 16446971
-0.020600 0.103000 0.618000 16512760
-0.020500 0.106014 0.615000 15399166
-0.020400 0.108994 0.612000 12824793
-0.020267 0.111756 0.608000 15923430
-0.020233 0.115041 0.607000 13945576
-0.020233 0.118510 0.607000 7755926
-0.020233 0.121978 0.607000 8812691
-0.020267 0.125653 0.608000 9074801
-0.020300 0.129340 0.609000 6902898
-0.020367 0.133256 0.611000 6839907
-0.020400 0.136971 0.612000 5917794
-0.020400 0.140469 0.612000 5785430
-0.020400 0.143966 0.612000 7888522
-0.020433 0.147704 0.613000 14533310
-0.020467 0.151453 0.614000 13541546
-0.019769 0.094050 0.629000 14533864
-0.019611 0.096869 0.624000 15922413
-0.019549 0.100112 0.622000 16643059
-0.019423 0.103000 0.618000 16511739
-0.019329 0.106014 0.615000 16710141
-0.019234 0.108994 0.612000 15855596
-0.019140 0.111940 0.609000 16710642
-0.019077 0.115041 0.607000 14543593
-0.019077 0.118510 0.607000 8286111
-0.019077 0.121978 0.607000 9274019
-0.019109 0.125653 0.608000 9722221
-0.019140 0.129340 0.609000 8289922
-0.019203 0.133256 0.611000 7101549
-0.019203 0.136748 0.611000 6442854
-0.019234 0.140469 0.612000 6111577
-0.019234 0.143966 0.612000 8817298
-0.019266 0.147704 0.613000 14137791
-0.019297 0.151453 0.614000 13478320
-0.018570 0.090456 0.629000 15459324
-0.018511 0.093751 0.627000 15256814
-0.018423 0.096869 0.624000 15184860
-0.018364 0.100112 0.622000 15722987
-0.018246 0.103000 0.618000 16381438
-0.018157 0.106014 0.615000 16709884
-0.018069 0.108994 0.612000 16250878
-0.017950 0.111756 0.608000 16711422
-0.017921 0.115041 0.607000 13946602
-0.017921 0.118510 0.607000 8548263
-0.017950 0.122179 0.608000 9209779
-0.017950 0.125653 0.608000 6949737
-0.018039 0.129765 0.611000 9403794
-0.018069 0.133474 0.612000 8678007
-0.018069 0.136971 0.612000 6640745
-0.018069 0.140469 0.612000 6112348
-0.018098 0.144201 0.613000 10260121
-0.018128 0.147945 0.614000 13937601
-0.017345 0.090312 0.628000 15914476
-0.017345 0.093901 0.628000 15981548
-0.017234 0.096869 0.624000 14470125
-0.017124 0.099790 0.620000 14733281
-0.017069 0.103000 0.618000 16249823
-0.016986 0.106014 0.615000 16644088
-0.016903 0.108994 0.612000 16710910
-0.016792 0.111756 0.608000 16705006
-0.016792 0.115230 0.608000 13282491
-0.016765 0.118510 0.607000 8745110
-0.016792 0.122179 0.608000 9147808
-0.016792 0.125653 0.608000 4205665
-0.016875 0.129765 0.611000 10519967
-0.016903 0.133474 0.612000 10255753
-0.016903 0.136971 0.612000 6903656
-0.016903 0.140469 0.612000 6047072
-0.016930 0.144201 0.613000 11650991
-0.016958 0.147945 0.614000 13673915
-0.016174 0.090456 0.629000 15251931
-0.016174 0.094050 0.629000 15984618
-0.016046 0.096869 0.624000 15394302
-0.015943 0.099790 0.620000 14986712
-0.015891 0.103000 0.618000 15185087
-0.015814 0.106014 0.615000 16183796
-0.015737 0.108994 0.612000 16317438
-0.015660 0.111940 0.609000 14533086
-0.015634 0.115230 0.608000 11437452
-0.015634 0.118705 0.608000 8348550
-0.015634 0.122179 0.608000 7955340
-0.015660 0.125860 0.609000 5651801
-0.015711 0.129765 0.611000 10917547
-0.015737 0.133474 0.612000 10457499
-0.015737 0.136971 0.612000 7166055
-0.015737 0.140469 0.612000 6178405
-0.015763 0.144201 0.613000 12367813
-0.015789 0.147945 0.614000 13671093
-0.014976 0.090456 0.629000 14601965
-0.014952 0.093901 0.628000 15983853
-0.014857 0.096869 0.624000 16378099
-0.014762 0.099790 0.620000 15194599
-0.014714 0.103000 0.618000 14141151
-0.014643 0.106014 0.615000 15717871
-0.014571 0.108994 0.612000 15923705
-0.014500 0.111940 0.609000 12357557
-0.014476 0.115230 0.608000 9593212
-0.014476 0.118705 0.608000 7958435
-0.014476 0.122179 0.608000 6771596
-0.014500 0.125860 0.609000 7100256
-0.014548 0.129765 0.611000 11376796
-0.014571 0.133474 0.612000 10586257
-0.014571 0.136971 0.612000 7492465
-0.014571 0.140469 0.612000 6313336
-0.014619 0.144436 0.614000 13027775
-0.014643 0.148186 0.615000 13672884
-0.013866 0.087414 0.633000 16183805
-0.013778 0.090456 0.629000 15131902
-0.013734 0.093751 0.627000 16180208
-0.013669 0.096869 0.624000 15319528
-0.013581 0.099790 0.620000 15462135
-0.013537 0.103000 0.618000 15460350
-0.013450 0.105842 0.614000 15646698
-0.013406 0.108994 0.612000 14863604
-0.013318 0.111756 0.608000 10771341
-0.013296 0.115041 0.607000 8607852
-0.013318 0.118705 0.608000 11108801
-0.013318 0.122179 0.608000 8220556
-0.013340 0.125860 0.609000 7429736
-0.013384 0.129765 0.611000 10585484
-0.013406 0.133474 0.612000 10453640
-0.013406 0.136971 0.612000 7956090
-0.013406 0.140469 0.612000 6509195
-0.013450 0.144436 0.614000 13020856
-0.013471 0.148186 0.615000 13540275
-0.012620 0.087138 0.631000 15853047
-0.012580 0.090456 0.629000 15650531
-0.012540 0.093751 0.627000 16376808
-0.012480 0.096869 0.624000 14337778
-0.012400 0.099790 0.620000 15717357
-0.012360 0.103000 0.618000 16709089
-0.012280 0.105842 0.614000 15590641
-0.012220 0.108816 0.611000 13810669
-0.012180 0.111940 0.609000 9135757
-0.012140 0.115041 0.607000 7689060
-0.012160 0.118705 0.608000 14207708
-0.012180 0.122380 0.609000 9674936
-0.012220 0.126273 0.611000 7692405
-0.012240 0.129977 0.612000 9795211
-0.012240 0.133474 0.612000 10321813
-0.012240 0.136971 0.612000 8481909
-0.012260 0.140698 0.613000 6712467
-0.012280 0.144436 0.614000 12955315
-0.012300 0.148186 0.615000 13342896
-0.011436 0.087276 0.632000 15980529
-0.011382 0.090456 0.629000 15118023
-0.011346 0.093751 0.627000 15720160
-0.011291 0.096869 0.624000 15066364
-0.011219 0.099790 0.620000 15645923
-0.011165 0.102833 0.617000 15584452
-0.011110 0.105842 0.614000 15462392
-0.011056 0.108816 0.611000 13811685
-0.011020 0.111940 0.609000 9138318
-0.011002 0.115230 0.608000 8216412
-0.011002 0.118705 0.608000 15466231
-0.011020 0.122380 0.609000 11779300
-0.011056 0.126273 0.611000 7758211
-0.011074 0.129977 0.612000 9468041
-0.011074 0.133474 0.612000 10910370
-0.011110 0.137419 0.614000 8876399
-0.011110 0.140928 0.614000 8481692
-0.011129 0.144671 0.615000 12883885
-0.011129 0.148186 0.615000 13145262
-0.010249 0.087414 0.633000 16118008
-0.010216 0.090744 0.631000 14669795
-0.010151 0.093751 0.627000 14996450
-0.010087 0.096713 0.623000 15851231
-0.010038 0.099790 0.620000 15589101
-0.009990 0.102833 0.617000 14471393
-0.009941 0.105842 0.614000 15258344
-0.009892 0.108816 0.611000 13820914
-0.009860 0.111940 0.609000 9139895
-0.009844 0.115230 0.608000 8804264
-0.009860 0.118900 0.609000 16711419
-0.009860 0.122380 0.609000 13886705
-0.009892 0.126273 0.611000 7763872
-0.009909 0.129977 0.612000 9140355
-0.009909 0.133474 0.612000 11506343
-0.009941 0.137419 0.614000 9333645
-0.009941 0.140928 0.614000 10258335
-0.009957 0.144671 0.615000 12746901
-0.009957 0.148186 0.615000 12948134
-0.009043 0.087414 0.633000 16449022
-0.009014 0.090744 0.631000 15724798
-0.008957 0.093751 0.627000 15186660
-0.008900 0.096713 0.623000 15252673
-0.008857 0.099790 0.620000 15395064
-0.008814 0.102833 0.617000 15460606
-0.008771 0.105842 0.614000 15246296
-0.008729 0.108816 0.611000 15265278
-0.008700 0.111940 0.609000 12030688
-0.008686 0.115230 0.608000 12300276
-0.008700 0.118900 0.609000 16711422
-0.008729 0.122782 0.611000 14872830
-0.008743 0.126480 0.612000 9080509
-0.008743 0.129977 0.612000 8612221
-0.008757 0.133692 0.613000 11706540
-0.008771 0.137419 0.614000 10454698
-0.008771 0.140928 0.614000 11372706
-0.008786 0.144671 0.615000 12681340
-0.008800 0.148427 0.616000 13146014
-0.007825 0.087276 0.632000 16708068
-0.007812 0.090744 0.631000 16711166
-0.007763 0.093751 0.627000 15394289
-0.007726 0.096869 0.624000 14667744
-0.007676 0.099790 0.620000 15125483
-0.007639 0.102833 0.617000 16380393
-0.007590 0.105670 0.613000 15260391
-0.007565 0.108816 0.611000 16711422
-0.007565 0.112308 0.611000 14932719
-0.007540 0.115420 0.609000 15793657
-0.007540 0.118900 0.609000 16709627
-0.007565 0.122782 0.611000 15858423
-0.007577 0.126480 0.612000 10324654
-0.007590 0.130190 0.613000 8087161
-0.007590 0.133692 0.613000 11831963
-0.007602 0.137419 0.614000 11637972
-0.007614 0.141157 0.615000 12492964
-0.007627 0.144907 0.616000 12550261
-0.007627 0.148427 0.616000 13343656
-0.006610 0.087138 0.631000 15190985
-0.006610 0.090744 0.631000 16249854
-0.006569 0.093751 0.627000 15924990
-0.006537 0.096869 0.624000 15658238
-0.006495 0.099790 0.620000 15247838
-0.006464 0.102833 0.617000 15319507
-0.006422 0.105670 0.613000 15920374
-0.006401 0.108816 0.611000 16711422
-0.006401 0.112308 0.611000 15727358
-0.006401 0.115799 0.611000 16252670
-0.006401 0.119290 0.611000 16638199
-0.006401 0.122782 0.611000 14340335
-0.006411 0.126480 0.612000 8748703
-0.006422 0.130190 0.613000 7494261
-0.006432 0.133910 0.614000 11361674
-0.006443 0.137643 0.615000 13485566
-0.006443 0.141157 0.615000 13021607
-0.006453 0.144907 0.616000 13011053
-0.006474 0.148909 0.618000 14132658
-0.005409 0.087138 0.631000 13603499
-0.005409 0.090744 0.631000 15785151
-0.005374 0.093751 0.627000 16381436
-0.005349 0.096869 0.624000 16711166
-0.005314 0.099790 0.620000 15327726
-0.005280 0.102667 0.616000 14274536
-0.005254 0.105670 0.613000 16509941
-0.005237 0.108816 0.611000 16711422
-0.005237 0.112308 0.611000 16513528
-0.005237 0.115799 0.611000 16711382
-0.005237 0.119290 0.611000 16511994
-0.005246 0.122983 0.612000 12829942
-0.005246 0.126480 0.612000 7162766
-0.005254 0.130190 0.613000 6833505
-0.005263 0.133910 0.614000 10912650
-0.005271 0.137643 0.615000 15269628
-0.005271 0.141157 0.615000 13544884
-0.005289 0.145142 0.617000 13470320
-0.005306 0.149150 0.619000 14856629
-0.004207 0.087138 0.631000 13527437
-0.004193 0.090456 0.629000 14591359
-0.004180 0.093751 0.627000 16118521
-0.004153 0.096713 0.623000 16447742
-0.004133 0.099790 0.620000 16056062
-0.004107 0.102667 0.616000 15329532
-0.004087 0.105670 0.613000 16644085
-0.004080 0.108994 0.612000 16711166
-0.004073 0.112308 0.611000 16643827
-0.004073 0.115799 0.611000 15261102
-0.004073 0.119290 0.611000 16645884
-0.004080 0.122983 0.612000 13949181
-0.004080 0.126480 0.612000 6167677
-0.004087 0.130190 0.613000 6240844
-0.004093 0.133910 0.614000 12026507
-0.004100 0.137643 0.615000 15724794
-0.004100 0.141157 0.615000 13809090
-0.004113 0.145142 0.617000 13407347
-0.004133 0.149390 0.620000 14858168
-0.003005 0.087138 0.631000 13474754
-0.002995 0.090456 0.629000 13412495
-0.002986 0.093751 0.627000 15847909
-0.002971 0.096869 0.624000 16183523
-0.002952 0.099790 0.620000 16711421
-0.002933 0.102667 0.616000 16448253
-0.002919 0.105670 0.613000 16710393
-0.002910 0.108816 0.611000 16710398
-0.002910 0.112308 0.611000 16710392
-0.002910 0.115799 0.611000 13815492
-0.002910 0.119290 0.611000 16703680
-0.002914 0.122983 0.612000 15138302
-0.002914 0.126480 0.612000 5134760
-0.002924 0.130402 0.614000 5718386
-0.002924 0.133910 0.614000 13151645
-0.002929 0.137643 0.615000 16184060
-0.002933 0.141387 0.616000 14005960
-0.002938 0.145142 0.617000 13342086
-0.002952 0.149390 0.620000 14857913
-0.001803 0.087138 0.631000 15130359
-0.001797 0.090456 0.629000 14198686
-0.001791 0.093751 0.627000 15184849
-0.001783 0.096869 0.624000 15115975
-0.001771 0.099790 0.620000 16252412
-0.001760 0.102667 0.616000 16316926
-0.001751 0.105670 0.613000 16711422
-0.001746 0.108816 0.611000 16711166
-0.001746 0.112308 0.611000 16711422
-0.001746 0.115799 0.611000 14605273
-0.001746 0.119290 0.611000 15052164
-0.001749 0.122983 0.612000 15133950
-0.001751 0.126687 0.613000 8944595
-0.001754 0.130402 0.614000 8546711
-0.001754 0.133910 0.614000 13620144
-0.001757 0.137643 0.615000 15593470
-0.001760 0.141387 0.616000 14072014
-0.001763 0.145142 0.617000 13868953
-0.000599 0.086862 0.629000 16708854
-0.000599 0.090456 0.629000 15060174
-0.000598 0.093901 0.628000 14531555
-0.000594 0.096869 0.624000 14119102
-0.000590 0.099630 0.619000 15779293
-0.000587 0.102667 0.616000 16252395
-0.000583 0.105497 0.612000 16711163
-0.000582 0.108816 0.611000 16711422
-0.000582 0.112308 0.611000 16711422
-0.000582 0.115799 0.611000 15463916
-0.000582 0.119290 0.611000 13419948
-0.000583 0.122983 0.612000 15063994
-0.000584 0.126687 0.613000 12696282
-0.000585 0.130402 0.614000 11447466
-0.000585 0.133910 0.614000 14078107
-0.000586 0.137643 0.615000 15002027
-0.000586 0.141157 0.615000 14073800
-0.000587 0.144907 0.616000 14459814
0.000599 0.086862 0.629000 16645109
0.000599 0.090456 0.629000 15921662
0.000597 0.093751 0.627000 15517685
0.000594 0.096869 0.624000 14257845
0.000590 0.099630 0.619000 14842303
0.000587 0.102667 0.616000 14988759
0.000583 0.105497 0.612000 16383737
0.000582 0.108816 0.611000 16711422
0.000582 0.112308 0.611000 16711422
0.000582 0.115799 0.611000 16054526
0.000583 0.119486 0.612000 14930387
0.000583 0.122983 0.612000 14667893
0.000584 0.126687 0.613000 13952224
0.000584 0.130190 0.613000 12700604
0.000585 0.133910 0.614000 13616263
0.000586 0.137643 0.615000 14143320
0.000587 0.141387 0.616000 14135746
0.000588 0.145142 0.617000 14397362
0.001809 0.087414 0.633000 16554126
0.001797 0.090456 0.629000 16710625
0.001791 0.093751 0.627000 16509434
0.001783 0.096869 0.624000 14467290
0.001769 0.099630 0.619000 13932498
0.001760 0.102667 0.616000 13725872
0.001749 0.105497 0.612000 16035268
0.001746 0.108816 0.611000 16711422
0.001746 0.112308 0.611000 16710389
0.001746 0.115799 0.611000 16711422
0.001749 0.119486 0.612000 16445161
0.001749 0.122983 0.612000 14211255
0.001751 0.126687 0.613000 15195334
0.001751 0.130190 0.613000 14013074
0.001757 0.134129 0.615000 13158270
0.001760 0.137867 0.616000 13286760
0.001760 0.141387 0.616000 14137546
0.001766 0.145377 0.618000 14398389
0.003014 0.087414 0.633000 15204648
0.002995 0.090456 0.629000 15839427
0.002990 0.093901 0.628000 16645886
0.002971 0.096869 0.624000 15592702
0.002948 0.099630 0.619000 14919910
0.002933 0.102667 0.616000 13926793
0.002914 0.105497 0.612000 13894030
0.002910 0.108816 0.611000 16119038
0.002910 0.112308 0.611000 16379117
0.002914 0.115989 0.612000 16510718
0.002914 0.119486 0.612000 16580350
0.002914 0.122983 0.612000 15265017
0.002924 0.126893 0.614000 15258284
0.002924 0.130402 0.614000 13814631
0.002929 0.134129 0.615000 13158774
0.002933 0.137867 0.616000 13419127
0.002933 0.141387 0.616000 13281490
0.002943 0.145377 0.618000 14465208
0.004220 0.087414 0.633000 13911905
0.004207 0.090744 0.631000 15023008
0.004187 0.093901 0.628000 16689604
0.004153 0.096713 0.623000 16711153
0.004127 0.099630 0.619000 15851762
0.004113 0.102833 0.617000 14064580
0.004080 0.105497 0.612000 11768001
0.004073 0.108816 0.611000 15597310
0.004080 0.112491 0.612000 16031201
0.004080 0.115989 0.612000 16236504
0.004080 0.119486 0.612000 16700638
0.004093 0.123385 0.614000 16315873
0.004093 0.126893 0.614000 15328459
0.004093 0.130402 0.614000 13684390
0.004100 0.134129 0.615000 13094804
0.004107 0.137867 0.616000 13551248
0.004113 0.141616 0.617000 12368339
0.004127 0.145612 0.619000 14596030
0.005426 0.087414 0.633000 15052698
0.005409 0.090744 0.631000 14960252
0.005374 0.093751 0.627000 15139210
0.005340 0.096713 0.623000 16175332
0.005314 0.099790 0.620000 16318206
0.005297 0.103000 0.618000 15391742
0.005246 0.105497 0.612000 14273524
0.005246 0.108994 0.612000 15527166
0.005246 0.112491 0.612000 15896021
0.005246 0.115989 0.612000 15360946
0.005246 0.119486 0.612000 15031486
0.005263 0.123385 0.614000 15584200
0.005263 0.126893 0.614000 14937834
0.005263 0.130402 0.614000 14539493
0.005280 0.134347 0.616000 13883059
0.005289 0.138090 0.617000 13421225
0.005289 0.141616 0.617000 12630997
0.005297 0.145377 0.618000 14531267
0.006631 0.087414 0.633000 16088712
0.006610 0.090744 0.631000 14973348
0.006579 0.093901 0.628000 13587616
0.006527 0.096713 0.623000 15631756
0.006485 0.099630 0.619000 16700858
0.006464 0.102833 0.617000 16711422
0.006422 0.105670 0.613000 16708089
0.006411 0.108994 0.612000 15464958
0.006411 0.112491 0.612000 15771102
0.006411 0.115989 0.612000 14576340
0.006411 0.119486 0.612000 13410521
0.006432 0.123385 0.614000 14866654
0.006443 0.127100 0.615000 14466523
0.006443 0.130614 0.615000 15451578
0.006453 0.134347 0.616000 14670277
0.006464 0.138090 0.617000 13359041
0.006474 0.141846 0.618000 12890310
0.006474 0.145377 0.618000 14465994
0.007837 0.087414 0.633000 15430774
0.007812 0.090744 0.631000 15109068
0.007763 0.093751 0.627000 14922421
0.007701 0.096558 0.622000 15090740
0.007664 0.099630 0.619000 15170166
0.007627 0.102667 0.616000 16441598
0.007590 0.105670 0.613000 16711422
0.007577 0.108994 0.612000 16052478
0.007577 0.112491 0.612000 16245479
0.007590 0.116178 0.613000 15649526
0.007577 0.119486 0.612000 15061236
0.007602 0.123385 0.614000 15720692
0.007614 0.127100 0.615000 13928907
0.007614 0.130614 0.615000 15052175
0.007627 0.134347 0.616000 14865111
0.007651 0.138314 0.618000 13816281
0.007651 0.141846 0.618000 11903928
0.007664 0.145612 0.619000 14401232
0.009043 0.087414 0.633000 14766713
0.009014 0.090744 0.631000 15313041
0.008943 0.093602 0.626000 16163511
0.008886 0.096558 0.622000 14571119
0.008843 0.099630 0.619000 13657738
0.008800 0.102667 0.616000 16096710
0.008757 0.105670 0.613000 16707291
0.008743 0.108994 0.612000 16711418
0.008757 0.112675 0.613000 16709618
0.008757 0.116178 0.613000 16711418
0.008743 0.119486 0.612000 16708345
0.008771 0.123385 0.614000 16645881
0.008786 0.127100 0.615000 13354467
0.008786 0.130614 0.615000 14726836
0.008814 0.134565 0.617000 15061980
0.008829 0.138314 0.618000 14278873
0.008829 0.141846 0.618000 10919588
0.008829 0.145377 0.618000 14401478
0.010249 0.087414 0.633000 13251965
0.010216 0.090744 0.631000 14568278
0.010151 0.093751 0.627000 15644090
0.010070 0.096558 0.622000 15106217
0.010022 0.099630 0.619000 14906015
0.009990 0.102833 0.617000 15609997
0.009925 0.105670 0.613000 16367288
0.009909 0.108994 0.612000 16504566
0.009925 0.112675 0.613000 16580350
0.009925 0.116178 0.613000 16711422
0.009925 0.119681 0.613000 16711422
0.009957 0.123586 0.615000 16645886
0.009957 0.127100 0.615000 15068924
0.009973 0.130827 0.616000 15584985
0.009990 0.134565 0.617000 15060194
0.010006 0.138314 0.618000 13813720
0.010006 0.141846 0.618000 10586000
0.010006 0.145377 0.618000 14071739
0.011436 0.087276 0.632000 11763366
0.011382 0.090456 0.629000 13853574
0.011328 0.093602 0.626000 15031954
0.011273 0.096713 0.623000 15625347
0.011201 0.099630 0.619000 16093866
0.011147 0.102667 0.616000 15147434
0.011092 0.105670 0.613000 15952052
0.011092 0.109172 0.613000 16288726
0.011092 0.112675 0.613000 16424864
0.011092 0.116178 0.613000 16711393
0.011092 0.119681 0.613000 16708848
0.011129 0.123586 0.615000 16711422
0.011147 0.127307 0.616000 16710397
0.011147 0.130827 0.616000 16444140
0.011183 0.134783 0.618000 14998256
0.011183 0.138314 0.618000 13350611
0.011183 0.141846 0.618000 10261912
0.011165 0.145142 0.617000 13742780
0.012620 0.087138 0.631000 13351376
0.012560 0.090312 0.628000 13797814
