# .PCD v.7 - Point Cloud Data file format
VERSION .7
FIELDS x y z rgb
SIZE 4 4 4 4
TYPE F F F I
COUNT 1 1 1 1
WIDTH 1321
HEIGHT 1
POINTS 1321
DATA ascii
0.229186 -0.087917 0.789000 8485784
0.229767 -0.083620 0.791000 9402492
0.230929 -0.079500 0.795000 8807275
0.237413 -0.132240 0.812000 11448540
0.235659 -0.126657 0.806000 12553363
0.233028 -0.120689 0.797000 6443109
0.231858 -0.115551 0.793000 8418366
0.230689 -0.110460 0.789000 9014410
0.230689 -0.105951 0.789000 9208664
0.230396 -0.101314 0.788000 8604749
0.230396 -0.096811 0.788000 8668992
0.230396 -0.092309 0.788000 6232349
0.230396 -0.087806 0.788000 8353904
0.231273 -0.083620 0.791000 9468031
0.232443 -0.079500 0.795000 8675385
0.239549 -0.132566 0.814000 11705794
0.237783 -0.126971 0.808000 12097686
0.234546 -0.120689 0.797000 6765687
0.232780 -0.115260 0.791000 6636545
0.232191 -0.110460 0.789000 9076596
0.232191 -0.105951 0.789000 7682313
0.231897 -0.101314 0.788000 8651532
0.231897 -0.096811 0.788000 8656397
0.231897 -0.092309 0.788000 7143689
0.231897 -0.087806 0.788000 8412232
0.232191 -0.083409 0.789000 9401475
0.233957 -0.079500 0.795000 7617542
0.241099 -0.132566 0.814000 11967400
0.239322 -0.126971 0.808000 11706813
0.236064 -0.120689 0.797000 7035533
0.233694 -0.114969 0.789000 4859670
0.233398 -0.110320 0.788000 9061439
0.233398 -0.105817 0.788000 6160658
0.233398 -0.101314 0.788000 8651793
0.232806 -0.096566 0.786000 8653079
0.232806 -0.092074 0.786000 8062985
0.232806 -0.087583 0.786000 8416843
0.233398 -0.083303 0.788000 9337220
0.234879 -0.079300 0.793000 6630937
0.240265 -0.126657 0.806000 11317732
0.237582 -0.120689 0.797000 7565731
0.235197 -0.114969 0.789000 4465963
0.234899 -0.110320 0.788000 6362379
0.234899 -0.105817 0.788000 7080218
0.234899 -0.101314 0.788000 8652823
0.234303 -0.096566 0.786000 8654112
0.234303 -0.092074 0.786000 8195593
0.234303 -0.087583 0.786000 8215629
0.234899 -0.083303 0.788000 9139590
0.235793 -0.079100 0.791000 6169387
0.241200 -0.126343 0.804000 10864345
0.239100 -0.120689 0.797000 8087682
0.236700 -0.114969 0.789000 4070444
0.236400 -0.110320 0.788000 3676954
0.236400 -0.105817 0.788000 8000531
0.235800 -0.101057 0.786000 8587790
0.235800 -0.096566 0.786000 8654359
0.235800 -0.092074 0.786000 8260874
0.235800 -0.087583 0.786000 7959902
0.235800 -0.083091 0.786000 8944000
0.236700 -0.078900 0.789000 5709121
0.238500 -0.074957 0.795000 6624783
0.242731 -0.126343 0.804000 10990029
0.240920 -0.120840 0.798000 7820385
0.237901 -0.114823 0.788000 3741485
0.237901 -0.110320 0.788000 3216681
0.237901 -0.105817 0.788000 8064268
0.237297 -0.101057 0.786000 7668230
0.237297 -0.096566 0.786000 8129550
0.236693 -0.091840 0.784000 8456715
0.236693 -0.087360 0.784000 8088686
0.237297 -0.083091 0.786000 8615035
0.238203 -0.078900 0.789000 6697303
0.243655 -0.126029 0.802000 11126439
0.242136 -0.120689 0.797000 7554137
0.239402 -0.114823 0.788000 3410511
0.239402 -0.110320 0.788000 2697535
0.238794 -0.105549 0.786000 8063545
0.238794 -0.101057 0.786000 6691899
0.238794 -0.096566 0.786000 7673148
0.238187 -0.091840 0.784000 8587283
0.238187 -0.087360 0.784000 8219765
0.238794 -0.083091 0.786000 8219246
0.239706 -0.078900 0.789000 7749720
0.245183 -0.126029 0.802000 11105408
0.243960 -0.120840 0.798000 7035218
0.240291 -0.114531 0.786000 4996208
0.240291 -0.110040 0.786000 5332309
0.240291 -0.105549 0.786000 8336741
0.240291 -0.101057 0.786000 7431024
0.240291 -0.096566 0.786000 7949161
0.239680 -0.091840 0.784000 8258332
0.239680 -0.087360 0.784000 7431804
0.240291 -0.083091 0.786000 7426914
0.240903 -0.078800 0.788000 8013401
0.242431 -0.074769 0.793000 6956576
0.246710 -0.126029 0.802000 11085666
0.245480 -0.120840 0.798000 6442843
0.241789 -0.114531 0.786000 6641005
0.241789 -0.110040 0.786000 7890269
0.241789 -0.105549 0.786000 8553597
0.241789 -0.101057 0.786000 8156789
0.241789 -0.096566 0.786000 8290160
0.241173 -0.091840 0.784000 7872569
0.241173 -0.087360 0.784000 6646366
0.241789 -0.083091 0.786000 6639434
0.242404 -0.078800 0.788000 8281177
0.243942 -0.074769 0.793000 6888218
0.248238 -0.126029 0.802000 10893380
0.247000 -0.120840 0.798000 6179172
0.243286 -0.114531 0.786000 6377834
0.243286 -0.110040 0.786000 8878437
0.243286 -0.105549 0.786000 8617364
0.242667 -0.100800 0.784000 7829370
0.242667 -0.096320 0.784000 7760502
0.242667 -0.091840 0.784000 8016981
0.242667 -0.087360 0.784000 6116415
0.242667 -0.082880 0.784000 6112050
0.243905 -0.078800 0.788000 8543320
0.244833 -0.074580 0.791000 6098708
0.250389 -0.126343 0.804000 10763077
0.248520 -0.120840 0.798000 5917272
0.244783 -0.114531 0.786000 6180708
0.244783 -0.110040 0.786000 9795688
0.244783 -0.105549 0.786000 8740232
0.244160 -0.100800 0.784000 7495260
0.244160 -0.096320 0.784000 7298395
0.244160 -0.091840 0.784000 8151135
0.244160 -0.087360 0.784000 5651012
0.244160 -0.082880 0.784000 5589572
0.244783 -0.078600 0.786000 8878943
0.246340 -0.074580 0.791000 5310997
0.251920 -0.126343 0.804000 9841478
0.250040 -0.120840 0.798000 5981004
0.246280 -0.114531 0.786000 7890013
0.245653 -0.109760 0.784000 9994092
0.245653 -0.105280 0.784000 7694204
0.245653 -0.100800 0.784000 5716287
0.245027 -0.096074 0.782000 6179135
0.245027 -0.091606 0.782000 6644329
0.245653 -0.087360 0.784000 5325384
0.245653 -0.082880 0.784000 5590102
0.246280 -0.078600 0.786000 8809573
0.247220 -0.074391 0.789000 5702679
0.253451 -0.126343 0.804000 8989991
0.250614 -0.120386 0.795000 5985667
0.247777 -0.114531 0.786000 9597821
0.247147 -0.109760 0.784000 10194022
0.247147 -0.105280 0.784000 6646632
0.247147 -0.100800 0.784000 3878196
0.245886 -0.095829 0.780000 5128506
0.246516 -0.091606 0.782000 5132893
0.247147 -0.087360 0.784000 4997457
0.246516 -0.082669 0.782000 5591913
0.247147 -0.078400 0.784000 8811372
0.248408 -0.074297 0.788000 6099244
0.254349 -0.126029 0.802000 10109959
0.253080 -0.120840 0.798000 7237818
0.249274 -0.114531 0.786000 9403805
0.248006 -0.109480 0.782000 9539681
0.248640 -0.105280 0.784000 5987156
0.248006 -0.100543 0.782000 2296873
0.247371 -0.095829 0.780000 5520948
0.248006 -0.091606 0.782000 5459538
0.248006 -0.087137 0.782000 5460569
0.248006 -0.082669 0.782000 6051964
0.248640 -0.078400 0.784000 8941939
0.249274 -0.074109 0.786000 6359617
0.256514 -0.126343 0.804000 11293524
0.253643 -0.120386 0.795000 8423093
0.250771 -0.114531 0.786000 9206952
0.248857 -0.109200 0.780000 8873323
0.248857 -0.104743 0.780000 5327974
0.248538 -0.100157 0.779000 726323
0.248538 -0.095706 0.779000 5914400
0.248538 -0.091254 0.779000 5789279
0.248538 -0.086803 0.779000 5856371
0.248857 -0.082457 0.780000 6515069
0.249495 -0.078200 0.782000 9073520
0.250133 -0.073920 0.784000 6627394
0.257404 -0.126029 0.802000 10841761
0.254515 -0.120083 0.793000 9076655
0.251627 -0.114240 0.784000 9866931
0.250343 -0.109200 0.780000 6969205
0.250022 -0.104609 0.779000 5460600
0.250022 -0.100157 0.779000 2102844
0.249380 -0.095460 0.777000 6112012
0.250022 -0.091254 0.779000 6120812
0.250022 -0.086803 0.779000 6647436
0.250022 -0.082351 0.779000 7174271
0.250343 -0.078000 0.780000 9270124
0.251627 -0.073920 0.784000 6690884
0.258931 -0.126029 0.802000 10394001
0.256026 -0.120083 0.793000 9738176
0.253120 -0.114240 0.784000 10465989
0.251829 -0.109200 0.780000 5070459
0.251506 -0.104609 0.779000 5594238
0.251506 -0.100157 0.779000 3484505
0.251506 -0.095706 0.779000 6374184
0.250860 -0.091020 0.777000 6448743
0.251506 -0.086803 0.779000 7437193
0.251506 -0.082351 0.779000 7829377
0.251506 -0.077900 0.779000 9465960
0.252474 -0.073731 0.782000 6703685
0.260459 -0.126029 0.802000 9733248
0.257536 -0.120083 0.793000 11385809
0.254613 -0.114240 0.784000 11121878
0.252990 -0.109060 0.779000 5396609
0.252990 -0.104609 0.779000 5990787
0.252340 -0.099900 0.777000 4273782
0.252340 -0.095460 0.777000 6765891
0.252340 -0.091020 0.777000 7169890
0.252340 -0.086580 0.777000 7634053
0.252340 -0.082140 0.777000 7894659
0.252990 -0.077900 0.779000 9204067
0.253964 -0.073731 0.782000 7756871
0.261333 -0.125714 0.800000 9140379
0.259047 -0.120083 0.793000 12955603
0.256107 -0.114240 0.784000 11845343
0.254473 -0.109060 0.779000 5727108
0.253820 -0.104340 0.777000 6388105
0.253820 -0.099900 0.777000 5002876
0.253820 -0.095460 0.777000 7218506
0.253820 -0.091020 0.777000 7822920
0.253820 -0.086580 0.777000 7896456
0.253820 -0.082140 0.777000 7959425
0.254473 -0.077900 0.779000 8939866
0.254800 -0.073543 0.780000 8802609
0.262200 -0.125400 0.798000 8881077
0.260557 -0.120083 0.793000 13351382
0.257600 -0.114240 0.784000 11577575
0.255957 -0.109060 0.779000 6187912
0.255300 -0.104340 0.777000 6979470
0.255300 -0.099900 0.777000 5593219
0.255300 -0.095460 0.777000 7424337
0.254643 -0.090786 0.775000 8145966
0.255300 -0.086580 0.777000 8749707
0.255300 -0.082140 0.777000 8023679
0.255300 -0.077700 0.777000 8150609
0.256286 -0.073543 0.780000 8666651
0.257600 -0.069440 0.784000 8538161
0.263720 -0.125400 0.798000 8684993
0.261407 -0.119780 0.791000 13750493
0.259093 -0.114240 0.784000 11307479
0.257441 -0.109060 0.779000 6646404
0.256780 -0.104340 0.777000 7505039
0.256780 -0.099900 0.777000 6186626
0.256780 -0.095460 0.777000 7687276
0.256119 -0.090786 0.775000 8474144
0.256119 -0.086357 0.775000 9537393
0.256119 -0.081929 0.775000 8026504
0.256780 -0.077700 0.777000 7428179
0.257441 -0.073449 0.779000 8471074
0.264908 -0.125243 0.797000 9146573
0.262249 -0.119477 0.789000 14149861
0.259922 -0.113949 0.782000 10917575
0.258925 -0.109060 0.779000 6843520
0.258260 -0.104340 0.777000 7702415
0.257595 -0.099643 0.775000 6709889
0.258260 -0.095460 0.777000 7165575
0.256930 -0.090551 0.773000 8410130
0.257595 -0.086357 0.775000 9136982
0.257595 -0.081929 0.775000 8486290
0.258260 -0.077700 0.777000 7691349
0.258925 -0.073449 0.779000 8536616
0.266426 -0.125243 0.797000 9538011
0.263417 -0.119326 0.788000 14468318
0.261411 -0.113949 0.782000 10592734
0.260409 -0.109060 0.779000 7042703
0.259740 -0.104340 0.777000 7899536
0.259071 -0.099643 0.775000 7238280
0.259740 -0.095460 0.777000 6716309
0.258403 -0.090551 0.773000 8274201
0.258403 -0.086134 0.773000 8736558
0.258403 -0.081717 0.773000 8945797
0.259071 -0.077500 0.775000 7955783
0.259740 -0.073260 0.777000 8537382
0.261411 -0.069263 0.782000 8005638
0.266599 -0.124614 0.793000 11184616
0.265254 -0.119477 0.789000 14069720
0.263573 -0.114240 0.784000 11844597
0.261220 -0.108780 0.777000 8682911
0.261220 -0.104340 0.777000 9210257
0.260548 -0.099643 0.775000 8421520
0.260548 -0.095214 0.775000 7437474
0.259875 -0.090551 0.773000 8276000
0.259875 -0.086134 0.773000 8540678
0.259875 -0.081717 0.773000 8616824
0.259875 -0.077300 0.773000 7823160
0.260548 -0.073071 0.775000 8865572
0.262229 -0.069086 0.780000 7084806
0.268110 -0.124614 0.793000 12828888
0.266757 -0.119477 0.789000 13683683
0.264390 -0.113949 0.782000 13164266
0.262700 -0.108780 0.777000 10257038
0.262024 -0.104071 0.775000 10455694
0.261010 -0.099257 0.772000 9601681
0.261010 -0.094846 0.772000 8230304
0.261348 -0.090551 0.773000 8272700
0.261010 -0.086023 0.772000 8344069
0.261010 -0.081611 0.772000 8281676
0.261348 -0.077300 0.773000 7625025
0.261348 -0.072883 0.773000 9125925
0.262700 -0.068820 0.777000 6164253
0.268940 -0.124300 0.791000 12629960
0.268260 -0.119477 0.789000 14214127
0.266560 -0.114240 0.784000 13487071
0.264180 -0.108780 0.777000 9144190
0.263500 -0.104071 0.775000 10193546
0.262480 -0.099257 0.772000 9863569
0.262480 -0.094846 0.772000 9082526
0.262480 -0.090434 0.772000 5837656
0.262480 -0.086023 0.772000 8803076
0.262480 -0.081611 0.772000 6698016
0.262480 -0.077200 0.772000 7098186
0.262820 -0.072883 0.773000 8469031
0.264180 -0.068820 0.777000 6039347
0.270447 -0.124300 0.791000 12361427
0.269421 -0.119326 0.788000 14670040
0.268053 -0.114240 0.784000 13742815
0.265660 -0.108780 0.777000 8014169
0.263950 -0.103669 0.772000 9928582
0.263950 -0.099257 0.772000 10127753
0.263950 -0.094846 0.772000 9933178
0.263950 -0.090434 0.772000 3414338
0.263267 -0.085800 0.770000 9262854
0.263950 -0.081611 0.772000 5063471
0.263950 -0.077200 0.772000 6571587
0.264292 -0.072883 0.773000 7748138
0.265660 -0.068820 0.777000 5978678
0.270922 -0.119326 0.788000 13289153
0.269547 -0.114240 0.784000 11510239
0.267140 -0.108780 0.777000 6624820
0.265421 -0.103669 0.772000 9139841
0.265421 -0.099257 0.772000 9011841
0.265421 -0.094846 0.772000 7233366
0.265421 -0.090434 0.772000 4721708
0.264733 -0.085800 0.770000 9391367
0.264733 -0.081400 0.770000 6705215
0.265421 -0.077200 0.772000 6572092
0.265421 -0.072789 0.772000 7877420
0.266452 -0.068643 0.775000 5585977
0.272423 -0.119326 0.788000 11896995
0.271040 -0.114240 0.784000 9273021
0.267929 -0.108500 0.775000 5251119
0.266891 -0.103669 0.772000 8416874
0.266891 -0.099257 0.772000 7821681
0.266891 -0.094846 0.772000 4602205
0.266891 -0.090434 0.772000 5971003
0.266200 -0.085800 0.770000 9516821
0.266200 -0.081400 0.770000 8339251
0.266891 -0.077200 0.772000 6635818
0.266891 -0.072789 0.772000 7947310
0.267929 -0.068643 0.775000 5195329
0.273229 -0.119023 0.786000 10567302
0.272533 -0.114240 0.784000 9136539
0.269405 -0.108500 0.775000 5122346
0.268362 -0.103669 0.772000 6507346
0.268362 -0.099257 0.772000 6112866
0.268362 -0.094846 0.772000 5454947
0.267667 -0.090200 0.770000 7352139
0.267667 -0.085800 0.770000 8397603
0.267667 -0.081400 0.770000 7608359
0.267667 -0.077000 0.770000 7885336
0.268362 -0.072789 0.772000 8345393
0.268710 -0.068466 0.773000 5260105
0.275425 -0.119326 0.788000 9205136
0.274027 -0.114240 0.784000 9014430
0.270182 -0.108220 0.773000 4996676
0.269832 -0.103669 0.772000 4542299
0.269832 -0.099257 0.772000 4345707
0.269133 -0.094600 0.770000 6308710
0.269133 -0.090200 0.770000 8733534
0.268434 -0.085577 0.768000 7280964
0.269133 -0.081400 0.770000 6888510
0.269133 -0.077000 0.770000 9201186
0.269832 -0.072789 0.772000 8674108
0.270182 -0.068466 0.773000 5324864
0.276926 -0.119326 0.788000 10783642
0.274817 -0.113949 0.782000 9076897
0.271654 -0.108220 0.773000 7035487
0.271303 -0.103669 0.772000 4937316
0.271303 -0.099257 0.772000 4872053
0.270600 -0.094600 0.770000 6247529
0.270600 -0.090200 0.770000 7292530
0.269897 -0.085577 0.768000 6767973
0.269897 -0.081189 0.768000 6957141
0.270600 -0.077000 0.770000 9132076
0.270600 -0.072600 0.770000 8940360
0.271303 -0.068377 0.772000 5323318
0.277720 -0.119023 0.786000 12290710
0.275247 -0.113511 0.779000 9204614
0.273127 -0.108220 0.773000 9066855
0.272773 -0.103669 0.772000 5397345
0.272773 -0.099257 0.772000 5395298
0.272773 -0.094846 0.772000 6181729
0.272067 -0.090200 0.770000 5785956
0.271360 -0.085577 0.768000 6249855
0.271360 -0.081189 0.768000 6963024
0.272067 -0.077000 0.770000 9065265
0.272067 -0.072600 0.770000 9199941
0.272773 -0.068377 0.772000 5385257
0.279217 -0.119023 0.786000 12422545
0.276730 -0.113511 0.779000 8088171
0.274599 -0.108220 0.773000 5981808
0.273533 -0.103400 0.770000 5132638
0.273533 -0.099000 0.770000 5459280
0.273533 -0.094600 0.770000 5720152
0.273533 -0.090200 0.770000 6114902
0.272468 -0.085466 0.767000 6646424
0.272823 -0.081189 0.768000 7029835
0.272823 -0.076800 0.768000 9460021
0.273533 -0.072600 0.770000 9068097
0.274244 -0.068377 0.772000 4859676
0.280000 -0.118720 0.784000 12484494
0.278214 -0.113511 0.779000 6980468
0.276071 -0.108220 0.773000 2900081
0.275000 -0.103400 0.770000 4933980
0.275000 -0.099000 0.770000 5522777
0.275000 -0.094600 0.770000 5262187
0.275000 -0.090200 0.770000 6444388
0.274286 -0.085577 0.768000 7040652
0.274286 -0.081189 0.768000 7031649
0.274286 -0.076800 0.768000 9919302
0.274286 -0.072411 0.768000 8871502
0.275000 -0.068200 0.770000 4332047
0.281493 -0.118720 0.784000 9799052
0.278980 -0.113220 0.777000 7429244
0.277544 -0.108220 0.773000 3559539
0.276467 -0.103400 0.770000 4999770
0.276467 -0.099000 0.770000 5920355
0.275390 -0.094231 0.767000 5856125
0.275749 -0.089966 0.768000 6313074
0.275390 -0.085466 0.767000 7036799
0.275390 -0.081083 0.767000 6967671
0.275390 -0.076700 0.767000 9066839
0.275749 -0.072411 0.768000 9002843
0.276467 -0.068200 0.770000 3346177
0.282987 -0.118720 0.784000 7041927
0.280460 -0.113220 0.777000 7878789
0.278655 -0.108080 0.772000 4152195
0.277211 -0.103131 0.768000 5064811
0.276850 -0.098614 0.767000 6250099
0.276850 -0.094231 0.767000 6449022
0.276850 -0.089849 0.767000 6182264
0.276129 -0.085243 0.765000 7034494
0.276850 -0.081083 0.767000 6903924
0.276850 -0.076700 0.767000 8149347
0.277211 -0.072411 0.768000 9133148
0.277933 -0.068200 0.770000 2360621
0.285206 -0.119023 0.786000 8618371
0.281940 -0.113220 0.777000 7821965
0.280126 -0.108080 0.772000 5463186
0.278311 -0.102997 0.767000 6445691
0.278311 -0.098614 0.767000 6448770
0.277586 -0.093986 0.765000 6514046
0.278311 -0.089849 0.767000 6510974
0.277586 -0.085243 0.765000 7299197
0.278311 -0.081083 0.767000 6638961
0.277586 -0.076500 0.765000 7101038
0.278311 -0.072317 0.767000 9200477
0.278674 -0.068023 0.768000 5390936
0.285973 -0.118720 0.784000 10190747
0.284150 -0.113511 0.779000 7828127
0.280867 -0.107800 0.770000 6709649
0.279772 -0.102997 0.767000 7825011
0.279043 -0.098357 0.765000 6646399
0.279043 -0.093986 0.765000 6580862
0.279043 -0.089614 0.765000 6774403
0.279043 -0.085243 0.765000 7562116
0.279043 -0.080871 0.765000 6382205
0.279043 -0.076500 0.765000 6052171
0.279043 -0.072129 0.765000 9198155
0.279772 -0.067934 0.767000 8484200
0.288200 -0.119023 0.786000 9998771
0.285633 -0.113511 0.779000 8683953
0.282333 -0.107800 0.770000 8544399
0.281233 -0.102997 0.767000 7689067
0.280500 -0.098357 0.765000 8420733
0.280500 -0.093986 0.765000 7893629
0.280500 -0.089614 0.765000 7367049
0.280500 -0.085243 0.765000 7956363
0.280500 -0.080871 0.765000 7765385
0.280500 -0.076500 0.765000 5057319
0.280500 -0.072129 0.765000 9129786
0.281233 -0.067934 0.767000 8548728
0.283067 -0.063966 0.772000 5655870
0.289697 -0.119023 0.786000 9802426
0.287117 -0.113511 0.779000 9536427
0.283063 -0.107520 0.768000 10383261
0.281220 -0.102460 0.763000 7558013
0.281220 -0.098100 0.763000 10125446
0.281220 -0.093740 0.763000 9205376
0.281220 -0.089380 0.763000 7891584
0.281220 -0.085020 0.763000 8279885
0.281220 -0.080660 0.763000 9133174
0.281220 -0.076300 0.763000 4131882
0.281220 -0.071940 0.763000 9062186
0.281957 -0.067757 0.765000 8673895
0.283800 -0.063800 0.770000 6114352
0.292306 -0.119477 0.789000 10198722
0.289712 -0.113949 0.782000 9600932
0.284526 -0.107520 0.768000 11180460
0.283414 -0.102729 0.765000 8812942
0.282673 -0.098100 0.763000 10260624
0.282673 -0.093740 0.763000 10124419
0.282673 -0.089380 0.763000 8151927
0.281932 -0.084797 0.761000 8073230
0.282673 -0.080660 0.763000 8802915
0.282673 -0.076300 0.763000 5775916
0.282673 -0.071940 0.763000 8208666
0.283414 -0.067757 0.765000 7950421
0.285267 -0.063800 0.770000 6114338
0.291947 -0.118720 0.784000 10522808
0.291202 -0.113949 0.782000 9666226
0.285989 -0.107520 0.768000 11964075
0.284127 -0.102460 0.763000 10128788
0.283382 -0.097843 0.761000 10390413
0.283382 -0.093494 0.761000 11107972
0.283382 -0.089146 0.761000 8349048
0.283382 -0.084797 0.761000 7867719
0.283382 -0.080449 0.761000 8418171
0.283382 -0.076100 0.761000 7430499
0.283382 -0.071751 0.761000 7289370
0.284127 -0.067580 0.763000 7297344
0.285989 -0.063634 0.768000 6111793
0.293440 -0.118720 0.784000 10125229
0.292691 -0.113949 0.782000 10060991
0.288949 -0.108080 0.772000 10315946
0.286329 -0.102729 0.765000 9930905
0.284831 -0.097843 0.761000 10583435
0.284831 -0.093494 0.761000 11240069
0.284831 -0.089146 0.761000 8742266
0.284831 -0.084797 0.761000 8937856
0.284831 -0.080449 0.761000 9477267
0.284831 -0.076100 0.761000 7693210
0.284831 -0.071751 0.761000 7291418
0.285580 -0.067580 0.763000 7295531
0.287451 -0.063634 0.768000 6046017
0.294933 -0.118720 0.784000 9663907
0.293052 -0.113511 0.779000 10455225
0.290419 -0.108080 0.772000 8612518
0.287786 -0.102729 0.765000 9734263
0.287033 -0.098100 0.763000 10782096
0.287033 -0.093740 0.763000 11439507
0.286281 -0.089146 0.761000 9136994
0.286281 -0.084797 0.761000 10061440
0.285905 -0.080343 0.760000 10513489
0.285905 -0.076000 0.760000 8015438
0.286281 -0.071751 0.761000 7222550
0.286281 -0.067403 0.761000 7362857
0.288914 -0.063634 0.768000 5914680
0.296427 -0.118720 0.784000 8678297
0.294536 -0.113511 0.779000 10389171
0.291890 -0.108080 0.772000 9335203
0.288487 -0.102460 0.763000 9990484
0.288487 -0.098100 0.763000 11049109
0.287730 -0.093494 0.761000 10914209
0.287730 -0.089146 0.761000 7755850
0.287352 -0.084686 0.760000 8681344
0.287352 -0.080343 0.760000 5908751
0.287352 -0.076000 0.760000 7091713
0.287352 -0.071657 0.760000 6566418
0.287730 -0.067403 0.761000 7429670
0.290377 -0.063634 0.768000 5520431
0.297160 -0.118417 0.782000 7626633
0.296020 -0.113511 0.779000 10330785
0.292600 -0.107800 0.770000 9995948
0.289940 -0.102460 0.763000 10244950
0.289180 -0.097843 0.761000 11306610
0.289180 -0.093494 0.761000 10387293
0.288800 -0.089029 0.760000 6375509
0.288800 -0.084686 0.760000 7369600
0.288800 -0.080343 0.760000 1248012
0.288040 -0.075800 0.758000 6178827
0.288040 -0.071469 0.758000 5907219
0.289180 -0.067403 0.761000 7563302
0.291460 -0.063551 0.767000 5065784
0.299413 -0.118720 0.784000 7819385
0.297504 -0.113511 0.779000 10453903
0.294067 -0.107800 0.770000 11249846
0.291393 -0.102460 0.763000 9785943
0.290248 -0.097714 0.760000 9921870
0.290248 -0.093371 0.760000 7948312
0.290248 -0.089029 0.760000 6440801
0.290248 -0.084686 0.760000 6640768
0.290248 -0.080343 0.760000 2425098
0.290248 -0.076000 0.760000 4528916
0.289484 -0.071469 0.758000 4260116
0.290630 -0.067403 0.761000 7101989
0.292921 -0.063551 0.767000 4740160
0.300907 -0.118720 0.784000 7952003
0.298988 -0.113511 0.779000 10657661
0.296301 -0.108080 0.772000 12488368
0.292847 -0.102460 0.763000 9388373
0.291695 -0.097714 0.760000 8532028
0.291695 -0.093371 0.760000 5512747
0.290928 -0.088794 0.758000 6442074
0.290928 -0.084463 0.758000 5985633
0.290928 -0.080131 0.758000 3613218
0.290928 -0.075800 0.758000 2884390
0.290928 -0.071469 0.758000 2625604
0.291695 -0.067314 0.760000 6706023
0.294382 -0.063551 0.767000 4407113
0.299700 -0.113220 0.777000 11371114
0.297000 -0.107800 0.770000 12088490
0.294300 -0.102460 0.763000 8997970
0.293143 -0.097714 0.760000 6359594
0.293143 -0.093371 0.760000 5780797
0.292371 -0.088794 0.758000 5193044
0.292371 -0.084463 0.758000 8020033
0.292371 -0.080131 0.758000 7299642
0.292371 -0.075800 0.758000 6041400
0.292371 -0.071469 0.758000 6226292
0.293143 -0.067314 0.760000 8350888
0.295843 -0.063551 0.767000 5901393
0.301180 -0.113220 0.777000 12096098
0.297691 -0.107520 0.768000 11631029
0.295753 -0.102460 0.763000 8674160
0.293815 -0.097457 0.758000 4137763
0.293815 -0.093126 0.758000 5981231
0.293815 -0.088794 0.758000 3881292
0.293815 -0.084463 0.758000 10057555
0.293815 -0.080131 0.758000 10909269
0.293815 -0.075800 0.758000 9136228
0.294590 -0.071657 0.760000 9863845
0.294978 -0.067403 0.761000 10071499
0.297304 -0.063551 0.767000 7371672
0.302660 -0.113220 0.777000 11631962
0.299154 -0.107520 0.768000 10842561
0.297207 -0.102460 0.763000 7814797
0.294480 -0.097200 0.756000 6766877
0.295259 -0.093126 0.758000 7030304
0.295259 -0.088794 0.758000 7229253
0.295259 -0.084463 0.758000 10319205
0.296038 -0.080343 0.760000 11502704
0.295259 -0.075800 0.758000 10784400
0.296038 -0.071657 0.760000 12441558
0.296428 -0.067403 0.761000 12307437
0.298765 -0.063551 0.767000 10996190
0.304140 -0.113220 0.777000 11246717
0.301400 -0.107800 0.770000 10064054
0.298660 -0.102460 0.763000 6947439
0.295920 -0.097200 0.756000 9394231
0.296703 -0.093126 0.758000 8149044
0.296703 -0.088794 0.758000 10518124
0.297486 -0.084686 0.760000 10644867
0.297486 -0.080343 0.760000 12097172
0.297486 -0.076000 0.760000 12495276
0.297877 -0.071751 0.761000 14927308
0.297877 -0.067403 0.761000 14601177
0.303653 -0.112491 0.772000 11178912
0.302080 -0.107520 0.768000 9934508
0.300113 -0.102460 0.763000 9394512
0.297360 -0.097200 0.756000 9988944
0.298147 -0.093126 0.758000 9663048
0.298933 -0.089029 0.760000 11642004
0.298933 -0.084686 0.760000 11111585
0.298933 -0.080343 0.760000 12429495
0.298933 -0.076000 0.760000 12495560
0.300113 -0.071940 0.763000 13939394
0.299327 -0.067403 0.761000 14006469
0.305124 -0.112491 0.772000 11181223
0.304333 -0.107800 0.770000 9800866
0.301567 -0.102460 0.763000 11832696
0.299590 -0.097457 0.758000 10513018
0.299590 -0.093126 0.758000 11246464
0.300381 -0.089029 0.760000 12691878
0.300381 -0.084686 0.760000 11640497
0.300776 -0.080449 0.761000 12693184
0.301567 -0.076300 0.763000 12562119
0.302357 -0.072129 0.765000 12890821
0.306594 -0.112491 0.772000 10778542
0.305006 -0.107520 0.768000 11045784
0.303020 -0.102460 0.763000 12095647
0.301034 -0.097457 0.758000 11108771
0.301034 -0.093126 0.758000 11377079
0.301829 -0.089029 0.760000 12825273
0.301034 -0.084463 0.758000 12430272
0.302226 -0.080449 0.761000 12957897
0.303814 -0.076500 0.765000 13021637
0.303814 -0.072129 0.765000 13219016
0.308464 -0.112637 0.773000 10378904
0.306469 -0.107520 0.768000 12231083
0.304473 -0.102460 0.763000 12362434
0.302478 -0.097457 0.758000 11643582
0.302478 -0.093126 0.758000 11508418
0.303276 -0.089029 0.760000 12955328
0.302478 -0.084463 0.758000 13153218
0.304473 -0.080660 0.763000 13219272
0.306070 -0.076700 0.767000 13480643
0.305271 -0.072129 0.765000 13546435
0.309936 -0.112637 0.773000 12559233
0.308733 -0.107800 0.770000 12561854
0.306729 -0.102729 0.765000 13485284
0.303922 -0.097457 0.758000 12700121
0.303922 -0.093126 0.758000 12363980
0.304724 -0.089029 0.760000 13152455
0.305125 -0.084797 0.761000 13415620
0.305927 -0.080660 0.763000 13350088
0.307530 -0.076700 0.767000 13611712
0.311006 -0.112491 0.772000 14733484
0.310200 -0.107800 0.770000 12825275
0.308991 -0.102997 0.767000 14535896
0.306574 -0.097843 0.761000 13745869
0.305366 -0.093126 0.758000 13217225
0.306171 -0.089029 0.760000 13349833
0.312476 -0.112491 0.772000 14140118
0.311667 -0.107800 0.770000 12889273
0.309643 -0.102729 0.765000 13942219
0.308024 -0.097843 0.761000 13545665
0.306810 -0.093126 0.758000 13481926
0.307619 -0.089029 0.760000 13482444
0.314353 -0.108220 0.773000 12889017
0.312320 -0.103131 0.768000 13285821
0.310287 -0.098100 0.763000 13348283
0.308253 -0.093126 0.758000 13745083
0.315826 -0.108220 0.773000 13152953
0.313783 -0.103131 0.768000 13413551
0.174790 -0.099544 0.823000 13343891
0.175639 -0.095302 0.827000 12685940
0.175639 -0.090576 0.827000 11824494
0.174643 -0.103233 0.815000 12623008
0.175929 -0.099302 0.821000 10582390
0.176357 -0.094841 0.823000 8736829
0.176786 -0.090357 0.825000 8916031
0.175979 -0.107758 0.814000 13474710
0.176195 -0.103233 0.815000 11633785
0.177060 -0.099060 0.819000 7823715
0.177925 -0.094841 0.823000 4736325
0.178357 -0.090357 0.825000 5982802
0.177530 -0.107758 0.814000 9400190
0.177530 -0.103107 0.814000 9597010
0.178184 -0.098818 0.817000 8024144
0.179056 -0.094610 0.821000 6182220
0.179492 -0.090138 0.823000 7176293
0.178640 -0.112133 0.812000 9334159
0.178640 -0.107493 0.812000 5267593
0.178640 -0.102853 0.812000 7499881
0.179080 -0.098455 0.814000 8155984
0.179740 -0.094150 0.817000 7625525
0.180620 -0.089919 0.821000 8351041
0.180630 -0.121712 0.814000 9993643
0.180630 -0.117061 0.814000 8399466
0.180187 -0.112133 0.812000 7298686
0.180187 -0.107493 0.812000 5729940
0.180187 -0.102853 0.812000 6845055
0.180630 -0.098455 0.814000 7369041
0.181296 -0.094150 0.817000 7034398
0.181740 -0.089700 0.819000 8085278
0.181733 -0.126053 0.812000 10981297
0.181733 -0.121413 0.812000 6641067
0.181733 -0.116773 0.812000 4216441
0.181733 -0.112133 0.812000 5204610
0.181733 -0.107493 0.812000 6190486
0.181733 -0.102853 0.812000 6124422
0.182181 -0.098455 0.814000 6515806
0.182405 -0.093919 0.815000 6441516
0.183300 -0.089700 0.819000 7758105
0.184860 -0.136500 0.819000 13610404
0.183957 -0.131176 0.815000 10656177
0.183280 -0.126053 0.812000 8881079
0.183280 -0.121413 0.812000 6714794
0.183280 -0.116773 0.812000 5996936
0.183280 -0.112133 0.812000 5928838
0.183280 -0.107493 0.812000 6388121
0.183280 -0.102853 0.812000 6124428
0.183280 -0.098213 0.812000 6516076
0.183957 -0.093919 0.815000 6839865
0.184409 -0.089481 0.817000 7887637
0.186420 -0.136500 0.819000 13278887
0.185282 -0.131015 0.814000 9280692
0.184371 -0.125743 0.810000 6718621
0.184827 -0.121413 0.812000 6849420
0.184827 -0.116773 0.812000 7701140
0.184827 -0.112133 0.812000 6651021
0.184827 -0.107493 0.812000 6519710
0.184827 -0.102853 0.812000 6125456
0.184827 -0.098213 0.812000 6516345
0.185282 -0.093804 0.814000 7300925
0.185965 -0.089481 0.817000 7953166
0.187980 -0.136500 0.819000 11440041
0.186832 -0.131015 0.814000 9149367
0.185914 -0.125743 0.810000 7045251
0.186373 -0.121413 0.812000 7636333
0.185914 -0.116486 0.810000 7570080
0.185914 -0.111857 0.810000 6848148
0.186373 -0.107493 0.812000 6782371
0.186373 -0.102853 0.812000 6388372
0.186373 -0.098213 0.812000 6648198
0.186373 -0.093573 0.812000 6839105
0.187062 -0.089262 0.815000 8146951
0.189540 -0.136500 0.819000 9541046
0.188614 -0.131176 0.815000 9020063
0.187920 -0.126053 0.812000 7305816
0.187457 -0.121114 0.810000 8357731
0.187457 -0.116486 0.810000 7438982
0.187457 -0.111857 0.810000 7110556
0.187920 -0.107493 0.812000 7045019
0.187920 -0.102853 0.812000 6651274
0.187920 -0.098213 0.812000 6780556
0.187920 -0.093573 0.812000 6447973
0.188383 -0.089152 0.814000 8343830
0.191567 -0.136833 0.821000 10788547
0.190167 -0.131176 0.815000 9149830
0.189467 -0.126053 0.812000 7236909
0.189467 -0.121413 0.812000 8882520
0.189000 -0.116486 0.810000 7438956
0.189000 -0.111857 0.810000 7045028
0.189000 -0.107229 0.810000 7241875
0.189467 -0.102853 0.812000 6912896
0.189467 -0.098213 0.812000 7043731
0.189467 -0.093573 0.812000 7433609
0.189933 -0.089152 0.814000 8870692
0.192660 -0.136500 0.819000 11972510
0.191484 -0.131015 0.814000 9216163
0.191013 -0.126053 0.812000 7105059
0.191013 -0.121413 0.812000 9406258
0.190543 -0.116486 0.810000 7373651
0.190543 -0.111857 0.810000 7044768
0.190543 -0.107229 0.810000 7438220
0.190543 -0.102600 0.810000 7174509
0.190543 -0.097971 0.810000 7240331
0.191013 -0.093573 0.812000 8483463
0.191484 -0.089152 0.814000 9328429
0.194694 -0.136833 0.821000 12173945
0.193034 -0.131015 0.814000 8888512
0.192560 -0.126053 0.812000 6579226
0.192086 -0.121114 0.810000 8352780
0.192086 -0.116486 0.810000 7962683
0.192086 -0.111857 0.810000 6716571
0.192086 -0.107229 0.810000 7765892
0.192086 -0.102600 0.810000 7633497
0.192086 -0.097971 0.810000 7108738
0.192086 -0.093343 0.810000 8483461
0.192560 -0.088933 0.812000 8868405
0.196258 -0.136833 0.821000 12370324
0.194585 -0.131015 0.814000 8629696
0.194107 -0.126053 0.812000 6054709
0.193629 -0.121114 0.810000 7299865
0.193629 -0.116486 0.810000 8550710
0.193150 -0.111581 0.808000 6453906
0.193629 -0.107229 0.810000 8028042
0.193629 -0.102600 0.810000 8157258
0.193629 -0.097971 0.810000 6977923
0.193629 -0.093343 0.810000 8418953
0.194107 -0.088933 0.812000 8342070
0.197822 -0.136833 0.821000 10533296
0.196135 -0.131015 0.814000 9282495
0.195653 -0.126053 0.812000 5663056
0.195171 -0.121114 0.810000 6512934
0.194690 -0.116198 0.808000 7891505
0.194690 -0.111581 0.808000 6386569
0.194690 -0.106964 0.808000 7044751
0.194690 -0.102347 0.808000 8025915
0.194690 -0.097730 0.808000 6847365
0.194690 -0.093112 0.808000 8419213
0.195653 -0.088933 0.812000 8011575
0.196376 -0.084605 0.815000 8213790
0.199386 -0.136833 0.821000 8694692
0.197686 -0.131015 0.814000 9939640
0.196714 -0.125743 0.810000 5203814
0.196229 -0.120815 0.808000 5727055
0.196229 -0.116198 0.808000 7236136
0.196229 -0.111581 0.808000 6384201
0.196229 -0.106964 0.808000 5988204
0.196229 -0.102347 0.808000 7959844
0.196229 -0.097730 0.808000 6649441
0.196229 -0.093112 0.808000 8419470
0.196714 -0.088714 0.810000 7682872
0.197929 -0.084605 0.815000 8801571
0.200950 -0.136833 0.821000 10332569
0.199236 -0.131015 0.814000 11117744
0.198257 -0.125743 0.810000 5071485
0.197768 -0.120815 0.808000 6513527
0.197278 -0.115910 0.806000 9273119
0.197278 -0.111305 0.806000 8091145
0.197768 -0.106964 0.808000 3221321
0.197768 -0.102347 0.808000 8288780
0.197278 -0.097488 0.806000 7630141
0.197278 -0.092882 0.806000 8418959
0.198257 -0.088714 0.810000 7017786
0.199236 -0.084501 0.814000 7943975
0.204487 -0.142904 0.829000 12104327
0.202513 -0.136833 0.821000 11906176
0.201033 -0.131176 0.815000 12292231
0.199800 -0.125743 0.810000 4943735
0.199307 -0.120815 0.808000 7360607
0.198813 -0.115910 0.806000 11238423
0.198813 -0.111305 0.806000 9796640
0.198813 -0.106699 0.806000 406336
0.198813 -0.102093 0.806000 8687119
0.198320 -0.097246 0.804000 8548397
0.198813 -0.092882 0.806000 8419468
0.199307 -0.088495 0.808000 6369596
0.200787 -0.084501 0.814000 7083287
0.205569 -0.142559 0.827000 12759945
0.204574 -0.137167 0.823000 10981736
0.202586 -0.131176 0.815000 12754525
0.201343 -0.125743 0.810000 6517105
0.200349 -0.120516 0.806000 7163206
0.199851 -0.115623 0.804000 8413200
0.200349 -0.111305 0.806000 9862454
0.199851 -0.106434 0.804000 328247
0.199851 -0.101840 0.804000 8551953
0.199851 -0.097246 0.804000 10327837
0.199851 -0.092651 0.804000 8288904
0.200846 -0.088495 0.808000 5975103
0.201840 -0.084293 0.812000 6494215
0.206643 -0.142214 0.825000 13479039
0.205641 -0.136833 0.821000 10001772
0.204138 -0.131176 0.815000 13270616
0.202886 -0.125743 0.810000 8025437
0.201884 -0.120516 0.806000 6955325
0.201383 -0.115623 0.804000 5589530
0.201383 -0.111029 0.804000 9866534
0.201383 -0.106434 0.804000 208181
0.201383 -0.101840 0.804000 8421914
0.201383 -0.097246 0.804000 12091420
0.201383 -0.092651 0.804000 8160143
0.202385 -0.088495 0.808000 5521741
0.203387 -0.084293 0.812000 5977651
0.208214 -0.142214 0.825000 13280885
0.207205 -0.136833 0.821000 9928304
0.206195 -0.131498 0.817000 13409619
0.204429 -0.125743 0.810000 9468490
0.202914 -0.120217 0.804000 7224884
0.202914 -0.115623 0.804000 4732196
0.202914 -0.111029 0.804000 9861398
0.202914 -0.106434 0.804000 855860
0.202914 -0.101840 0.804000 9534498
0.202914 -0.097246 0.804000 11571228
0.202914 -0.092651 0.804000 7698837
0.203924 -0.088495 0.808000 7104346
0.204933 -0.084293 0.812000 7493470
0.209786 -0.142214 0.825000 13077626
0.208260 -0.136500 0.819000 9867903
0.207243 -0.131176 0.815000 13538131
0.205463 -0.125432 0.808000 10844989
0.204446 -0.120217 0.804000 7553051
0.203937 -0.115335 0.802000 3881244
0.204446 -0.111029 0.804000 9803814
0.204446 -0.106434 0.804000 1520959
0.203937 -0.101587 0.802000 10648853
0.203937 -0.097004 0.802000 10972969
0.204446 -0.092651 0.804000 7240595
0.204954 -0.088276 0.806000 8609107
0.205971 -0.084086 0.810000 9068883
0.209820 -0.136500 0.819000 10265486
0.208795 -0.131176 0.815000 12683603
0.207002 -0.125432 0.808000 10974512
0.205977 -0.120217 0.804000 7418881
0.205465 -0.115335 0.802000 5581588
0.205977 -0.111029 0.804000 9729590
0.205465 -0.106170 0.802000 3557963
0.205465 -0.101587 0.802000 10710023
0.205465 -0.097004 0.802000 9527095
0.205465 -0.092421 0.802000 7436177
0.205977 -0.088057 0.804000 8211788
0.207514 -0.084086 0.810000 7286855
0.211380 -0.136500 0.819000 10592895
0.210348 -0.131176 0.815000 11893341
0.208541 -0.125432 0.808000 11032380
0.206992 -0.119918 0.802000 7275267
0.206992 -0.115335 0.802000 7223580
0.206992 -0.110752 0.802000 9659971
0.206992 -0.106170 0.802000 5524032
0.206992 -0.101587 0.802000 10839812
0.206992 -0.097004 0.802000 8021823
0.206992 -0.092421 0.802000 7633296
0.207509 -0.088057 0.804000 7756903
0.209057 -0.084086 0.810000 5512491
0.212940 -0.136500 0.819000 11379055
0.211900 -0.131176 0.815000 11359591
0.209560 -0.125122 0.806000 10302792
0.208520 -0.119918 0.802000 6099205
0.208520 -0.115335 0.802000 8860964
0.208520 -0.110752 0.802000 8470352
0.208520 -0.106170 0.802000 8144181
0.208520 -0.101587 0.802000 9848577
0.208520 -0.097004 0.802000 7494984
0.208520 -0.092421 0.802000 7436174
0.208520 -0.087838 0.802000 8944002
0.209560 -0.083670 0.806000 5844750
0.214500 -0.136500 0.819000 12084837
0.213452 -0.131176 0.815000 10901874
0.211095 -0.125122 0.806000 9519484
0.210048 -0.119918 0.802000 4921425
0.209524 -0.115048 0.800000 10431792
0.210048 -0.110752 0.802000 7216473
0.209524 -0.105905 0.800000 10699051
0.210048 -0.101587 0.802000 8854273
0.209524 -0.096762 0.800000 6904652
0.209524 -0.092190 0.800000 7240338
0.210048 -0.087838 0.802000 10057085
0.210571 -0.083463 0.804000 6182726
0.216060 -0.136500 0.819000 9966939
0.215005 -0.131176 0.815000 9856893
0.212630 -0.125122 0.806000 7557296
0.211575 -0.119918 0.802000 5063068
0.211048 -0.115048 0.800000 8134973
0.211575 -0.110752 0.802000 6043490
0.211048 -0.105905 0.800000 8799521
0.211048 -0.101333 0.800000 8132097
0.211048 -0.096762 0.800000 6446160
0.211048 -0.092190 0.800000 7305877
0.211048 -0.087619 0.800000 9859961
0.212103 -0.083463 0.804000 7956861
0.218151 -0.136833 0.821000 7876744
0.216557 -0.131176 0.815000 8880574
0.214166 -0.125122 0.806000 5604550
0.213103 -0.119918 0.802000 5272985
0.212571 -0.115048 0.800000 5788526
0.212571 -0.110476 0.800000 4810115
0.212040 -0.105640 0.798000 6904418
0.211774 -0.100953 0.797000 7471419
0.212571 -0.096762 0.800000 5988466
0.212571 -0.092190 0.800000 7437206
0.212571 -0.087619 0.800000 9663350
0.213634 -0.083463 0.804000 9794931
0.220250 -0.137167 0.823000 7751861
0.217842 -0.131015 0.814000 9283326
0.215701 -0.125122 0.806000 6856156
0.214630 -0.119918 0.802000 5994645
0.213560 -0.114760 0.798000 6520992
0.213560 -0.110200 0.798000 6125988
0.213292 -0.105508 0.797000 7044772
0.213292 -0.100953 0.797000 6831989
0.214095 -0.096762 0.800000 6782356
0.213560 -0.091960 0.798000 7765143
0.214095 -0.087619 0.800000 9465972
0.214630 -0.083255 0.802000 9663080
0.221818 -0.137167 0.823000 7570903
0.219662 -0.131176 0.815000 9615099
0.216697 -0.124811 0.804000 8100827
0.215619 -0.119619 0.800000 6781079
0.214810 -0.114616 0.797000 7241887
0.214810 -0.110062 0.797000 7372962
0.214271 -0.105243 0.795000 7110816
0.214271 -0.100700 0.795000 6257039
0.214810 -0.096399 0.797000 7570073
0.214810 -0.091845 0.797000 8027545
0.214810 -0.087290 0.797000 9270392
0.215619 -0.083048 0.800000 9530985
0.223386 -0.137167 0.823000 8433914
0.221214 -0.131176 0.815000 9483255
0.218229 -0.124811 0.804000 9151707
0.216600 -0.119320 0.798000 6977944
0.216329 -0.114616 0.797000 7634847
0.215786 -0.109786 0.795000 7635104
0.215786 -0.105243 0.795000 7504028
0.215786 -0.100700 0.795000 7176872
0.215786 -0.096157 0.795000 7767966
0.215786 -0.091614 0.795000 8223899
0.216329 -0.087290 0.797000 9205116
0.217143 -0.083048 0.800000 9727849
0.224953 -0.137167 0.823000 9285876
0.222767 -0.131176 0.815000 9286392
0.219760 -0.124811 0.804000 10199263
0.218120 -0.119320 0.798000 7240337
0.217847 -0.114616 0.797000 7963554
0.217300 -0.109786 0.795000 7962529
0.217300 -0.105243 0.795000 7832222
0.216753 -0.100447 0.793000 8160162
0.217300 -0.096157 0.795000 7892085
0.217300 -0.091614 0.795000 8417872
0.217300 -0.087071 0.795000 9139839
0.218120 -0.082840 0.798000 9859177
0.226521 -0.137167 0.823000 9021679
0.224870 -0.131498 0.817000 10007544
0.221291 -0.124811 0.804000 10663140
0.219365 -0.119170 0.797000 7436426
0.218814 -0.114329 0.795000 8161958
0.218814 -0.109786 0.795000 8291490
0.218814 -0.105243 0.795000 8029600
0.218814 -0.100700 0.795000 8222363
0.218264 -0.095915 0.793000 8073035
0.218264 -0.091384 0.793000 8408068
0.218264 -0.086852 0.793000 9139587
0.219640 -0.082840 0.798000 9597032
0.228089 -0.137167 0.823000 8694765
0.226426 -0.131498 0.817000 10728947
0.222269 -0.124501 0.802000 11055849
0.220883 -0.119170 0.797000 7633555
0.220329 -0.114329 0.795000 8289425
0.220329 -0.109786 0.795000 8619142
0.220329 -0.105243 0.795000 8222591
0.219774 -0.100447 0.793000 8287856
0.219774 -0.095915 0.793000 8207172
0.219774 -0.091384 0.793000 8472598
0.219774 -0.086852 0.793000 9139840
0.220329 -0.082529 0.795000 9334888
0.229098 -0.136833 0.821000 8891628
0.227982 -0.131498 0.817000 11122158
0.224354 -0.124811 0.804000 11784174
0.222680 -0.119320 0.798000 7898523
0.221843 -0.114329 0.795000 8214141
0.221285 -0.109510 0.793000 8546921
0.221285 -0.104978 0.793000 8279390
0.221285 -0.100447 0.793000 8542532
0.221285 -0.095915 0.793000 8543292
0.220727 -0.091153 0.791000 8807463
0.220727 -0.086633 0.791000 9139837
0.221843 -0.082529 0.795000 9069928
0.223796 -0.078672 0.802000 8011280
0.230662 -0.136833 0.821000 9089258
0.228976 -0.131176 0.815000 11514347
0.225886 -0.124811 0.804000 12500961
0.223919 -0.119170 0.797000 8224885
0.223357 -0.114329 0.795000 8078429
0.223357 -0.109786 0.795000 8541540
0.222795 -0.104978 0.793000 8344666
0.222795 -0.100447 0.793000 8736832
0.222795 -0.095915 0.793000 8807243
0.222233 -0.091153 0.791000 9202752
0.222233 -0.086633 0.791000 9140092
0.222795 -0.082321 0.793000 8875370
0.224762 -0.078476 0.800000 6765595
0.232226 -0.136833 0.821000 9482217
0.231094 -0.131498 0.817000 11187687
0.227417 -0.124811 0.804000 11976661
0.225437 -0.119170 0.797000 8206415
0.224306 -0.114041 0.793000 8662077
0.224306 -0.109510 0.793000 8871007
0.224306 -0.104978 0.793000 8347735
0.224306 -0.100447 0.793000 9199931
0.224306 -0.095915 0.793000 8610905
0.223740 -0.091153 0.791000 8807257
0.224306 -0.086852 0.793000 9009787
0.224306 -0.082321 0.793000 8808299
0.226286 -0.078476 0.800000 6831399
0.233220 -0.136500 0.819000 9811173
0.231796 -0.131015 0.814000 10859755
0.228949 -0.124811 0.804000 11438522
0.226955 -0.119170 0.797000 8192577
0.225816 -0.114041 0.793000 9261891
0.225816 -0.109510 0.793000 9204062
0.225247 -0.104713 0.791000 8350052
0.225247 -0.100193 0.791000 9660251
0.225816 -0.095915 0.793000 8416371
0.225247 -0.091153 0.791000 8413297
0.225247 -0.086633 0.791000 8877438
0.225816 -0.082321 0.793000 8811372
0.227240 -0.078280 0.798000 6898487
0.234207 -0.136167 0.817000 10598882
0.232200 -0.130371 0.810000 10991342
0.230480 -0.124811 0.804000 11495328
0.227900 -0.118871 0.795000 9129522
0.227327 -0.114041 0.793000 9336650
0.227327 -0.109510 0.793000 8875357
0.226753 -0.104713 0.791000 8352113
0.226753 -0.100193 0.791000 8612475
0.226753 -0.095673 0.791000 8484238
0.226180 -0.090923 0.789000 8418441
0.226753 -0.086633 0.791000 8879233
0.227327 -0.082321 0.793000 8940141
0.228760 -0.078280 0.798000 7952712
0.235186 -0.135833 0.815000 11385310
0.233743 -0.130371 0.810000 11187952
0.232011 -0.124811 0.804000 11568028
0.229991 -0.119170 0.797000 9988893
0.228837 -0.114041 0.793000 9336171
0.228260 -0.109233 0.791000 8549504
0.227683 -0.104449 0.789000 8354696
0.227683 -0.099940 0.789000 7630206
0.227683 -0.095431 0.789000 8484726
0.227683 -0.090923 0.789000 8487249
0.228260 -0.086633 0.791000 8879752
0.228837 -0.082321 0.793000 9073263
0.229991 -0.078182 0.797000 9001811
0.236448 -0.135667 0.814000 11516634
0.235286 -0.130371 0.810000 11445745
0.233543 -0.124811 0.804000 12366488
0.231510 -0.119170 0.797000 8474375
0.229767 -0.113753 0.791000 9337484
0.229767 -0.109233 0.791000 8882594
0.229186 -0.104449 0.789000 8621728
0.228895 -0.099813 0.788000 8218752
0.229186 -0.095431 0.789000 8414815
0.229186 -0.090923 0.789000 7755033
0.229186 -0.086414 0.789000 8880784
0.229767 -0.082113 0.791000 9402481
0.231510 -0.078182 0.797000 8084063
0.238290 -0.135833 0.815000 11646676
0.236829 -0.130371 0.810000 11707847
0.235074 -0.124811 0.804000 13147032
0.232443 -0.118871 0.795000 7012654
0.231273 -0.113753 0.791000 9272674
0.230689 -0.108957 0.789000 9277838
0.230396 -0.104316 0.788000 8873046
0.230396 -0.099813 0.788000 8866629
0.230396 -0.095310 0.788000 8268855
0.230396 -0.090808 0.788000 7078157
0.230689 -0.086414 0.789000 8814460
0.231858 -0.082321 0.793000 9795702
0.232443 -0.077986 0.795000 7160371
0.239843 -0.135833 0.815000 11710671
0.238960 -0.130693 0.812000 12099229
0.237194 -0.125122 0.806000 11835032
0.233957 -0.118871 0.795000 6235220
0.232780 -0.113753 0.791000 7566136
0.232191 -0.108957 0.789000 7758969
0.231897 -0.104316 0.788000 8788492
0.231897 -0.099813 0.788000 8787210
0.231897 -0.095310 0.788000 8389391
0.231897 -0.090808 0.788000 7406081
0.232191 -0.086414 0.789000 9078633
0.232780 -0.082113 0.791000 8941691
0.233957 -0.077986 0.795000 6816264
0.239914 -0.130371 0.810000 12490627
0.238730 -0.125122 0.806000 10459576
0.234879 -0.118572 0.793000 5460839
0.233694 -0.113466 0.789000 5847336
0.233398 -0.108819 0.788000 6306373
0.233398 -0.104316 0.788000 8718866
0.233398 -0.099813 0.788000 8717072
0.232806 -0.095069 0.786000 8456723
0.232806 -0.090577 0.786000 7799555
0.233398 -0.086305 0.788000 9339247
0.233694 -0.081906 0.789000 8090485
0.235471 -0.077986 0.795000 6426127
0.241457 -0.130371 0.810000 12228457
0.240265 -0.125122 0.806000 10405080
0.236390 -0.118572 0.793000 6119801
0.235197 -0.113466 0.789000 4327960
0.234899 -0.108819 0.788000 5774096
0.234899 -0.104316 0.788000 8981017
0.234303 -0.099560 0.786000 8718613
0.234303 -0.095069 0.786000 8458263
0.234303 -0.090577 0.786000 7800836
0.234303 -0.086086 0.786000 8948341
0.234899 -0.081802 0.788000 8021870
0.235793 -0.077593 0.791000 5439766
0.243000 -0.130371 0.810000 11965330
0.241200 -0.124811 0.804000 10330033
0.238500 -0.118871 0.795000 6781305
0.236400 -0.113322 0.788000 2759204
0.236400 -0.108819 0.788000 5249561
0.236400 -0.104316 0.788000 9178642
0.235800 -0.099560 0.786000 8719883
0.235800 -0.095069 0.786000 8457745
0.235800 -0.090577 0.786000 7867657
0.235800 -0.086086 0.786000 8487288
0.236400 -0.081802 0.788000 7959407
0.237300 -0.077593 0.791000 4393509
0.244543 -0.130371 0.810000 11573179
0.242128 -0.124501 0.802000 10195083
0.240014 -0.118871 0.795000 6181497
0.237901 -0.113322 0.788000 3021871
0.237901 -0.108819 0.788000 5378337
0.237297 -0.104051 0.786000 8588043
0.237297 -0.099560 0.786000 8062209
0.237297 -0.095069 0.786000 7801355
0.236693 -0.090347 0.784000 8068366
0.237297 -0.086086 0.786000 8420475
0.237297 -0.081594 0.786000 8351343
0.238807 -0.077593 0.791000 5374260
0.243655 -0.124501 0.802000 10053236
0.241529 -0.118871 0.795000 5595505
0.239402 -0.113322 0.788000 3222091
0.238794 -0.108543 0.786000 5441846
0.238794 -0.104051 0.786000 7934524
0.238794 -0.099560 0.786000 7406134
0.238794 -0.095069 0.786000 7148841
0.238187 -0.090347 0.784000 8325649
0.238794 -0.086086 0.786000 8286581
0.238794 -0.081594 0.786000 8677737
0.240313 -0.077593 0.791000 6297396
0.245183 -0.124501 0.802000 10174558
0.241209 -0.117974 0.789000 5656937
0.240291 -0.113034 0.786000 5725288
0.240291 -0.108543 0.786000 6894666
0.240291 -0.104051 0.786000 8202349
0.239680 -0.099307 0.784000 7885675
0.240291 -0.095069 0.786000 7547719
0.239680 -0.090347 0.784000 7938323
0.239680 -0.085867 0.784000 7168879
0.240291 -0.081594 0.786000 8413026
0.241209 -0.077397 0.789000 6689076
0.246710 -0.129084 0.802000 11443885
0.246710 -0.124501 0.802000 10239062
0.242711 -0.117974 0.789000 5789036
0.241789 -0.113034 0.786000 8148324
0.241789 -0.108543 0.786000 8277086
0.241789 -0.104051 0.786000 8416636
0.241173 -0.099307 0.784000 8419951
0.241173 -0.094827 0.784000 7948115
0.241173 -0.090347 0.784000 7542586
0.241173 -0.085867 0.784000 6052170
0.241789 -0.081594 0.786000 8083293
0.242711 -0.077397 0.789000 7023156
0.248238 -0.129084 0.802000 10967431
0.248238 -0.124501 0.802000 10240847
0.243905 -0.117825 0.788000 6642542
0.243286 -0.113034 0.786000 5649249
0.243286 -0.108543 0.786000 8942961
0.243286 -0.104051 0.786000 8291467
0.242667 -0.099307 0.784000 7827059
0.242667 -0.094827 0.784000 7758688
0.242667 -0.090347 0.784000 7294817
0.242667 -0.085867 0.784000 5785382
0.243286 -0.081594 0.786000 7951959
0.243905 -0.077299 0.788000 7350323
0.251011 -0.129728 0.806000 10552192
0.249766 -0.124501 0.802000 10237249
0.245406 -0.117825 0.788000 7561844
0.244783 -0.113034 0.786000 3166308
0.244783 -0.108543 0.786000 9535085
0.244783 -0.104051 0.786000 8153208
0.244160 -0.099307 0.784000 7233617
0.244160 -0.094827 0.784000 7558998
0.243537 -0.090116 0.782000 6974572
0.244160 -0.085867 0.784000 5456952
0.244160 -0.081387 0.784000 7818843
0.245406 -0.077299 0.788000 7683388
0.252547 -0.129728 0.806000 10697592
0.251293 -0.124501 0.802000 8657970
0.246907 -0.117825 0.788000 7759226
0.246280 -0.113034 0.786000 6247526
0.245653 -0.108267 0.784000 9404520
0.245653 -0.103787 0.784000 6575973
