# .PCD v.7 - Point Cloud Data file format
VERSION .7
FIELDS x y z rgb
SIZE 4 4 4 4
TYPE F F F I
COUNT 1 1 1 1
WIDTH 1338
HEIGHT 1
POINTS 1338
DATA ascii
0.099187 0.109507 0.602000 7818092
0.098857 0.112571 0.600000 9341835
0.098857 0.116000 0.600000 9732998
0.098363 0.118831 0.597000 10780516
0.098198 0.122038 0.596000 5973831
0.098033 0.125233 0.595000 7553295
0.097869 0.128417 0.594000 9394479
0.097704 0.131590 0.593000 12103843
0.097869 0.135206 0.594000 10389925
0.098363 0.139300 0.597000 9995942
0.098692 0.143190 0.599000 11707086
0.100010 0.148570 0.607000 13151424
0.100670 0.153041 0.611000 12890312
0.100999 0.157045 0.613000 14405089
0.111167 0.026045 0.667000 10526875
0.110500 0.029677 0.663000 11975320
0.110000 0.033314 0.660000 13223531
0.109500 0.036917 0.657000 7581333
0.109167 0.040548 0.655000 10125706
0.108667 0.044088 0.652000 10304567
0.108000 0.047520 0.648000 9812461
0.107667 0.051065 0.646000 9681406
0.107333 0.054587 0.644000 11191550
0.106667 0.057905 0.640000 10656463
0.106333 0.061370 0.638000 13406854
0.105833 0.064710 0.635000 12565212
0.105333 0.068015 0.632000 8866458
0.104667 0.071173 0.628000 4664393
0.104167 0.074405 0.625000 5453140
0.104000 0.077851 0.624000 5658804
0.103667 0.081156 0.622000 7829166
0.103167 0.084302 0.619000 15065060
0.102667 0.087413 0.616000 10989540
0.102167 0.090490 0.613000 10984933
0.101833 0.093687 0.611000 7567040
0.101167 0.096542 0.607000 6366567
0.101000 0.099846 0.606000 7493498
0.100833 0.103138 0.605000 2828152
0.100667 0.106419 0.604000 5065345
0.100167 0.109325 0.601000 8926598
0.099833 0.112384 0.599000 9467264
0.099667 0.115613 0.598000 9601147
0.099333 0.118632 0.596000 10246755
0.099167 0.121833 0.595000 6242119
0.099000 0.125023 0.594000 7818025
0.098833 0.128201 0.593000 10247493
0.098667 0.131368 0.592000 11903651
0.099000 0.135206 0.594000 10325158
0.099333 0.139067 0.596000 9867949
0.099833 0.143190 0.599000 12365259
0.101000 0.148326 0.606000 12496583
0.101833 0.153041 0.611000 12889801
0.102167 0.157045 0.613000 14405086
0.112437 0.026045 0.667000 9805485
0.111763 0.029677 0.663000 12305301
0.111594 0.033415 0.662000 13224535
0.110751 0.036917 0.657000 8106152
0.110414 0.040548 0.655000 9803922
0.109909 0.044088 0.652000 9191704
0.109234 0.047520 0.648000 9618164
0.108897 0.051065 0.646000 9746942
0.108560 0.054587 0.644000 11126270
0.107886 0.057905 0.640000 11120638
0.107549 0.061370 0.638000 12946056
0.107043 0.064710 0.635000 12433627
0.106537 0.068015 0.632000 10112415
0.106031 0.071287 0.629000 7421518
0.105357 0.074405 0.625000 4204879
0.105189 0.077851 0.624000 7765191
0.104851 0.081156 0.622000 11190741
0.104346 0.084302 0.619000 14205642
0.103840 0.087413 0.616000 10984941
0.103503 0.090638 0.614000 13227006
0.102997 0.093687 0.611000 9742041
0.102323 0.096542 0.607000 8151177
0.102154 0.099846 0.606000 8817063
0.101817 0.102968 0.604000 4998525
0.101480 0.106067 0.602000 7365541
0.101143 0.109143 0.600000 9722784
0.100806 0.112196 0.598000 8143220
0.100469 0.115227 0.596000 9067888
0.100131 0.118234 0.594000 8397410
0.099963 0.121424 0.593000 6371911
0.099963 0.124812 0.593000 9333315
0.099457 0.127552 0.590000 10318426
0.099457 0.130924 0.590000 10913444
0.099963 0.134978 0.593000 10392486
0.100469 0.139067 0.596000 11114932
0.100974 0.143190 0.599000 12233671
0.101986 0.148081 0.605000 12825807
0.102997 0.153041 0.611000 12693961
0.103503 0.157301 0.614000 14470875
0.113708 0.026045 0.667000 9085116
0.113026 0.029677 0.663000 12699841
0.112685 0.033365 0.661000 13159810
0.112003 0.036917 0.657000 8628358
0.111662 0.040548 0.655000 9470603
0.111150 0.044088 0.652000 8063844
0.110469 0.047520 0.648000 9421817
0.110128 0.051065 0.646000 9878013
0.109787 0.054587 0.644000 11059964
0.109105 0.057905 0.640000 11521789
0.108764 0.061370 0.638000 12422805
0.108252 0.064710 0.635000 12302556
0.107741 0.068015 0.632000 11361955
0.107059 0.071173 0.628000 10244953
0.106548 0.074405 0.625000 2893663
0.106377 0.077851 0.624000 9881045
0.106036 0.081156 0.622000 14470874
0.105525 0.084302 0.619000 13357281
0.105013 0.087413 0.616000 10988776
0.104502 0.090490 0.613000 15524859
0.104161 0.093687 0.611000 11906263
0.103479 0.096542 0.607000 9870003
0.103138 0.099681 0.605000 10124963
0.102797 0.102797 0.603000 7105451
0.102627 0.106067 0.602000 9670324
0.102115 0.108961 0.599000 10527931
0.101774 0.112009 0.597000 6843266
0.101433 0.115033 0.595000 8544408
0.100922 0.117836 0.592000 6568829
0.100751 0.121014 0.591000 6505309
0.100410 0.123970 0.589000 10773322
0.100240 0.127120 0.588000 10385292
0.100410 0.130702 0.589000 9866146
0.100922 0.134750 0.592000 10461616
0.101604 0.139067 0.596000 12297151
0.102115 0.143190 0.599000 12167113
0.103309 0.148326 0.606000 13087437
0.104331 0.153291 0.612000 12496840
0.105013 0.157813 0.616000 14535388
0.115323 0.026123 0.669000 9153483
0.114289 0.029677 0.663000 11256045
0.113944 0.033365 0.661000 13623981
0.113254 0.036917 0.657000 10131555
0.112565 0.040424 0.653000 10845829
0.112392 0.044088 0.652000 8478640
0.112048 0.047667 0.650000 9421054
0.111358 0.051065 0.646000 10139388
0.111013 0.054587 0.644000 11125755
0.110324 0.057905 0.640000 11517692
0.109979 0.061370 0.638000 12230049
0.109462 0.064710 0.635000 11909084
0.108945 0.068015 0.632000 11692455
0.108255 0.071173 0.628000 10372707
0.107738 0.074405 0.625000 4981359
0.107566 0.077851 0.624000 10467299
0.107221 0.081156 0.622000 14541536
0.106704 0.084302 0.619000 14409720
0.106187 0.087413 0.616000 11307236
0.105670 0.090490 0.613000 16117495
0.105325 0.093687 0.611000 11312341
0.104635 0.096542 0.607000 11184348
0.104290 0.099681 0.605000 9930144
0.103946 0.102797 0.603000 8817113
0.103601 0.105890 0.601000 9412547
0.103256 0.108961 0.599000 10788566
0.102739 0.111821 0.596000 8417937
0.102394 0.114840 0.594000 10453183
0.101877 0.117637 0.591000 8868249
0.101705 0.120810 0.590000 7820402
0.101532 0.123970 0.589000 10314578
0.101360 0.127120 0.588000 10784445
0.101532 0.130702 0.589000 9733536
0.101877 0.134523 0.591000 10787770
0.102567 0.138833 0.595000 12759754
0.103256 0.143190 0.599000 12298955
0.104463 0.148326 0.606000 12956876
0.105497 0.153291 0.612000 12496582
0.106359 0.158070 0.617000 14404830
0.116597 0.026123 0.669000 9217200
0.115551 0.029677 0.663000 9812133
0.115203 0.033365 0.661000 14073739
0.114506 0.036917 0.657000 11698784
0.113809 0.040424 0.653000 12158077
0.113634 0.044088 0.652000 8816301
0.112937 0.047520 0.648000 9355006
0.112763 0.051144 0.647000 10401274
0.112240 0.054587 0.644000 11190521
0.111717 0.057995 0.641000 11521533
0.111369 0.061466 0.639000 11964055
0.110497 0.064608 0.634000 11580634
0.110149 0.068015 0.632000 12020904
0.109451 0.071173 0.628000 10439005
0.109103 0.074524 0.626000 7096695
0.108929 0.077976 0.625000 11057379
0.108406 0.081156 0.622000 14535645
0.107883 0.084302 0.619000 15454710
0.107360 0.087413 0.616000 11646183
0.106837 0.090490 0.613000 16645883
0.106489 0.093687 0.611000 10649530
0.105791 0.096542 0.607000 12425906
0.105443 0.099681 0.605000 9735063
0.104920 0.102627 0.602000 10530516
0.104571 0.105714 0.600000 9145255
0.104223 0.108779 0.598000 11044823
0.103874 0.111821 0.596000 9930147
0.103526 0.114840 0.594000 12433111
0.103003 0.117637 0.591000 11173811
0.102829 0.120810 0.590000 9136274
0.102480 0.123760 0.588000 9863037
0.102306 0.126904 0.587000 11192274
0.102480 0.130480 0.588000 9536165
0.103003 0.134523 0.591000 11116721
0.103874 0.139067 0.596000 13218507
0.104397 0.143190 0.599000 12496074
0.105617 0.148326 0.606000 12759756
0.106489 0.153041 0.611000 12431818
0.107534 0.158070 0.617000 14207453
0.117519 0.026045 0.667000 10268053
0.116814 0.029677 0.663000 11121245
0.116638 0.033415 0.662000 13672042
0.115757 0.036917 0.657000 13678172
0.115052 0.040424 0.653000 13079669
0.114876 0.044088 0.652000 8815017
0.114524 0.047667 0.650000 9158142
0.113995 0.051144 0.647000 12372984
0.113467 0.054587 0.644000 11713784
0.113114 0.058086 0.642000 11452157
0.112586 0.061466 0.639000 12689549
0.111705 0.064608 0.634000 11778008
0.111352 0.068015 0.632000 12022442
0.110648 0.071173 0.628000 10827351
0.110295 0.074524 0.626000 8478334
0.109943 0.077851 0.624000 10925027
0.109590 0.081156 0.622000 12237786
0.109062 0.084302 0.619000 14667764
0.108533 0.087413 0.616000 12040170
0.108005 0.090490 0.613000 16185854
0.107652 0.093687 0.611000 8000927
0.106948 0.096542 0.607000 8807559
0.106595 0.099681 0.605000 10261391
0.106067 0.102627 0.602000 9999311
0.105538 0.105538 0.599000 8683404
0.105186 0.108597 0.597000 10257880
0.104833 0.111633 0.595000 9671605
0.104657 0.114840 0.594000 12495342
0.104129 0.117637 0.591000 11374028
0.103776 0.120605 0.589000 11113906
0.103424 0.123550 0.587000 11772329
0.103424 0.126904 0.587000 12174055
0.103952 0.130924 0.590000 9535402
0.104129 0.134523 0.591000 11247272
0.105010 0.139067 0.596000 12824780
0.105538 0.143190 0.599000 12496329
0.106771 0.148326 0.606000 12628429
0.107300 0.152540 0.609000 12694734
0.108710 0.158070 0.617000 13617884
0.118790 0.026045 0.667000 11249804
0.118077 0.029677 0.663000 12431679
0.117721 0.033365 0.661000 13284960
0.117009 0.036917 0.657000 15715931
0.116652 0.040548 0.655000 13984888
0.116118 0.044088 0.652000 8810402
0.115762 0.047667 0.650000 8893438
0.115228 0.051144 0.647000 14270713
0.114693 0.054587 0.644000 12171255
0.114337 0.058086 0.642000 11452412
0.113803 0.061466 0.639000 13345171
0.112912 0.064608 0.634000 12040659
0.112556 0.068015 0.632000 11955114
0.111844 0.071173 0.628000 11219288
0.111488 0.074524 0.626000 9789050
0.111131 0.077851 0.624000 10857700
0.110775 0.081156 0.622000 9870806
0.110241 0.084302 0.619000 13944553
0.109707 0.087413 0.616000 12369382
0.109172 0.090490 0.613000 15662334
0.108816 0.093687 0.611000 5327003
0.108104 0.096542 0.607000 5179727
0.107570 0.099516 0.604000 10707823
0.107213 0.102627 0.602000 9539519
0.106679 0.105538 0.599000 8227516
0.106323 0.108597 0.597000 9472462
0.105967 0.111633 0.595000 9403573
0.105610 0.114647 0.593000 12558836
0.105254 0.117637 0.591000 11505359
0.104898 0.120605 0.589000 13081004
0.104542 0.123550 0.587000 13675427
0.104364 0.126688 0.586000 13161955
0.104898 0.130702 0.589000 9470130
0.105254 0.134523 0.591000 11379892
0.106145 0.139067 0.596000 12365001
0.106857 0.143429 0.600000 12496586
0.107926 0.148326 0.606000 12497100
0.108460 0.152540 0.609000 12955594
0.109707 0.157813 0.616000 12956367
0.120060 0.026045 0.667000 11316355
0.119700 0.029767 0.665000 12956448
0.119160 0.033415 0.662000 14468438
0.118440 0.036973 0.658000 14397786
0.117900 0.040548 0.655000 8065403
0.117540 0.044155 0.653000 7959963
0.117000 0.047667 0.650000 8557822
0.116460 0.051144 0.647000 11843833
0.115920 0.054587 0.644000 11251190
0.115560 0.058086 0.642000 11251963
0.115020 0.061466 0.639000 13147545
0.114300 0.064710 0.635000 11711694
0.113940 0.068123 0.633000 11891370
0.113040 0.071173 0.628000 11546456
0.112680 0.074524 0.626000 10699638
0.112320 0.077851 0.624000 10530789
0.111960 0.081156 0.622000 8613330
0.111420 0.084302 0.619000 13681118
0.110880 0.087413 0.616000 12298979
0.110340 0.090490 0.613000 14870782
0.109980 0.093687 0.611000 8210582
0.109260 0.096542 0.607000 4461590
0.108900 0.099681 0.605000 7754832
0.108360 0.102627 0.602000 9732270
0.107820 0.105538 0.599000 10075373
0.107460 0.108597 0.597000 9603267
0.107100 0.111633 0.595000 9398197
0.106740 0.114647 0.593000 12362745
0.106380 0.117637 0.591000 11437009
0.106020 0.120605 0.589000 12289702
0.105660 0.123550 0.587000 13214366
0.105480 0.126688 0.586000 13420767
0.106020 0.130702 0.589000 9534138
0.106380 0.134523 0.591000 11707328
0.107280 0.139067 0.596000 12100806
0.108000 0.143429 0.600000 12562635
0.109080 0.148326 0.606000 12431052
0.109440 0.152290 0.608000 13023429
0.111060 0.158070 0.617000 12290497
0.121330 0.026045 0.667000 11377028
0.120967 0.029767 0.665000 13545783
0.120421 0.033415 0.662000 15648328
0.119693 0.036973 0.658000 13155175
0.119330 0.040610 0.656000 2121583
0.118602 0.044088 0.652000 7187398
0.118238 0.047667 0.650000 8238590
0.117692 0.051144 0.647000 9483516
0.117147 0.054587 0.644000 10336506
0.116783 0.058086 0.642000 11124221
0.116237 0.061466 0.639000 12885911
0.115510 0.064710 0.635000 11384525
0.115146 0.068123 0.633000 11824553
0.114236 0.071173 0.628000 11940691
0.113872 0.074524 0.626000 11624055
0.113509 0.077851 0.624000 10203359
0.113145 0.081156 0.622000 7314653
0.112599 0.084302 0.619000 13425894
0.112053 0.087413 0.616000 12173283
0.111508 0.090490 0.613000 14020350
0.111144 0.093687 0.611000 11038613
0.110416 0.096542 0.607000 3813459
0.110052 0.099681 0.605000 4729922
0.109507 0.102627 0.602000 9925518
0.108961 0.105538 0.599000 11906282
0.108597 0.108597 0.597000 9671115
0.108233 0.111633 0.595000 9399725
0.107870 0.114647 0.593000 12100029
0.107506 0.117637 0.591000 11367360
0.106778 0.120195 0.587000 11562695
0.106596 0.123339 0.586000 12690338
0.106414 0.126471 0.585000 13618143
0.106960 0.130480 0.588000 9606084
0.107506 0.134523 0.591000 12037058
0.108415 0.139067 0.596000 11773640
0.109143 0.143429 0.600000 12629202
0.110052 0.148081 0.605000 12299466
0.110598 0.152290 0.608000 13092303
0.112417 0.158326 0.618000 11640261
0.122601 0.026045 0.667000 9270917
0.122233 0.029767 0.665000 12232013
0.121682 0.033415 0.662000 13944890
0.120947 0.036973 0.658000 14204788
0.120763 0.040671 0.657000 7762531
0.120028 0.044155 0.653000 7841776
0.119476 0.047667 0.650000 8764158
0.118925 0.051144 0.647000 9615614
0.118373 0.054587 0.644000 10600702
0.118006 0.058086 0.642000 11189502
0.117454 0.061466 0.639000 12887956
0.116535 0.064608 0.634000 11710924
0.116168 0.068015 0.632000 11693992
0.115432 0.071173 0.628000 11875150
0.115065 0.074524 0.626000 11164023
0.114697 0.077851 0.624000 10136792
0.114330 0.081156 0.622000 10141416
0.113778 0.084302 0.619000 14212333
0.113227 0.087413 0.616000 13153508
0.112859 0.090638 0.614000 13358333
0.112308 0.093687 0.611000 11241620
0.111572 0.096542 0.607000 6774159
0.111205 0.099681 0.605000 4588596
0.110837 0.102797 0.603000 8279917
0.110102 0.105538 0.599000 10526695
0.109734 0.108597 0.597000 11112147
0.109367 0.111633 0.595000 10316965
0.108999 0.114647 0.593000 11230592
0.108448 0.117438 0.590000 11229871
0.108264 0.120605 0.589000 11573736
0.107712 0.123339 0.586000 12953255
0.107529 0.126471 0.585000 13682399
0.108080 0.130480 0.588000 10853582
0.108631 0.134523 0.591000 12102083
0.109550 0.139067 0.596000 12102858
0.110286 0.143429 0.600000 12563416
0.111389 0.148326 0.606000 12495560
0.112491 0.153291 0.612000 13090009
0.113410 0.158070 0.617000 12235464
0.123871 0.026045 0.667000 7114904
0.123686 0.029811 0.666000 10986347
0.122943 0.033415 0.662000 12222018
0.122571 0.037086 0.660000 15253819
0.122014 0.040671 0.657000 13333851
0.121086 0.044088 0.652000 8560334
0.120714 0.047667 0.650000 9222910
0.120157 0.051144 0.647000 9746942
0.119600 0.054587 0.644000 10796798
0.119229 0.058086 0.642000 11325182
0.118671 0.061466 0.639000 12886678
0.117743 0.064608 0.634000 12038866
0.117371 0.068015 0.632000 11491222
0.116814 0.071287 0.629000 11809359
0.116257 0.074524 0.626000 10636128
0.115886 0.077851 0.624000 10138070
0.115514 0.081156 0.622000 12958177
0.114957 0.084302 0.619000 14928622
0.114400 0.087413 0.616000 14079981
0.113843 0.090490 0.613000 12636393
0.113471 0.093687 0.611000 11368070
0.112729 0.096542 0.607000 9798785
0.112357 0.099681 0.605000 4474990
0.111986 0.102797 0.603000 6696807
0.111429 0.105714 0.600000 9082834
0.110871 0.108597 0.597000 12493264
0.110500 0.111633 0.595000 11231917
0.110129 0.114647 0.593000 10312345
0.109571 0.117438 0.590000 11035564
0.109200 0.120400 0.588000 11647726
0.108829 0.123339 0.586000 13151916
0.108457 0.126255 0.584000 13748189
0.109200 0.130480 0.588000 12104150
0.109757 0.134523 0.591000 12169409
0.110871 0.139300 0.597000 12365002
0.111614 0.143668 0.601000 12563155
0.112357 0.148081 0.605000 12627141
0.113657 0.153291 0.612000 13087946
0.114586 0.158070 0.617000 12757958
0.125142 0.026045 0.667000 9546924
0.124954 0.029811 0.666000 12369800
0.124391 0.033466 0.663000 8980299
0.123829 0.037086 0.660000 10967297
0.123266 0.040671 0.657000 11691091
0.122328 0.044088 0.652000 8028075
0.121952 0.047667 0.650000 9287934
0.121390 0.051144 0.647000 9681406
0.120827 0.054587 0.644000 10796798
0.120451 0.058086 0.642000 11322621
0.119889 0.061466 0.639000 12886423
0.118950 0.064608 0.634000 11843543
0.118575 0.068015 0.632000 11413637
0.118012 0.071287 0.629000 11479887
0.117450 0.074524 0.626000 10486344
0.117074 0.077851 0.624000 10333651
0.116324 0.080895 0.620000 11249883
0.115949 0.084166 0.618000 14406127
0.115573 0.087413 0.616000 15333878
0.115010 0.090490 0.613000 11776469
0.114635 0.093687 0.611000 11298936
0.113697 0.096383 0.606000 10716787
0.113510 0.099681 0.605000 6325417
0.113134 0.102797 0.603000 6831201
0.112571 0.105714 0.600000 9207997
0.112009 0.108597 0.597000 12359884
0.111633 0.111633 0.595000 11888309
0.111258 0.114647 0.593000 11232177
0.110695 0.117438 0.590000 9985706
0.110320 0.120400 0.588000 10921972
0.109945 0.123339 0.586000 13942706
0.109757 0.126471 0.585000 13681370
0.110320 0.130480 0.588000 13090526
0.111070 0.134750 0.592000 12167614
0.112009 0.139300 0.597000 12364490
0.112759 0.143668 0.601000 12562894
0.113510 0.148081 0.605000 12691651
0.115010 0.153542 0.613000 13151930
0.115761 0.158070 0.617000 12488643
0.126412 0.026045 0.667000 11909558
0.126033 0.029767 0.665000 13689254
0.125465 0.033415 0.662000 5803379
0.125086 0.037086 0.660000 6644295
0.124517 0.040671 0.657000 9979274
0.123570 0.044088 0.652000 7576775
0.123190 0.047667 0.650000 9353726
0.122622 0.051144 0.647000 9681406
0.122053 0.054587 0.644000 10797054
0.121674 0.058086 0.642000 11323133
0.121106 0.061466 0.639000 12885919
0.120158 0.064608 0.634000 11647944
0.119779 0.068015 0.632000 11351674
0.119210 0.071287 0.629000 11151693
0.118642 0.074524 0.626000 10300466
0.118263 0.077851 0.624000 10594493
0.117884 0.081156 0.622000 9479130
0.117126 0.084166 0.618000 13816563
0.116747 0.087413 0.616000 16511731
0.116178 0.090490 0.613000 10859715
0.115420 0.093380 0.609000 11238006
0.114851 0.096383 0.606000 11701631
0.114662 0.099681 0.605000 8161709
0.114283 0.102797 0.603000 6949985
0.113904 0.105890 0.601000 9273519
0.113146 0.108597 0.597000 12231623
0.112767 0.111633 0.595000 12487364
0.112388 0.114647 0.593000 12220855
0.111819 0.117438 0.590000 8942239
0.111630 0.120605 0.589000 10201304
0.111061 0.123339 0.586000 14660264
0.110871 0.126471 0.585000 13615576
0.111440 0.130480 0.588000 14009049
0.112198 0.134750 0.592000 12167867
0.112956 0.139067 0.596000 12366027
0.113904 0.143668 0.601000 12628428
0.115041 0.148570 0.607000 12691396
0.116368 0.153792 0.614000 13218233
0.116936 0.158070 0.617000 12170964
0.127683 0.026045 0.667000 12825279
0.127491 0.029811 0.666000 13616324
0.126726 0.033415 0.662000 10278812
0.126343 0.037086 0.660000 10070669
0.125769 0.040671 0.657000 8414146
0.124811 0.044088 0.652000 7839202
0.124620 0.047740 0.651000 9222142
0.123854 0.051144 0.647000 9681662
0.123471 0.054671 0.645000 10797054
0.122897 0.058086 0.642000 11321597
0.122323 0.061466 0.639000 12558247
0.121366 0.064608 0.634000 11706809
0.120983 0.068015 0.632000 10227312
0.120217 0.071173 0.628000 10758474
0.119834 0.074524 0.626000 10360604
0.119451 0.077851 0.624000 10191270
0.119069 0.081156 0.622000 8687322
0.118494 0.084302 0.619000 13750262
0.117920 0.087413 0.616000 16382961
0.117346 0.090490 0.613000 10850737
0.116580 0.093380 0.609000 12823156
0.116006 0.096383 0.606000 11963018
0.115814 0.099681 0.605000 7507122
0.115431 0.102797 0.603000 7293024
0.115049 0.105890 0.601000 9399969
0.114474 0.108779 0.598000 11181506
0.113900 0.111633 0.595000 12758484
0.113326 0.114453 0.592000 13544124
0.112943 0.117438 0.590000 10852244
0.112751 0.120605 0.589000 9800123
0.112177 0.123339 0.586000 14857630
0.112177 0.126688 0.586000 13484246
0.112560 0.130480 0.588000 13877716
0.113326 0.134750 0.592000 12166840
0.114091 0.139067 0.596000 12497355
0.115240 0.143907 0.602000 12694218
0.116006 0.148326 0.606000 12691653
0.117729 0.154043 0.615000 13480888
0.118303 0.158326 0.618000 13488870
0.128760 0.029811 0.666000 13544894
0.127987 0.033415 0.662000 14732210
0.127600 0.037086 0.660000 13491900
0.126827 0.040610 0.656000 6859744
0.126053 0.044088 0.652000 8111600
0.125860 0.047740 0.651000 9025789
0.125280 0.051223 0.648000 9747454
0.124700 0.054671 0.645000 10731774
0.124120 0.058086 0.642000 11387639
0.123540 0.061466 0.639000 12165019
0.122573 0.064608 0.634000 11702457
0.122187 0.068015 0.632000 9119853
0.121607 0.071287 0.629000 10365519
0.121027 0.074524 0.626000 10364727
0.120640 0.077851 0.624000 9788284
0.120253 0.081156 0.622000 7903704
0.119673 0.084302 0.619000 13753586
0.119093 0.087413 0.616000 16179690
0.118513 0.090490 0.613000 10835583
0.117740 0.093380 0.609000 14387072
0.117160 0.096383 0.606000 12157072
0.116967 0.099681 0.605000 6785189
0.116580 0.102797 0.603000 7569261
0.116193 0.105890 0.601000 9534365
0.115613 0.108779 0.598000 10195137
0.115227 0.111821 0.596000 12957126
0.114647 0.114647 0.593000 14931640
0.114067 0.117438 0.590000 12756377
0.113873 0.120605 0.589000 9344412
0.113293 0.123339 0.586000 14988459
0.113293 0.126688 0.586000 13418449
0.113487 0.130258 0.587000 13680850
0.114453 0.134750 0.592000 12232129
0.115033 0.138833 0.595000 12562892
0.116387 0.143907 0.602000 12760524
0.117547 0.148815 0.608000 12692171
0.118900 0.154043 0.615000 13808846
0.119480 0.158326 0.618000 14734050
0.130029 0.029811 0.666000 13543863
0.129248 0.033415 0.662000 14204616
0.128467 0.036973 0.658000 13883883
0.128076 0.040610 0.656000 10870782
0.127295 0.044088 0.652000 10275070
0.127100 0.047740 0.651000 9943549
0.126514 0.051223 0.648000 10009853
0.125929 0.054671 0.645000 10797566
0.125343 0.058086 0.642000 11318257
0.124757 0.061466 0.639000 12099726
0.123781 0.064608 0.634000 11444152
0.123390 0.068015 0.632000 9307243
0.122805 0.071287 0.629000 10892115
0.122219 0.074524 0.626000 11087699
0.121829 0.077851 0.624000 9786961
0.121438 0.081156 0.622000 7967190
0.120657 0.084166 0.618000 13224430
0.120267 0.087413 0.616000 14539747
0.119681 0.090490 0.613000 8405837
0.119290 0.093687 0.611000 10768268
0.118314 0.096383 0.606000 11173269
0.117924 0.099516 0.604000 7573400
0.117729 0.102797 0.603000 9083258
0.117338 0.105890 0.601000 9732250
0.116752 0.108779 0.598000 9668800
0.116362 0.111821 0.596000 11968441
0.115776 0.114647 0.593000 15323572
0.115190 0.117438 0.590000 13150879
0.114995 0.120605 0.589000 12035197
0.114605 0.123550 0.587000 15257272
0.114410 0.126688 0.586000 13285836
0.114800 0.130480 0.588000 13551056
0.115581 0.134750 0.592000 12495817
0.116167 0.138833 0.595000 12629197
0.117533 0.143907 0.602000 12825549
0.118314 0.148326 0.606000 13151696
0.120071 0.154043 0.615000 13548771
0.120657 0.158326 0.618000 14536927
0.129720 0.036973 0.658000 14272213
0.129326 0.040610 0.656000 14868210
0.128734 0.044155 0.653000 12439543
0.128537 0.047813 0.652000 10799097
0.127749 0.051223 0.648000 10272762
0.127157 0.054671 0.645000 10797819
0.126566 0.058086 0.642000 11254517
0.125974 0.061466 0.639000 12031642
0.124989 0.064608 0.634000 11180178
0.124594 0.068015 0.632000 9520249
0.124003 0.071287 0.629000 11416149
0.123609 0.074643 0.627000 11738728
0.123017 0.077851 0.624000 9787783
0.122623 0.081156 0.622000 8032973
0.122031 0.084302 0.619000 12702699
0.121440 0.087413 0.616000 12889816
0.120849 0.090490 0.613000 6043298
0.120454 0.093687 0.611000 7107499
0.119666 0.096542 0.607000 10187439
0.119271 0.099681 0.605000 8355967
0.118877 0.102797 0.603000 10592377
0.118483 0.105890 0.601000 9866662
0.117891 0.108779 0.598000 9209793
0.117497 0.111821 0.596000 10917543
0.116906 0.114647 0.593000 15716281
0.116314 0.117438 0.590000 13546664
0.116117 0.120605 0.589000 14793356
0.115723 0.123550 0.587000 15517866
0.115526 0.126688 0.586000 13155274
0.115723 0.130258 0.587000 13416905
0.116314 0.134295 0.590000 12824515
0.118089 0.139767 0.599000 12628942
0.118680 0.143907 0.602000 12956620
0.119666 0.148570 0.607000 13611728
0.121440 0.154293 0.616000 13354204
0.130973 0.036973 0.658000 13939647
0.130575 0.040610 0.656000 14735591
0.129978 0.044155 0.653000 13423344
0.129580 0.047740 0.651000 12769012
0.128983 0.051223 0.648000 11848439
0.128386 0.054671 0.645000 11518968
0.127789 0.058086 0.642000 11515641
0.127191 0.061466 0.639000 12297383
0.126196 0.064608 0.634000 11572587
0.125798 0.068015 0.632000 9459847
0.125201 0.071287 0.629000 10823254
0.124803 0.074643 0.627000 11338108
0.124206 0.077851 0.624000 9930428
0.123808 0.081156 0.622000 7966404
0.123210 0.084302 0.619000 12107496
0.122613 0.087413 0.616000 10712270
0.122016 0.090490 0.613000 9212662
0.121618 0.093687 0.611000 9412810
0.120822 0.096542 0.607000 10522824
0.120424 0.099681 0.605000 7228774
0.120026 0.102797 0.603000 10327160
0.119628 0.105890 0.601000 9931699
0.119030 0.108779 0.598000 10263490
0.118632 0.111821 0.596000 11178389
0.118035 0.114647 0.593000 15320509
0.117637 0.117637 0.591000 13744304
0.117239 0.120605 0.589000 14002587
0.116841 0.123550 0.587000 15515805
0.116642 0.126688 0.586000 13285832
0.117040 0.130480 0.588000 12625858
0.117637 0.134523 0.591000 12561341
0.119230 0.139767 0.599000 12496846
0.119827 0.143907 0.602000 12824266
0.120822 0.148570 0.607000 13611215
0.122613 0.154293 0.616000 13418452
0.132026 0.036917 0.657000 13608892
0.131825 0.040610 0.656000 14600150
0.131222 0.044155 0.653000 14471396
0.131021 0.047813 0.652000 14669032
0.130217 0.051223 0.648000 13426677
0.129614 0.054671 0.645000 12174318
0.129011 0.058086 0.642000 11846386
0.128409 0.061466 0.639000 12565711
0.127404 0.064608 0.634000 12029599
0.127203 0.068123 0.633000 9407675
0.126399 0.071287 0.629000 10247840
0.125997 0.074643 0.627000 10979773
0.125394 0.077851 0.624000 10072256
0.125193 0.081287 0.623000 7835585
0.124390 0.084302 0.619000 11518448
0.123787 0.087413 0.616000 8556765
0.123385 0.090638 0.614000 12381430
0.122782 0.093687 0.611000 11710674
0.121978 0.096542 0.607000 10930635
0.121777 0.099846 0.606000 6056843
0.120973 0.102627 0.602000 10125682
0.120571 0.105714 0.600000 9994410
0.119969 0.108597 0.597000 11378078
0.119567 0.111633 0.595000 11372671
0.118964 0.114453 0.592000 14920310
0.118562 0.117438 0.590000 13873598
0.118160 0.120400 0.588000 13211543
0.117758 0.123339 0.586000 15451041
0.117557 0.126471 0.585000 13352395
0.117758 0.130036 0.586000 11773888
0.118562 0.134295 0.590000 12298430
0.120772 0.140233 0.601000 12299723
0.120973 0.143907 0.602000 12693452
0.122179 0.148815 0.608000 13611727
0.123787 0.154293 0.616000 13548239
0.133277 0.036917 0.657000 13477561
0.133074 0.040610 0.656000 14205125
0.132871 0.044290 0.655000 14205656
0.131857 0.047667 0.650000 14404061
0.131451 0.051223 0.648000 14146035
0.130843 0.054671 0.645000 13355237
0.130234 0.058086 0.642000 12633835
0.129626 0.061466 0.639000 12901624
0.128611 0.064608 0.634000 12102098
0.128409 0.068123 0.633000 11059438
0.127597 0.071287 0.629000 11579625
0.126989 0.074524 0.626000 11785726
0.126380 0.077727 0.623000 9083587
0.125771 0.080895 0.620000 7704767
0.125366 0.084166 0.618000 12108024
0.124757 0.087271 0.615000 9084397
0.124351 0.090490 0.613000 12965878
0.123540 0.093380 0.609000 11516890
0.122931 0.096383 0.606000 10726094
0.122526 0.099516 0.604000 7700144
0.122120 0.102627 0.602000 9136747
0.121917 0.105890 0.601000 9524386
0.121106 0.108597 0.597000 9858169
0.120700 0.111633 0.595000 10044521
0.120294 0.114647 0.593000 12082990
0.119686 0.117438 0.590000 12363469
0.119280 0.120400 0.588000 12420755
0.118874 0.123339 0.586000 15320228
0.118671 0.126471 0.585000 13286349
0.118874 0.130036 0.586000 11902143
0.119280 0.133840 0.588000 12233151
0.121714 0.140000 0.600000 12299720
0.122120 0.143907 0.602000 13152974
0.123134 0.148570 0.607000 13611470
0.124149 0.153291 0.612000 13285065
0.134119 0.040548 0.655000 13741248
0.134119 0.044290 0.655000 14006983
0.132686 0.047520 0.648000 14141149
0.132481 0.051144 0.647000 14800102
0.131867 0.054587 0.644000 14536937
0.131252 0.057995 0.641000 13418736
0.130638 0.061370 0.638000 13158106
0.129614 0.064506 0.633000 12237279
0.129410 0.068015 0.632000 12634096
0.128795 0.071287 0.629000 12968687
0.128181 0.074524 0.626000 12570106
0.127771 0.077851 0.624000 8093383
0.126952 0.080895 0.620000 7574471
0.126543 0.084166 0.618000 12702968
0.126133 0.087413 0.616000 9548525
0.125314 0.090343 0.612000 13623545
0.124700 0.093380 0.609000 11246538
0.124290 0.096542 0.607000 10519955
0.123881 0.099681 0.605000 9271202
0.123267 0.102627 0.602000 8148648
0.123062 0.105890 0.601000 9074363
0.122243 0.108597 0.597000 8333958
0.121833 0.111633 0.595000 8662357
0.121424 0.114647 0.593000 9242150
0.120810 0.117438 0.590000 10785483
0.120195 0.120195 0.587000 11564959
0.119990 0.123339 0.586000 15124397
0.119786 0.126471 0.585000 13222094
0.119990 0.130036 0.586000 11970755
0.120810 0.134295 0.590000 12167873
0.122857 0.140000 0.600000 12234440
0.123267 0.143907 0.602000 13612493
0.124495 0.148815 0.608000 13611983
0.125314 0.153291 0.612000 13086933
0.126543 0.158326 0.618000 14667743
0.135367 0.040548 0.655000 13674683
0.135367 0.044290 0.655000 13874102
0.134333 0.047667 0.650000 14074845
0.133713 0.051144 0.647000 14403289
0.133093 0.054587 0.644000 14406125
0.132267 0.057905 0.640000 13813748
0.131853 0.061370 0.638000 12823484
0.131027 0.064608 0.634000 13026796
0.130407 0.067908 0.631000 13094130
0.129787 0.071173 0.628000 13096180
0.129373 0.074524 0.626000 12503542
0.128960 0.077851 0.624000 8359626
0.128547 0.081156 0.622000 7639759
0.127720 0.084166 0.618000 12108535
0.127307 0.087413 0.616000 10927598
0.126687 0.090490 0.613000 14478332
0.125860 0.093380 0.609000 9986746
0.125653 0.096701 0.608000 8338519
0.125033 0.099681 0.605000 9014421
0.124413 0.102627 0.602000 10393829
0.124000 0.105714 0.600000 9604309
0.123380 0.108597 0.597000 7619731
0.122967 0.111633 0.595000 9516097
0.122347 0.114453 0.592000 9115678
0.121933 0.117438 0.590000 10461385
0.121520 0.120400 0.588000 11765163
0.121107 0.123339 0.586000 15125942
0.120900 0.126471 0.585000 13089487
0.120900 0.129814 0.585000 12102343
0.122347 0.134750 0.592000 12036291
0.123587 0.139533 0.598000 12168136
0.124413 0.143907 0.602000 13678028
0.125653 0.148815 0.608000 13546704
0.126480 0.153291 0.612000 13418209
0.127720 0.158326 0.618000 14471389
0.136197 0.044155 0.653000 13741755
0.135571 0.047667 0.650000 13942222
0.134946 0.051144 0.647000 14073299
0.134529 0.054671 0.645000 14207203
0.133694 0.057995 0.641000 14212595
0.133069 0.061370 0.638000 12494275
0.132234 0.064608 0.634000 13810872
0.131817 0.068015 0.632000 13553103
0.130983 0.071173 0.628000 13292280
0.130566 0.074524 0.626000 12375800
0.129940 0.077727 0.623000 8688099
0.129314 0.080895 0.620000 7640537
0.128897 0.084166 0.618000 11584756
0.128480 0.087413 0.616000 12238057
0.127854 0.090490 0.613000 15398393
0.127020 0.093380 0.609000 8751308
0.126811 0.096701 0.608000 6238060
0.126186 0.099681 0.605000 8679055
0.125560 0.102627 0.602000 12629215
0.125143 0.105714 0.600000 10133216
0.124517 0.108597 0.597000 6901137
0.124100 0.111633 0.595000 10303298
0.123683 0.114647 0.593000 9051696
0.123057 0.117438 0.590000 10064304
0.122431 0.120195 0.587000 11956374
0.122223 0.123339 0.586000 15058868
0.122223 0.126688 0.586000 13023688
0.122223 0.130036 0.586000 12169163
0.123474 0.134750 0.592000 11971527
0.124726 0.139533 0.598000 12103628
0.125560 0.143907 0.602000 13743309
0.126811 0.148815 0.608000 13415637
0.127854 0.153542 0.613000 13748192
0.136810 0.047667 0.650000 13807807
0.135968 0.051065 0.646000 13941964
0.135757 0.054671 0.645000 14073817
0.134915 0.057995 0.641000 14605554
0.134284 0.061370 0.638000 13409994
0.133863 0.064811 0.636000 12356996
0.133021 0.068015 0.632000 13220780
0.132390 0.071287 0.629000 14212604
0.131758 0.074524 0.626000 13954042
0.131337 0.077851 0.624000 10728700
0.130495 0.080895 0.620000 8098531
0.130285 0.084302 0.619000 12042993
0.129653 0.087413 0.616000 12235748
0.129022 0.090490 0.613000 14474998
0.128601 0.093687 0.611000 10130398
0.127970 0.096701 0.608000 7291264
0.127338 0.099681 0.605000 7827338
0.126707 0.102627 0.602000 12234968
0.126286 0.105714 0.600000 9936107
0.125654 0.108597 0.597000 6704271
0.125233 0.111633 0.595000 10764356
0.124812 0.114647 0.593000 9912897
0.124181 0.117438 0.590000 11767959
0.123339 0.119990 0.586000 11562113
0.123339 0.123339 0.586000 15125683
0.123129 0.126471 0.585000 12627649
0.123339 0.130036 0.586000 12562382
0.124391 0.134523 0.591000 12102346
0.125865 0.139533 0.598000 13089232
0.126707 0.143907 0.602000 13939662
0.128180 0.149060 0.609000 13284571
0.129022 0.153542 0.613000 13681886
0.137198 0.051065 0.646000 13875395
0.136986 0.054671 0.645000 13941709
0.136136 0.057995 0.641000 14995674
0.135499 0.061370 0.638000 14271964
0.133588 0.071287 0.629000 15192007
0.132950 0.074524 0.626000 15459304
0.132526 0.077851 0.624000 12834045
0.131676 0.080895 0.620000 8563433
0.131251 0.084166 0.618000 12568562
0.130614 0.087271 0.615000 12241130
0.130190 0.090490 0.613000 13554930
0.129765 0.093687 0.611000 11449829
0.129128 0.096701 0.608000 8284589
0.128490 0.099681 0.605000 6969997
0.127853 0.102627 0.602000 11838437
0.127429 0.105714 0.600000 9728962
0.126791 0.108597 0.597000 6503275
0.126579 0.111821 0.596000 11155274
0.126154 0.114840 0.594000 10826810
0.125305 0.117438 0.590000 13407121
0.124880 0.120400 0.588000 11163270
0.124455 0.123339 0.586000 15190452
0.124455 0.126688 0.586000 12231867
0.124455 0.130036 0.586000 12956364
0.125730 0.134750 0.592000 12298698
0.127004 0.139533 0.598000 14072535
0.128066 0.144146 0.603000 14135766
0.129340 0.149060 0.609000 13156320
0.130402 0.153792 0.614000 13618910
0.137357 0.057995 0.641000 14466753
0.135214 0.071513 0.631000 13280402
0.134143 0.074524 0.626000 14734038
0.133714 0.077851 0.624000 14016765
0.132857 0.080895 0.620000 11452143
0.132429 0.084166 0.618000 13422322
0.132000 0.087413 0.616000 13554929
0.131143 0.090343 0.612000 13553645
0.130500 0.093380 0.609000 12637932
0.130286 0.096701 0.608000 9607642
0.129643 0.099681 0.605000 6100881
0.129000 0.102627 0.602000 11052530
0.128571 0.105714 0.600000 8587674
0.127929 0.108597 0.597000 7550279
0.127500 0.111633 0.595000 10633552
0.127286 0.114840 0.594000 10173747
0.126429 0.117438 0.590000 13279627
0.126000 0.120400 0.588000 12355466
0.125571 0.123339 0.586000 15061174
0.125571 0.126688 0.586000 12100788
0.125786 0.130258 0.587000 12955082
0.126857 0.134750 0.592000 12826569
0.128143 0.139533 0.598000 14006238
0.129000 0.143907 0.602000 14007774
0.130929 0.149550 0.611000 13288165
0.131571 0.153792 0.614000 13747934
0.132429 0.158326 0.618000 14142425
0.136416 0.071513 0.631000 11438742
0.135335 0.074524 0.626000 14002101
0.134903 0.077851 0.624000 15260142
0.134038 0.080895 0.620000 14342124
0.133822 0.084302 0.619000 14276082
0.133390 0.087555 0.617000 14802932
0.132309 0.090343 0.612000 13556723
0.132092 0.093687 0.611000 13816043
0.131444 0.096701 0.608000 10852522
0.131011 0.099846 0.606000 5193361
0.130147 0.102627 0.602000 10331103
0.129714 0.105714 0.600000 7488159
0.129066 0.108597 0.597000 8532598
0.128850 0.111821 0.596000 10039124
0.128417 0.114840 0.594000 9576764
0.127769 0.117637 0.591000 13139594
0.127120 0.120400 0.588000 13607826
0.126688 0.123339 0.586000 14928053
0.126688 0.126688 0.586000 12036282
0.126904 0.130258 0.587000 12891341
0.127769 0.134523 0.591000 13423567
0.129498 0.139767 0.599000 13941982
0.130147 0.143907 0.602000 13943261
0.132092 0.149550 0.611000 13417689
0.132957 0.154043 0.615000 13811412
0.133606 0.158326 0.618000 14469590
0.137618 0.071513 0.631000 11633818
0.136964 0.074762 0.628000 13006996
0.136091 0.077851 0.624000 14337503
0.135219 0.080895 0.620000 14670313
0.135219 0.084438 0.620000 14603761
0.134565 0.087555 0.617000 15198968
0.133692 0.090490 0.613000 14542328
0.133256 0.093687 0.611000 14407659
0.132602 0.096701 0.608000 7761273
0.132166 0.099846 0.606000 4937362
0.131293 0.102627 0.602000 9998027
0.130857 0.105714 0.600000 9072548
0.130203 0.108597 0.597000 9195940
0.129985 0.111821 0.596000 9839192
0.129549 0.114840 0.594000 9443908
0.129112 0.117836 0.592000 10971018
0.128240 0.120400 0.588000 13543065
0.127804 0.123339 0.586000 14666164
0.127804 0.126688 0.586000 12102335
0.128458 0.130702 0.589000 13219792
0.128894 0.134523 0.591000 13551317
0.130857 0.140000 0.600000 14071775
0.131293 0.143907 0.602000 13681372
0.133256 0.149550 0.611000 13151693
0.134129 0.154043 0.615000 13483210
0.134783 0.158326 0.618000 14076116
0.138820 0.071513 0.631000 11842223
0.138160 0.074762 0.628000 12031147
0.137280 0.077851 0.624000 13481418
0.136400 0.080895 0.620000 14929633
0.136400 0.084438 0.620000 14995176
0.135740 0.087555 0.617000 15523566
0.134860 0.090490 0.613000 15526133
0.133980 0.093380 0.609000 15000306
0.133540 0.096542 0.607000 4679356
0.133100 0.099681 0.605000 4671637
0.132440 0.102627 0.602000 9737418
0.132000 0.105714 0.600000 10585009
0.131340 0.108597 0.597000 9864376
0.131120 0.111821 0.596000 9657755
0.130680 0.114840 0.594000 9381745
0.130240 0.117836 0.592000 8813482
0.129360 0.120400 0.588000 13477784
0.128920 0.123339 0.586000 14403001
0.128920 0.126688 0.586000 12169409
0.129580 0.130702 0.589000 13550040
0.130020 0.134523 0.591000 13746906
0.132000 0.140000 0.600000 14141155
0.132660 0.144146 0.603000 13486555
0.134420 0.149550 0.611000 12890580
0.135300 0.154043 0.615000 13154252
0.135960 0.158326 0.618000 13680331
0.139356 0.074762 0.628000 12755651
0.138469 0.077851 0.624000 13283509
0.137581 0.080895 0.620000 14272729
0.138247 0.084847 0.623000 14599903
0.136915 0.087555 0.617000 14863845
0.135806 0.090343 0.612000 15130098
0.135584 0.093687 0.611000 15464697
0.134696 0.096542 0.607000 9217534
0.134252 0.099681 0.605000 6885785
0.133587 0.102627 0.602000 10720969
0.133365 0.105890 0.601000 10523326
0.132699 0.108779 0.598000 9736139
0.132255 0.111821 0.596000 10983389
0.131811 0.114840 0.594000 10052766
0.131368 0.117836 0.592000 9675466
0.130480 0.120400 0.588000 13478294
0.130258 0.123550 0.587000 14338238
0.130036 0.126688 0.586000 12366530
0.130480 0.130480 0.588000 13879776
0.131146 0.134523 0.591000 13812191
0.133143 0.140000 0.600000 14209767
0.133809 0.144146 0.603000 13549786
0.135584 0.149550 0.611000 12956635
0.136250 0.153792 0.614000 12891598
0.137137 0.158326 0.618000 13480899
0.138762 0.080895 0.620000 13548999
0.139433 0.084847 0.623000 14270675
0.137643 0.087271 0.615000 14207199
0.136748 0.090195 0.611000 14799336
0.136748 0.093687 0.611000 15919089
0.136076 0.096701 0.608000 13823226
0.135629 0.099846 0.606000 9148872
0.134957 0.102797 0.603000 11707356
0.134510 0.105890 0.601000 10395352
0.133838 0.108779 0.598000 9604568
0.133390 0.111821 0.596000 12298202
0.132943 0.114840 0.594000 10790846
0.132495 0.117836 0.592000 10457253
0.131824 0.120605 0.589000 13543815
0.131376 0.123550 0.587000 14272193
0.131376 0.126904 0.587000 12630213
0.131600 0.130480 0.588000 14206941
0.132719 0.134978 0.593000 13877219
0.134510 0.140233 0.601000 14275561
0.134957 0.144146 0.603000 13679071
0.136971 0.149794 0.612000 12958425
0.137419 0.153792 0.614000 12694993
0.139943 0.080895 0.620000 13282997
0.140620 0.084847 0.623000 13810118
0.138814 0.087271 0.615000 14139096
0.137460 0.089900 0.609000 14601182
0.137911 0.093687 0.611000 15193321
0.137460 0.096860 0.609000 14409718
0.136783 0.099846 0.606000 12378871
0.136106 0.102797 0.603000 13552622
0.135654 0.105890 0.601000 12234993
0.134977 0.108779 0.598000 10196709
0.134300 0.111633 0.595000 12627158
0.134074 0.114840 0.594000 12895709
0.133623 0.117836 0.592000 10708865
0.132720 0.120400 0.588000 14004344
0.132494 0.123550 0.587000 14207941
0.132494 0.126904 0.587000 12761544
0.132720 0.130480 0.588000 13878746
0.134074 0.135206 0.594000 13944807
0.135654 0.140233 0.601000 14340587
0.136557 0.144624 0.605000 14077923
0.138137 0.149794 0.612000 12891863
0.138589 0.153792 0.614000 12892116
0.138392 0.089752 0.608000 14402772
0.139075 0.093687 0.611000 14470625
0.138620 0.096860 0.609000 14930926
0.137937 0.099846 0.606000 15522287
0.137254 0.102797 0.603000 15392237
0.136799 0.105890 0.601000 14013685
0.136116 0.108779 0.598000 10860526
0.135433 0.111633 0.595000 12961253
0.135206 0.114840 0.594000 15000807
0.134750 0.117836 0.592000 10917799
0.133840 0.120400 0.588000 14471084
0.133612 0.123550 0.587000 14075857
0.133612 0.126904 0.587000 12958930
0.133840 0.130480 0.588000 13549270
0.135433 0.135433 0.595000 14012393
0.136799 0.140233 0.601000 14406378
0.137482 0.144385 0.604000 14474211
0.139303 0.149794 0.612000 12761043
0.139986 0.154043 0.615000 13023691
0.139550 0.089752 0.608000 14073802
0.140239 0.093687 0.611000 14401754
0.139780 0.096860 0.609000 14799589
0.139091 0.099846 0.606000 15125992
0.138173 0.102627 0.602000 15195115
0.137944 0.105890 0.601000 14937081
0.137255 0.108779 0.598000 13095158
0.136567 0.111633 0.595000 14610420
0.136337 0.114840 0.594000 15459313
0.135878 0.117836 0.592000 13286606
0.134960 0.120400 0.588000 15062752
0.134501 0.123339 0.586000 14208733
0.134730 0.126904 0.587000 13287131
0.134960 0.130480 0.588000 13021907
0.136567 0.135433 0.595000 14209258
0.137714 0.140000 0.600000 14471656
0.138403 0.144146 0.603000 14077154
0.140698 0.150039 0.613000 12694224
0.140928 0.153792 0.614000 13153473
0.140940 0.096860 0.609000 14733266
0.139320 0.102627 0.602000 14931435
0.139089 0.105890 0.601000 15786483
0.138394 0.108779 0.598000 15326192
0.138163 0.112009 0.597000 16181745
0.137469 0.114840 0.594000 15919860
0.137006 0.117836 0.592000 15654886
0.136311 0.120605 0.589000 15724525
0.135849 0.123550 0.587000 14340580
0.135849 0.126904 0.587000 13551325
0.136080 0.130480 0.588000 12500699
0.137700 0.135433 0.595000 14407145
0.138857 0.140000 0.600000 14537449
0.139551 0.144146 0.603000 13749724
0.141634 0.149794 0.612000 12629460
0.142097 0.153792 0.614000 13284797
0.140233 0.105890 0.601000 15455981
0.139533 0.108779 0.598000 14996201
0.139300 0.112009 0.597000 15589870
0.138600 0.114840 0.594000 15722999
0.137667 0.117438 0.590000 15793406
0.136967 0.120195 0.587000 15789561
0.136967 0.123550 0.587000 14469355
0.136967 0.126904 0.587000 13682398
0.137433 0.130702 0.589000 13486307
0.139067 0.135661 0.596000 14472167
0.140233 0.140233 0.601000 14537193
0.140933 0.144385 0.604000 13551062
0.142800 0.149794 0.612000 12892632
0.143267 0.153792 0.614000 13217720
0.140672 0.108779 0.598000 14732778
0.140437 0.112009 0.597000 14931690
0.139731 0.114840 0.594000 15525110
0.138790 0.117438 0.590000 15918318
0.138085 0.120195 0.587000 15921142
0.138085 0.123550 0.587000 14606580
0.138085 0.126904 0.587000 13813478
0.139026 0.131146 0.591000 14405348
0.140437 0.135889 0.597000 14471912
0.141378 0.140233 0.601000 14537192
0.142319 0.144624 0.605000 13419486
0.143966 0.149794 0.612000 13154511
0.144436 0.153792 0.614000 13150900
0.141811 0.108779 0.598000 14799082
0.140863 0.111446 0.594000 14863846
0.140626 0.114647 0.593000 15391476
0.140151 0.117637 0.591000 14928095
0.139203 0.120195 0.587000 15459059
0.139203 0.123550 0.587000 15662846
0.139440 0.127120 0.588000 14341101
0.140151 0.131146 0.591000 14339813
0.141100 0.135433 0.595000 14472168
0.142523 0.140233 0.601000 14537447
0.143471 0.144624 0.605000 13814502
0.145131 0.149794 0.612000 13088199
0.141994 0.111446 0.594000 14731998
0.141755 0.114647 0.593000 15259627
0.141277 0.117637 0.591000 13880035
0.140560 0.120400 0.588000 15061468
0.140321 0.123550 0.587000 16707574
0.140799 0.127336 0.589000 14936310
0.141755 0.131590 0.593000 14274537
0.142950 0.136116 0.598000 14472424
0.143668 0.140233 0.601000 14471912
0.144624 0.144624 0.605000 14276331
0.146297 0.149794 0.612000 13021892
0.142885 0.114647 0.593000 14798818
0.142403 0.117637 0.591000 14078696
0.141198 0.119990 0.586000 14533317
0.141198 0.123339 0.586000 15653103
0.142162 0.127552 0.590000 15462398
0.143126 0.131811 0.594000 14604525
0.144090 0.136116 0.598000 14537959
0.144812 0.140233 0.601000 14406377
0.145535 0.144385 0.604000 14275311
0.147463 0.149794 0.612000 13149121
0.143529 0.117637 0.591000 14271702
0.142314 0.119990 0.586000 14006989
0.142314 0.123339 0.586000 14536675
0.143529 0.127769 0.591000 15988212
0.144500 0.132033 0.595000 14934770
0.145229 0.136116 0.598000 14603755
0.146200 0.140467 0.602000 14340585
0.146929 0.144624 0.605000 14342116
0.143430 0.119990 0.586000 13875156
0.143920 0.123760 0.588000 14009303
0.144654 0.127769 0.591000 15591146
0.145633 0.132033 0.595000 15527415
0.146857 0.136571 0.600000 14801647
0.147347 0.140467 0.602000 14406121
0.148081 0.144624 0.605000 14207192
0.144547 0.119990 0.586000 13744324
0.145040 0.123760 0.588000 13418188
0.145780 0.127769 0.591000 15262186
0.146520 0.131811 0.594000 16117237
0.148000 0.136571 0.600000 15000309
0.148740 0.140700 0.603000 14471913
0.149233 0.144624 0.605000 14141132
0.147651 0.131811 0.594000 15985138
0.149640 0.137027 0.602000 15592187
0.150137 0.140933 0.604000 14472426
0.150386 0.144624 0.605000 14007487
0.148783 0.131811 0.594000 15783638
0.150787 0.137027 0.602000 16120820
0.151288 0.140933 0.604000 14471651
0.151538 0.144624 0.605000 13939897
0.151933 0.137027 0.602000 15459308
0.152690 0.141167 0.605000 14074588
0.152690 0.144624 0.605000 13939635
0.153843 0.141167 0.605000 13680076
0.074476 0.051162 0.680000 9667461
0.075771 0.043390 0.680000 8221533
0.075994 0.047415 0.682000 7628396
0.075660 0.051087 0.679000 7959430
0.075549 0.054886 0.678000 8943507
0.077067 0.043390 0.680000 6583160
0.077067 0.047276 0.680000 5796225
0.076840 0.051011 0.678000 6321026
0.076613 0.054724 0.676000 6846338
0.076500 0.058500 0.675000 7043726
0.078247 0.043327 0.679000 6518675
0.078247 0.047207 0.679000 6388375
0.077901 0.050861 0.676000 6780542
0.077901 0.054724 0.676000 6977906
0.077786 0.058500 0.675000 6715024
0.077210 0.061895 0.670000 9141111
0.079071 0.039214 0.675000 5271443
0.079423 0.043263 0.678000 6388118
0.079423 0.047137 0.678000 6912922
0.079189 0.050861 0.676000 7239788
0.079071 0.054643 0.675000 7108440
0.079071 0.058500 0.675000 6451792
0.078486 0.061895 0.670000 10318921
0.077549 0.068722 0.662000 7501196
0.077666 0.072614 0.663000 7829387
0.077314 0.076057 0.660000 8155519
0.080357 0.039214 0.675000 5927305
0.080714 0.043263 0.678000 6453912
0.080714 0.047137 0.678000 7044254
0.080357 0.050786 0.675000 7698521
0.080357 0.054643 0.675000 8354367
0.080238 0.058413 0.674000 7695119
0.079762 0.061895 0.670000 10517276
0.078810 0.068722 0.662000 6779779
0.078690 0.072395 0.661000 7698837
0.078333 0.075827 0.658000 8160156
0.078214 0.079466 0.657000 8220293
0.077500 0.082460 0.651000 8353157
0.077381 0.086048 0.650000 8284024
0.077143 0.089486 0.648000 8214616
0.081643 0.039214 0.675000 6583690
0.081764 0.043135 0.676000 6519446
0.081764 0.046998 0.676000 7109530
0.081522 0.050710 0.674000 8223100
0.081522 0.054562 0.674000 9592388
0.081280 0.058240 0.672000 9009959
0.081038 0.061895 0.670000 10712094
0.080433 0.065233 0.665000 10320933
0.079829 0.068514 0.660000 6053479
0.079587 0.072067 0.658000 7633816
0.079466 0.075711 0.657000 8156292
0.079224 0.079224 0.655000 8611437
0.078740 0.082460 0.651000 8548979
0.078619 0.086048 0.650000 8615562
0.078256 0.089348 0.647000 8285815
0.082806 0.039156 0.674000 6584715
0.082806 0.043008 0.674000 6585235
0.082806 0.046859 0.674000 6519447
0.082437 0.050485 0.671000 7042719
0.082560 0.054400 0.672000 6161993
0.082437 0.058153 0.671000 8021310
0.081946 0.061618 0.667000 10384160
0.081331 0.064939 0.662000 9326128
0.081086 0.068514 0.660000 6763852
0.080717 0.071957 0.657000 7765402
0.080594 0.075596 0.656000 8213101
0.080226 0.078982 0.653000 8545621
0.079857 0.082333 0.650000 8544608
0.079857 0.086048 0.650000 8353948
0.079489 0.089348 0.647000 8488341
0.079120 0.092613 0.644000 8288663
0.084090 0.039156 0.674000 6585235
0.083840 0.042880 0.672000 6585498
0.083840 0.046720 0.672000 5929361
0.083715 0.050485 0.671000 5929092
0.083590 0.054238 0.670000 2770252
