# .PCD v.7 - Point Cloud Data file format
VERSION .7
FIELDS x y z rgb
SIZE 4 4 4 4
TYPE F F F I
COUNT 1 1 1 1
WIDTH 1334
HEIGHT 1
POINTS 1334
DATA ascii
0.101280 0.051360 0.504000 9798025
0.101079 0.054132 0.503000 10520449
0.100677 0.056780 0.501000 7359042
0.100476 0.059524 0.500000 6039841
0.100074 0.062131 0.498000 5260091
0.099672 0.064716 0.496000 9135428
0.099672 0.067550 0.496000 11577754
0.099672 0.070385 0.496000 10722211
0.099873 0.073367 0.497000 10061225
0.100275 0.076513 0.499000 7500431
0.100677 0.079683 0.501000 11245737
0.101079 0.082875 0.503000 13286348
0.101481 0.086090 0.505000 13946848
0.101883 0.089329 0.507000 14141917
0.118874 -0.020650 0.586000 11973738
0.118469 -0.017242 0.584000 10442796
0.117049 -0.013738 0.577000 13876589
0.116237 -0.010369 0.573000 7754899
0.115629 -0.007057 0.570000 8764414
0.115020 -0.003780 0.567000 10461433
0.114006 -0.000535 0.562000 10792185
0.112789 0.002648 0.556000 11580649
0.112180 0.005793 0.553000 12097182
0.111369 0.008889 0.549000 12242391
0.110354 0.011916 0.544000 12332635
0.109746 0.014942 0.541000 7344468
0.108934 0.017900 0.537000 10929383
0.107920 0.020773 0.532000 12498140
0.107311 0.023679 0.529000 15131390
0.106906 0.026601 0.527000 11636695
0.105891 0.029331 0.522000 15723764
0.105283 0.032129 0.519000 10004962
0.104674 0.034891 0.516000 9142688
0.104066 0.037620 0.513000 4074354
0.103457 0.040314 0.510000 5397387
0.102849 0.042974 0.507000 7682914
0.102849 0.045871 0.507000 8478838
0.102240 0.048480 0.504000 10064280
0.102037 0.051258 0.503000 9864332
0.101631 0.053917 0.501000 10388600
0.101226 0.056553 0.499000 6630145
0.101023 0.059286 0.498000 6504225
0.100617 0.061882 0.496000 6966824
0.100414 0.064586 0.495000 10451561
0.100414 0.067414 0.495000 11446209
0.100414 0.070243 0.495000 10389409
0.100617 0.073219 0.496000 10390435
0.101226 0.076513 0.499000 7425934
0.101631 0.079683 0.501000 11113131
0.102037 0.082875 0.503000 13417927
0.102646 0.086261 0.506000 14012381
0.102849 0.089329 0.507000 13549278
0.119786 -0.020614 0.585000 12636569
0.119376 -0.017212 0.583000 5469783
0.118352 -0.013762 0.578000 14790199
0.117329 -0.010369 0.573000 9657210
0.116714 -0.007057 0.570000 9159422
0.116305 -0.003787 0.568000 8762108
0.115281 -0.000536 0.563000 9815036
0.113643 0.002643 0.555000 11254508
0.113233 0.005793 0.553000 11703690
0.112210 0.008872 0.548000 12305113
0.111595 0.011938 0.545000 12058965
0.110776 0.014942 0.541000 8464726
0.109957 0.017900 0.537000 11326946
0.108933 0.020773 0.532000 12496087
0.108114 0.023634 0.528000 15519986
0.107910 0.026601 0.527000 11843551
0.106886 0.029331 0.522000 15660025
0.106271 0.032129 0.519000 11315425
0.105657 0.034891 0.516000 11839679
0.105043 0.037620 0.513000 4539275
0.104429 0.040314 0.510000 7176616
0.103814 0.042974 0.507000 8670870
0.103610 0.045781 0.506000 8871291
0.103200 0.048480 0.504000 10323075
0.102790 0.051156 0.502000 9863801
0.102176 0.053702 0.499000 10250078
0.101971 0.056440 0.498000 5838876
0.101767 0.059167 0.497000 6962465
0.101357 0.061757 0.495000 8738079
0.101152 0.064455 0.494000 11770504
0.101357 0.067414 0.495000 11249853
0.101357 0.070243 0.495000 9995423
0.101767 0.073367 0.497000 10783137
0.102176 0.076513 0.499000 7369369
0.102586 0.079683 0.501000 11051447
0.102995 0.082875 0.503000 13481154
0.103610 0.086261 0.506000 14080222
0.104019 0.089505 0.508000 12957130
0.120900 -0.020614 0.585000 13093063
0.120280 -0.017183 0.582000 8814978
0.119867 -0.013810 0.580000 11100417
0.118420 -0.010369 0.573000 9387618
0.117800 -0.007057 0.570000 9222398
0.117387 -0.003787 0.568000 9091582
0.116353 -0.000536 0.563000 10141950
0.114907 0.002648 0.556000 11321839
0.114287 0.005793 0.553000 11836022
0.113253 0.008872 0.548000 12504795
0.112427 0.011916 0.544000 11937614
0.111807 0.014942 0.541000 10102617
0.110980 0.017900 0.537000 11124956
0.110153 0.020812 0.533000 10260434
0.109327 0.023679 0.529000 14536677
0.108913 0.026601 0.527000 12497127
0.107880 0.029331 0.522000 15661310
0.107260 0.032129 0.519000 10059744
0.106433 0.034824 0.515000 12103645
0.106020 0.037620 0.513000 6369187
0.105400 0.040314 0.510000 9017028
0.104780 0.042974 0.507000 10051274
0.104573 0.045781 0.506000 8938111
0.103540 0.048191 0.501000 9528943
0.103333 0.050952 0.500000 9134437
0.102507 0.053379 0.496000 9260611
0.102713 0.056327 0.497000 6233910
0.102507 0.059048 0.496000 8607265
0.101887 0.061508 0.493000 9527574
0.101887 0.064325 0.493000 11973031
0.102093 0.067278 0.494000 11049912
0.102300 0.070243 0.495000 9602461
0.102920 0.073514 0.498000 10456478
0.103127 0.076513 0.499000 8813221
0.103540 0.079683 0.501000 11511234
0.104160 0.083040 0.504000 11834814
0.104780 0.086431 0.507000 13485023
0.104987 0.089505 0.508000 12229045
0.122223 -0.020650 0.586000 13610433
0.121389 -0.017183 0.582000 12104860
0.120971 -0.013810 0.580000 7431007
0.119511 -0.010369 0.573000 9057145
0.118677 -0.007045 0.569000 9225214
0.118469 -0.003787 0.568000 9419006
0.117426 -0.000536 0.563000 10403582
0.115966 0.002648 0.556000 11386869
0.115340 0.005793 0.553000 12035196
0.114297 0.008872 0.548000 12698840
0.113463 0.011916 0.544000 11799364
0.112837 0.014942 0.541000 11677527
0.112211 0.017933 0.538000 10932443
0.111377 0.020851 0.534000 8034509
0.110126 0.023634 0.528000 13550305
0.109917 0.026601 0.527000 13157095
0.108874 0.029331 0.522000 15662590
0.108249 0.032129 0.519000 8813748
0.107414 0.034824 0.515000 12362915
0.106789 0.037547 0.512000 8154286
0.106163 0.040235 0.509000 10851007
0.105537 0.042890 0.506000 11443387
0.105120 0.045600 0.504000 9011358
0.104494 0.048191 0.501000 8677498
0.104077 0.050850 0.499000 8343134
0.103451 0.053379 0.496000 8212041
0.103451 0.056213 0.496000 6626605
0.102826 0.058690 0.493000 10249009
0.102826 0.061508 0.493000 10312535
0.102826 0.064325 0.493000 12167334
0.103034 0.067278 0.494000 10791100
0.103243 0.070243 0.495000 9142424
0.103869 0.073514 0.498000 10194593
0.104077 0.076513 0.499000 10196392
0.104494 0.079683 0.501000 11972290
0.105120 0.083040 0.504000 10133187
0.105537 0.086261 0.506000 12958420
0.106163 0.089681 0.509000 11445693
0.123339 -0.020650 0.586000 13545915
0.122497 -0.017183 0.582000 13228727
0.121866 -0.013786 0.579000 9149884
0.120813 -0.010387 0.574000 8323472
0.119761 -0.007045 0.569000 9223166
0.119340 -0.003780 0.567000 9418749
0.118498 -0.000536 0.563000 10468862
0.117025 0.002648 0.556000 11519484
0.116393 0.005793 0.553000 11836545
0.115341 0.008872 0.548000 12571093
0.114499 0.011916 0.544000 12002874
0.113868 0.014942 0.541000 11741269
0.113026 0.017900 0.537000 10729689
0.112394 0.020851 0.534000 7966153
0.111342 0.023679 0.529000 13155548
0.110710 0.026550 0.526000 13287911
0.109869 0.029331 0.522000 14278398
0.109237 0.032129 0.519000 7689608
0.108606 0.034891 0.516000 10054249
0.107764 0.037547 0.512000 9075128
0.106922 0.040156 0.508000 10127033
0.106290 0.042805 0.505000 11976620
0.105870 0.045510 0.503000 9274300
0.105238 0.048095 0.500000 9931909
0.104817 0.050749 0.498000 8538966
0.104186 0.053271 0.495000 8082255
0.104186 0.056100 0.495000 7420195
0.103765 0.058690 0.493000 10251330
0.103554 0.061383 0.492000 10782616
0.103765 0.064325 0.493000 11046564
0.103975 0.067278 0.494000 11051711
0.104186 0.070243 0.495000 9207444
0.104817 0.073514 0.498000 10127268
0.105028 0.076513 0.499000 11513258
0.105449 0.079683 0.501000 12102594
0.106080 0.083040 0.504000 11248585
0.106501 0.086261 0.506000 12693960
0.107132 0.089681 0.509000 11971269
0.124455 -0.020650 0.586000 13546681
0.123606 -0.017183 0.582000 14337720
0.122969 -0.013786 0.579000 10869467
0.121907 -0.010387 0.574000 7632583
0.120845 -0.007045 0.569000 9223422
0.120420 -0.003780 0.567000 9419261
0.119570 -0.000536 0.563000 10600190
0.117871 0.002643 0.555000 11584241
0.117447 0.005793 0.553000 11703156
0.116385 0.008872 0.548000 12434901
0.115535 0.011916 0.544000 12126522
0.114898 0.014942 0.541000 11743576
0.114049 0.017900 0.537000 10538463
0.113411 0.020851 0.534000 7904210
0.112350 0.023679 0.529000 12834536
0.111712 0.026550 0.526000 13354730
0.110863 0.029331 0.522000 12969197
0.110226 0.032129 0.519000 6569583
0.109589 0.034891 0.516000 7733586
0.108739 0.037547 0.512000 9993898
0.107890 0.040156 0.508000 9405362
0.107040 0.042720 0.504000 12491439
0.106615 0.045419 0.502000 9534649
0.106190 0.048095 0.500000 11111330
0.105553 0.050647 0.497000 8738428
0.105129 0.053271 0.495000 7884135
0.104916 0.055987 0.494000 8278326
0.104491 0.058571 0.492000 10184273
0.104491 0.061383 0.492000 11317676
0.104491 0.064194 0.492000 9864351
0.104704 0.067142 0.493000 11317935
0.105129 0.070243 0.495000 9208475
0.105766 0.073514 0.498000 10061980
0.106190 0.076667 0.500000 12759739
0.106403 0.079683 0.501000 12298425
0.107040 0.083040 0.504000 12299207
0.107677 0.086431 0.507000 12432073
0.108314 0.089857 0.510000 12430534
0.124500 -0.017153 0.581000 13940410
0.124071 -0.013786 0.579000 12310010
0.123000 -0.010387 0.574000 9418238
0.122143 -0.007057 0.570000 9091838
0.121500 -0.003780 0.567000 9550333
0.120643 -0.000536 0.563000 10665726
0.118929 0.002643 0.555000 11517927
0.118500 0.005793 0.553000 11968103
0.117429 0.008872 0.548000 12504277
0.116571 0.011916 0.544000 11607353
0.115929 0.014942 0.541000 10949212
0.114857 0.017867 0.536000 10336484
0.114429 0.020851 0.534000 10072796
0.113571 0.023724 0.530000 13949939
0.112714 0.026550 0.526000 13287918
0.111857 0.029331 0.522000 12763100
0.111214 0.032129 0.519000 7555414
0.110571 0.034891 0.516000 5709626
0.109714 0.037547 0.512000 10056092
0.108857 0.040156 0.508000 9536171
0.108000 0.042720 0.504000 10718898
0.107571 0.045419 0.502000 9864374
0.106929 0.047999 0.499000 12427966
0.106286 0.050545 0.496000 10580386
0.105857 0.053164 0.494000 7687808
0.105643 0.055873 0.493000 9069128
0.105214 0.058452 0.491000 10313311
0.105214 0.061258 0.491000 10722239
0.105429 0.064194 0.492000 9863578
0.105643 0.067142 0.493000 10984351
0.106071 0.070243 0.495000 9207203
0.106714 0.073514 0.498000 10590100
0.106929 0.076513 0.499000 13222348
0.107357 0.079683 0.501000 12100528
0.108214 0.083205 0.505000 12366022
0.108643 0.086431 0.507000 12498121
0.109286 0.089857 0.510000 12496839
0.125607 -0.017153 0.581000 13546682
0.124958 -0.013762 0.578000 13749210
0.124093 -0.010387 0.574000 11128305
0.123012 -0.007045 0.569000 9025790
0.122580 -0.003780 0.567000 9615869
0.121931 -0.000537 0.564000 10731006
0.119986 0.002643 0.555000 11385322
0.119553 0.005793 0.553000 12296055
0.118472 0.008872 0.548000 12494021
0.117608 0.011916 0.544000 11084094
0.117175 0.014970 0.542000 10167385
0.115878 0.017867 0.536000 10206941
0.115446 0.020851 0.534000 12237275
0.114581 0.023724 0.530000 15063023
0.113932 0.026601 0.527000 13159659
0.112851 0.029331 0.522000 12564190
0.112203 0.032129 0.519000 8546916
0.111554 0.034891 0.516000 3674413
0.110690 0.037547 0.512000 10052226
0.110041 0.040235 0.509000 9673682
0.108960 0.042720 0.504000 8948673
0.108311 0.045329 0.501000 10189230
0.107879 0.047999 0.499000 13739977
0.107230 0.050545 0.496000 12418994
0.106582 0.053056 0.493000 7434910
0.106366 0.055760 0.492000 9924459
0.105717 0.058214 0.489000 10391185
0.106150 0.061258 0.491000 10193587
0.106150 0.064064 0.491000 9864349
0.106582 0.067142 0.493000 10718104
0.107230 0.070385 0.496000 9144750
0.107663 0.073514 0.498000 11185590
0.107879 0.076513 0.499000 13679307
0.108311 0.079683 0.501000 11902912
0.108960 0.083040 0.504000 12365766
0.109392 0.086261 0.506000 12630736
0.110257 0.089857 0.510000 12562889
0.126059 -0.013762 0.578000 13680313
0.125187 -0.010387 0.574000 12638435
0.123660 -0.007020 0.567000 10404862
0.123442 -0.003773 0.566000 9681660
0.123224 -0.000538 0.565000 10862334
0.121261 0.002648 0.556000 11450350
0.120607 0.005793 0.553000 12032902
0.119516 0.008872 0.548000 11968950
0.118644 0.011916 0.544000 10954306
0.118208 0.014970 0.542000 10428246
0.116899 0.017867 0.536000 10268373
0.116463 0.020851 0.534000 11645915
0.115590 0.023724 0.530000 14799083
0.114718 0.026550 0.526000 13150696
0.113846 0.029331 0.522000 11904480
0.113191 0.032129 0.519000 10986865
0.112537 0.034891 0.516000 3871775
0.111447 0.037473 0.511000 8210537
0.111010 0.040235 0.509000 10332920
0.109920 0.042720 0.504000 8880081
0.109266 0.045329 0.501000 9336742
0.108611 0.047903 0.498000 14135252
0.107957 0.050443 0.495000 12292033
0.107521 0.053056 0.493000 9797564
0.107085 0.055647 0.491000 11506317
0.106649 0.058214 0.489000 12368580
0.106649 0.061009 0.489000 10260391
0.107085 0.064064 0.491000 9930912
0.107521 0.067142 0.493000 10652304
0.108175 0.070385 0.496000 10391226
0.108611 0.073514 0.498000 12040152
0.108611 0.076360 0.498000 12954058
0.109266 0.079683 0.501000 12167887
0.109920 0.083040 0.504000 12299462
0.110574 0.086431 0.507000 12762071
0.111229 0.089857 0.510000 12563147
0.126280 -0.010387 0.574000 14140623
0.124740 -0.007020 0.567000 11717873
0.124300 -0.003767 0.565000 9748986
0.124080 -0.000537 0.564000 10993916
0.122320 0.002648 0.556000 11512524
0.121880 0.005804 0.554000 11770775
0.120780 0.008889 0.549000 11438518
0.119680 0.011916 0.544000 10889019
0.119240 0.014970 0.542000 10627664
0.117920 0.017867 0.536000 10271149
0.117260 0.020812 0.533000 10987994
0.116600 0.023724 0.530000 14534379
0.115720 0.026550 0.526000 13095921
0.114840 0.029331 0.522000 11314125
0.114180 0.032129 0.519000 13406053
0.113740 0.034959 0.517000 4133203
0.112420 0.037473 0.511000 6307938
0.111980 0.040235 0.509000 10989303
0.110880 0.042720 0.504000 8818894
0.110220 0.045329 0.501000 8550320
0.109560 0.047903 0.498000 14526409
0.108680 0.050341 0.494000 12095169
0.108240 0.052949 0.492000 12096177
0.108020 0.055647 0.491000 13022363
0.107580 0.058214 0.489000 14271953
0.107580 0.061009 0.489000 10324923
0.108020 0.064064 0.491000 9930651
0.108460 0.067142 0.493000 10648724
0.109120 0.070385 0.496000 11578302
0.109560 0.073514 0.498000 12962781
0.109780 0.076513 0.499000 12168386
0.110220 0.079683 0.501000 12432075
0.111100 0.083205 0.505000 12234694
0.111540 0.086431 0.507000 12959185
0.112200 0.089857 0.510000 12497098
0.127151 -0.010369 0.573000 13874107
0.125820 -0.007020 0.567000 12766436
0.125376 -0.003767 0.565000 11192568
0.124932 -0.000536 0.563000 11322362
0.123379 0.002648 0.556000 11506090
0.122713 0.005793 0.553000 11507368
0.121826 0.008889 0.549000 11444407
0.120716 0.011916 0.544000 10428467
0.120050 0.014942 0.541000 10955338
0.118941 0.017867 0.536000 10189445
0.118275 0.020812 0.533000 10526681
0.117610 0.023724 0.530000 14471403
0.116500 0.026500 0.525000 14545657
0.115834 0.029331 0.522000 10522041
0.115169 0.032129 0.519000 12882778
0.114725 0.034959 0.517000 6113159
0.113615 0.037547 0.512000 5711706
0.112950 0.040235 0.509000 10593525
0.111840 0.042720 0.504000 10920907
0.111174 0.045329 0.501000 8483257
0.110509 0.047903 0.498000 13810366
0.109621 0.050341 0.494000 11833025
0.109177 0.052949 0.492000 11700389
0.108511 0.055420 0.489000 13678505
0.108511 0.058214 0.489000 14011103
0.108733 0.061133 0.490000 10787791
0.108955 0.064064 0.491000 9537175
0.109399 0.067142 0.493000 10651799
0.110065 0.070385 0.496000 12303554
0.110509 0.073514 0.498000 12827617
0.110730 0.076513 0.499000 12169659
0.111174 0.079683 0.501000 12366278
0.111840 0.083040 0.504000 12366279
0.112728 0.086602 0.508000 12694731
0.128243 -0.010369 0.573000 13611706
0.126900 -0.007020 0.567000 13811665
0.126676 -0.003773 0.566000 12569058
0.126005 -0.000536 0.563000 11650285
0.124214 0.002643 0.555000 11445190
0.123767 0.005793 0.553000 11309442
0.122871 0.008889 0.549000 11376314
0.121752 0.011916 0.544000 10035522
0.121081 0.014942 0.541000 11220306
0.119962 0.017867 0.536000 10050937
0.119290 0.020812 0.533000 10002644
0.118619 0.023724 0.530000 14470381
0.117724 0.026550 0.526000 15985400
0.116605 0.029275 0.521000 9796754
0.116157 0.032129 0.519000 12293218
0.115710 0.034959 0.517000 8089495
0.114590 0.037547 0.512000 5064055
0.113919 0.040235 0.509000 10266077
0.112800 0.042720 0.504000 12949698
0.112352 0.045419 0.502000 8416696
0.111233 0.047807 0.497000 13006496
0.110562 0.050341 0.494000 11631289
0.110114 0.052949 0.492000 11241124
0.109443 0.055420 0.489000 14332843
0.109443 0.058214 0.489000 13683165
0.109667 0.061133 0.490000 11250646
0.109890 0.064064 0.491000 9077657
0.110338 0.067142 0.493000 10654378
0.111010 0.070385 0.496000 12957380
0.111457 0.073514 0.498000 12697043
0.111905 0.076667 0.500000 12168127
0.112129 0.079683 0.501000 12366791
0.112800 0.083040 0.504000 12432073
0.113695 0.086602 0.508000 12497098
0.129334 -0.010369 0.573000 13611449
0.128431 -0.007045 0.569000 13678781
0.127754 -0.003773 0.566000 13157580
0.127077 -0.000536 0.563000 12042720
0.125271 0.002643 0.555000 11774691
0.124594 0.005783 0.552000 11507804
0.124143 0.008905 0.550000 11316412
0.122789 0.011916 0.544000 10230864
0.122111 0.014942 0.541000 11351899
0.120983 0.017867 0.536000 10184044
0.120306 0.020812 0.533000 8880591
0.119629 0.023724 0.530000 14209263
0.118726 0.026550 0.526000 15331831
0.117597 0.029275 0.521000 10321003
0.116920 0.032067 0.518000 13348714
0.116694 0.034959 0.517000 8224678
0.115566 0.037547 0.512000 4603029
0.114889 0.040235 0.509000 9999557
0.113760 0.042720 0.504000 13079480
0.113309 0.045419 0.502000 9856950
0.112180 0.047807 0.497000 11812738
0.111729 0.050443 0.495000 11169456
0.111051 0.052949 0.492000 10839460
0.110374 0.055420 0.489000 13874348
0.110374 0.058214 0.489000 13682908
0.110600 0.061133 0.490000 11974364
0.110826 0.064064 0.491000 8946075
0.111277 0.067142 0.493000 11116476
0.111954 0.070385 0.496000 12299206
0.112406 0.073514 0.498000 12102340
0.113083 0.076820 0.501000 12234690
0.113309 0.079842 0.502000 12497863
0.113986 0.083205 0.505000 12497868
0.114663 0.086602 0.508000 12365769
0.128832 -0.003773 0.566000 13744834
0.128150 -0.000536 0.563000 12499408
0.126329 0.002643 0.555000 12107488
0.125646 0.005783 0.552000 11703978
0.124963 0.008889 0.549000 11183564
0.124052 0.011938 0.545000 10487891
0.123142 0.014942 0.541000 11478365
0.122004 0.017867 0.536000 10312330
0.121549 0.020851 0.534000 7706574
0.120410 0.023679 0.529000 14012656
0.119955 0.026601 0.527000 14600420
0.118590 0.029275 0.521000 10911349
0.117907 0.032067 0.518000 14329726
0.117451 0.034891 0.516000 8422061
0.116541 0.037547 0.512000 4144783
0.115630 0.040156 0.508000 9734829
0.114948 0.042805 0.505000 13210819
0.114037 0.045329 0.501000 11297977
0.113127 0.047807 0.497000 10572696
0.112671 0.050443 0.495000 10774453
0.111989 0.052949 0.492000 10458802
0.111306 0.055420 0.489000 13414589
0.111306 0.058214 0.489000 13617370
0.111761 0.061258 0.491000 12763611
0.111761 0.064064 0.491000 8816816
0.112216 0.067142 0.493000 11578560
0.112899 0.070385 0.496000 11575229
0.113354 0.073514 0.498000 11576001
0.114037 0.076820 0.501000 12300740
0.114265 0.079842 0.502000 12563144
0.114720 0.083040 0.504000 12563915
0.115630 0.086602 0.508000 12299718
0.129910 -0.003773 0.566000 13678008
0.127386 0.002643 0.555000 12767197
0.126697 0.005783 0.552000 11709175
0.126009 0.008889 0.549000 11848924
0.125090 0.011938 0.545000 10101078
0.124172 0.014942 0.541000 11141983
0.123025 0.017867 0.536000 9991079
0.122795 0.020890 0.535000 7640012
0.121189 0.023634 0.528000 13947633
0.120730 0.026550 0.526000 12169170
0.119811 0.029331 0.522000 10519422
0.118893 0.032067 0.518000 14198163
0.118434 0.034891 0.516000 8225716
0.117516 0.037547 0.512000 4657801
0.116598 0.040156 0.508000 9730708
0.115910 0.042805 0.505000 12230094
0.115221 0.045419 0.502000 11759291
0.114073 0.047807 0.497000 11429550
0.113844 0.050545 0.496000 10778298
0.112696 0.052841 0.491000 10460096
0.112237 0.055420 0.489000 13549262
0.112008 0.058095 0.488000 13682649
0.112696 0.061258 0.491000 13091289
0.112926 0.064194 0.492000 9801924
0.113155 0.067142 0.493000 12037572
0.113844 0.070385 0.496000 11111605
0.114303 0.073514 0.498000 11971005
0.114991 0.076820 0.501000 12367045
0.115450 0.080001 0.503000 12563657
0.115680 0.083040 0.504000 12826313
0.116598 0.086602 0.508000 12101826
0.128443 0.002643 0.555000 13354191
0.127749 0.005783 0.552000 11782125
0.127054 0.008889 0.549000 12500968
0.126129 0.011938 0.545000 9794983
0.124971 0.014914 0.540000 10844589
0.124277 0.017900 0.537000 9742520
0.123583 0.020851 0.534000 7573453
0.122426 0.023679 0.529000 13819892
0.121500 0.026500 0.525000 9669837
0.120574 0.029275 0.521000 10125418
0.119880 0.032067 0.518000 13996689
0.119417 0.034891 0.516000 8095409
0.118491 0.037547 0.512000 5138055
0.117566 0.040156 0.508000 9727375
0.116871 0.042805 0.505000 11180490
0.116409 0.045510 0.503000 12225737
0.115251 0.047903 0.498000 12218289
0.114789 0.050545 0.496000 10844846
0.113400 0.052733 0.490000 10395841
0.113169 0.055420 0.489000 13683156
0.113169 0.058214 0.489000 13682392
0.113631 0.061258 0.491000 13421786
0.113863 0.064194 0.492000 10790088
0.114094 0.067142 0.493000 12497857
0.114789 0.070385 0.496000 10593725
0.115251 0.073514 0.498000 12365249
0.115946 0.076820 0.501000 12366535
0.116177 0.079842 0.502000 12563921
0.116871 0.083205 0.505000 13022665
0.117797 0.086772 0.509000 11905986
0.128800 0.005783 0.552000 12436450
0.128100 0.008889 0.549000 12438259
0.126933 0.011916 0.544000 11449847
0.126000 0.014914 0.540000 11915260
0.125300 0.017900 0.537000 9344712
0.124833 0.020890 0.535000 7636943
0.123433 0.023679 0.529000 12699894
0.122500 0.026500 0.525000 9925832
0.121567 0.029275 0.521000 8672598
0.120867 0.032067 0.518000 13012879
0.120400 0.034891 0.516000 8160430
0.119467 0.037547 0.512000 7640452
0.118533 0.040156 0.508000 9468810
0.117833 0.042805 0.505000 10063559
0.117367 0.045510 0.503000 13021910
0.116200 0.047903 0.498000 13010357
0.115967 0.050647 0.497000 10388129
0.114567 0.052841 0.491000 10060994
0.114100 0.055420 0.489000 14011353
0.114100 0.058214 0.489000 13616855
0.114567 0.061258 0.491000 13617115
0.114800 0.064194 0.492000 11710412
0.115033 0.067142 0.493000 12364733
0.115500 0.070243 0.495000 11777477
0.116433 0.073662 0.499000 12365253
0.116900 0.076820 0.501000 12167882
0.117367 0.080001 0.503000 12695768
0.118300 0.083534 0.507000 12760521
0.118767 0.086772 0.509000 11905218
0.129851 0.005783 0.552000 13090770
0.128910 0.008872 0.548000 12306150
0.127970 0.011916 0.544000 13095157
0.127029 0.014914 0.540000 12898041
0.126323 0.017900 0.537000 8941492
0.125617 0.020851 0.534000 7639504
0.124206 0.023634 0.528000 11586293
0.123500 0.026500 0.525000 10196438
0.122559 0.029275 0.521000 7240607
0.121853 0.032067 0.518000 11960995
0.121383 0.034891 0.516000 8224914
0.120207 0.037473 0.511000 10067844
0.119266 0.040077 0.507000 9210508
0.118795 0.042805 0.505000 8948159
0.118325 0.045510 0.503000 13813720
0.117149 0.047903 0.498000 13743284
0.116678 0.050545 0.496000 9996958
0.115737 0.052949 0.492000 9669034
0.115031 0.055420 0.489000 14341333
0.114796 0.058095 0.488000 13551061
0.115502 0.061258 0.491000 13812953
0.115737 0.064194 0.492000 12565459
0.115972 0.067142 0.493000 12230844
0.116678 0.070385 0.496000 12891336
0.117619 0.073810 0.500000 12430791
0.117854 0.076820 0.501000 11906504
0.118325 0.080001 0.503000 12827858
0.119266 0.083534 0.507000 12432070
0.119736 0.086772 0.509000 11904704
0.130666 0.005772 0.551000 13352130
0.130191 0.008889 0.549000 12829402
0.129006 0.011916 0.544000 12963571
0.128294 0.014942 0.541000 12305911
0.127346 0.017900 0.537000 8288927
0.126634 0.020851 0.534000 8228306
0.125211 0.023634 0.528000 11255539
0.124737 0.026550 0.526000 11319525
0.123789 0.029331 0.522000 10269927
0.122840 0.032067 0.518000 12949176
0.122603 0.034959 0.517000 7954806
0.120943 0.037400 0.510000 10068611
0.120231 0.040077 0.507000 9538446
0.119520 0.042720 0.504000 8874423
0.119046 0.045419 0.502000 13285337
0.118097 0.047903 0.498000 14931379
0.117386 0.050443 0.495000 10917018
0.116674 0.052949 0.492000 9402003
0.116200 0.055533 0.490000 14339792
0.115963 0.058214 0.489000 13615828
0.116437 0.061258 0.491000 13813207
0.116674 0.064194 0.492000 12698587
0.116911 0.067142 0.493000 12035259
0.117623 0.070385 0.496000 12628427
0.118334 0.073662 0.499000 12497096
0.118809 0.076820 0.501000 12234694
0.119520 0.080160 0.504000 12628940
0.120231 0.083534 0.507000 12366532
0.120706 0.086772 0.509000 12297918
0.131715 0.005772 0.551000 13614016
0.130998 0.008872 0.548000 13353164
0.129803 0.011894 0.543000 12898287
0.129325 0.014942 0.541000 11651575
0.128369 0.017900 0.537000 7695540
0.127651 0.020851 0.534000 8822230
0.125978 0.023590 0.527000 10997226
0.125739 0.026550 0.526000 12435691
0.125022 0.029388 0.523000 13290471
0.123827 0.032067 0.518000 13875910
0.123349 0.034891 0.516000 7745644
0.122153 0.037473 0.511000 10065803
0.121197 0.040077 0.507000 9863830
0.120480 0.042720 0.504000 8815803
0.120002 0.045419 0.502000 12755119
0.119046 0.047903 0.498000 16110260
0.118329 0.050443 0.495000 11898767
0.117372 0.052841 0.491000 9146519
0.116894 0.055420 0.489000 14340552
0.116655 0.058095 0.488000 13615570
0.116894 0.061009 0.489000 13878485
0.117372 0.064064 0.491000 12760789
0.117850 0.067142 0.493000 11839424
0.118568 0.070385 0.496000 12300488
0.119285 0.073662 0.499000 12562888
0.119763 0.076820 0.501000 12498120
0.120480 0.080160 0.504000 12497100
0.121197 0.083534 0.507000 12298950
0.121914 0.086943 0.510000 12625606
0.132042 0.008872 0.548000 13482431
0.130596 0.011872 0.542000 13553899
0.130355 0.014942 0.541000 12702198
0.129391 0.017900 0.537000 8096712
0.128428 0.020812 0.533000 9871834
0.126982 0.023590 0.527000 11452896
0.126741 0.026550 0.526000 13027058
0.126018 0.029388 0.523000 12830439
0.124813 0.032067 0.518000 14014165
0.124331 0.034891 0.516000 8348513
0.123127 0.037473 0.511000 9142675
0.122163 0.040077 0.507000 10193821
0.121199 0.042635 0.503000 9867968
0.120717 0.045329 0.501000 12953220
0.119753 0.047807 0.497000 16175541
0.119030 0.050341 0.494000 12690308
0.118308 0.052841 0.491000 12231836
0.117826 0.055420 0.489000 14273216
0.117585 0.058095 0.488000 13483985
0.117826 0.061009 0.489000 13746899
0.118308 0.064064 0.491000 12958927
0.118790 0.067142 0.493000 11970500
0.119512 0.070385 0.496000 12168389
0.120235 0.073662 0.499000 12563143
0.120476 0.076667 0.500000 12694731
0.121440 0.080160 0.504000 12432075
0.121922 0.083370 0.506000 11639751
0.122645 0.086772 0.509000 13020621
0.131629 0.011872 0.542000 14272465
0.131143 0.014914 0.540000 13752558
0.130414 0.017900 0.537000 8492255
0.129443 0.020812 0.533000 10856669
0.127986 0.023590 0.527000 11910115
0.127500 0.026500 0.525000 13555441
0.126529 0.029275 0.521000 12437746
0.125800 0.032067 0.518000 14062221
0.125071 0.034824 0.515000 8870287
0.124343 0.037547 0.512000 8155805
0.123371 0.040156 0.508000 10519705
0.122157 0.042635 0.503000 10854065
0.121671 0.045329 0.501000 13220173
0.121186 0.047999 0.499000 16241322
0.119729 0.050239 0.493000 13544081
0.119243 0.052841 0.491000 15253663
0.118757 0.055420 0.489000 14271936
0.118514 0.058095 0.488000 13352913
0.118757 0.061009 0.489000 13681364
0.119243 0.064064 0.491000 13089738
0.119729 0.067142 0.493000 12168133
0.120457 0.070385 0.496000 12037064
0.120943 0.073514 0.498000 12563656
0.121429 0.076667 0.500000 12890826
0.122400 0.080160 0.504000 12432331
0.123371 0.083699 0.508000 10986954
0.123857 0.086943 0.510000 13350345
0.132661 0.011872 0.542000 14007735
0.131927 0.014887 0.539000 14080742
0.131192 0.017867 0.536000 10071797
0.130213 0.020773 0.532000 10724832
0.128990 0.023590 0.527000 11581670
0.128500 0.026500 0.525000 14149104
0.127766 0.029331 0.522000 12171260
0.126542 0.032005 0.517000 9917253
0.125808 0.034756 0.514000 8681148
0.125318 0.037547 0.512000 7551654
0.124339 0.040156 0.508000 9728661
0.123360 0.042720 0.504000 10460577
0.122626 0.045329 0.501000 11962901
0.122136 0.047999 0.499000 15781534
0.120668 0.050239 0.493000 13412765
0.120668 0.053056 0.493000 15647906
0.119444 0.055307 0.488000 14272191
0.119444 0.058095 0.488000 13484498
0.119689 0.061009 0.489000 13550548
0.120178 0.064064 0.491000 12628421
0.120912 0.067278 0.494000 12366534
0.121402 0.070385 0.496000 12365258
0.121891 0.073514 0.498000 12498121
0.122381 0.076667 0.500000 12693705
0.123360 0.080160 0.504000 12695243
0.124094 0.083534 0.507000 12365517
0.124829 0.086943 0.510000 13281988
0.133200 0.011829 0.540000 13808825
0.133200 0.014914 0.540000 14338513
0.132213 0.017867 0.536000 11715818
0.131227 0.020773 0.532000 10597600
0.129993 0.023590 0.527000 11252461
0.129747 0.026550 0.526000 14669807
0.128760 0.029331 0.522000 11913970
0.127280 0.031943 0.516000 5783133
0.126787 0.034756 0.514000 8488880
0.126293 0.037547 0.512000 6979273
0.125060 0.040077 0.507000 8938405
0.124320 0.042720 0.504000 10052997
0.123580 0.045329 0.501000 10762029
0.122840 0.047903 0.498000 15245448
0.121607 0.050239 0.493000 13343928
0.121607 0.053056 0.493000 15975077
0.120373 0.055307 0.488000 14270653
0.120373 0.058095 0.488000 13550549
0.120620 0.061009 0.489000 13485261
0.121113 0.064064 0.491000 12168125
0.121853 0.067278 0.494000 12497860
0.122593 0.070527 0.497000 12629707
0.122840 0.073514 0.498000 12498379
0.123333 0.076667 0.500000 12431049
0.124320 0.080160 0.504000 13023692
0.125060 0.083534 0.507000 13677516
0.125800 0.086943 0.510000 13151431
0.134229 0.011829 0.540000 13743546
0.134229 0.014914 0.540000 14138044
0.133234 0.017867 0.536000 12566750
0.132240 0.020773 0.532000 11582432
0.130997 0.023590 0.527000 12568051
0.130500 0.026500 0.525000 14211055
0.129754 0.029331 0.522000 11711719
0.128263 0.031943 0.516000 6445173
0.127766 0.034756 0.514000 7762083
0.127269 0.037547 0.512000 9873133
0.126026 0.040077 0.507000 9666229
0.125031 0.042635 0.503000 7417706
0.124534 0.045329 0.501000 10367557
0.124037 0.047999 0.499000 12151922
0.122794 0.050341 0.494000 11504850
0.122546 0.053056 0.493000 15910824
0.121551 0.055420 0.489000 14139578
0.121303 0.058095 0.488000 13550807
0.121551 0.061009 0.489000 12825285
0.122049 0.064064 0.491000 12034485
0.122794 0.067278 0.494000 12365762
0.123291 0.070385 0.496000 12893901
0.123789 0.073514 0.498000 12300236
0.124286 0.076667 0.500000 12298953
0.125280 0.080160 0.504000 13153996
0.126274 0.083699 0.508000 13677515
0.126771 0.086943 0.510000 13546441
0.135257 0.011829 0.540000 13743801
0.135257 0.014914 0.540000 13875645
0.134255 0.017867 0.536000 13483214
0.133253 0.020773 0.532000 12567513
0.132001 0.023590 0.527000 13886448
0.131500 0.026500 0.525000 13751533
0.130498 0.029275 0.521000 11581168
0.129496 0.032005 0.517000 7034770
0.128745 0.034756 0.514000 7107479
0.127993 0.037473 0.511000 12759527
0.127242 0.040156 0.508000 10457295
0.125990 0.042635 0.503000 4800623
0.125489 0.045329 0.501000 10041418
0.124988 0.047999 0.499000 9067635
0.123986 0.050443 0.495000 9669845
0.123485 0.053056 0.493000 15777960
0.122483 0.055420 0.489000 14071991
0.122232 0.058095 0.488000 13485528
0.122733 0.061133 0.490000 12165577
0.123234 0.064194 0.492000 11837108
0.123986 0.067414 0.495000 12169152
0.124236 0.070385 0.496000 13153994
0.124737 0.073514 0.498000 12168137
0.125739 0.076973 0.502000 12101573
0.126490 0.080319 0.505000 13285840
0.127242 0.083699 0.508000 13677001
0.127743 0.086943 0.510000 13938380
0.136286 0.014914 0.540000 13941438
0.135276 0.017867 0.536000 13679038
0.134014 0.020734 0.531000 13355474
0.133762 0.023724 0.530000 14081517
0.132500 0.026500 0.525000 13946092
0.131490 0.029275 0.521000 12239352
0.130481 0.032005 0.517000 9010351
0.129724 0.034756 0.514000 7301002
0.128967 0.037473 0.511000 12494817
0.127957 0.040077 0.507000 10328041
0.126948 0.042635 0.503000 5124980
0.126443 0.045329 0.501000 9776974
0.125686 0.047903 0.498000 9198964
0.124676 0.050341 0.494000 9998040
0.124424 0.053056 0.493000 15977641
0.123414 0.055420 0.489000 14007987
0.123414 0.058214 0.489000 13616345
0.123667 0.061133 0.490000 12232908
0.124424 0.064325 0.493000 11508916
0.124929 0.067414 0.495000 12168382
0.125181 0.070385 0.496000 12693191
0.125938 0.073662 0.499000 12102598
0.126695 0.076973 0.502000 12101058
0.127452 0.080319 0.505000 13613012
0.128210 0.083699 0.508000 13742023
0.128714 0.086943 0.510000 13941198
0.136297 0.017867 0.536000 13809854
0.135026 0.020734 0.531000 14074313
0.134771 0.023724 0.530000 14343126
0.133246 0.026450 0.524000 14146547
0.132483 0.029275 0.521000 12897269
0.131466 0.032005 0.517000 10920121
0.130703 0.034756 0.514000 7563655
0.129940 0.037473 0.511000 12168933
0.128923 0.040077 0.507000 10193868
0.128160 0.042720 0.504000 5389681
0.127143 0.045238 0.500000 9514830
0.126634 0.047903 0.498000 9331061
0.125617 0.050341 0.494000 10326995
0.125363 0.053056 0.493000 16173992
0.124346 0.055420 0.489000 13941173
0.124346 0.058214 0.489000 13747158
0.124600 0.061133 0.490000 12301260
0.125363 0.064325 0.493000 11115702
0.125871 0.067414 0.495000 12169407
0.126380 0.070527 0.497000 12234179
0.126889 0.073662 0.499000 12102342
0.127651 0.076973 0.502000 12038088
0.128669 0.080478 0.506000 13940176
0.129431 0.083864 0.509000 13742027
0.129940 0.087113 0.511000 13876172
0.135781 0.023724 0.530000 14272958
0.134244 0.026450 0.524000 14870266
0.133219 0.029219 0.520000 13028594
0.132450 0.032005 0.517000 10597827
0.131426 0.034689 0.513000 7231619
0.130913 0.037473 0.511000 11315177
0.130145 0.040156 0.508000 9141678
0.129120 0.042720 0.504000 4860526
0.128351 0.045329 0.501000 9647182
0.127583 0.047903 0.498000 10842230
0.126558 0.050341 0.494000 10128077
0.126046 0.052949 0.492000 16177063
0.125533 0.055533 0.490000 13811382
0.125021 0.058095 0.488000 13746900
0.125533 0.061133 0.490000 12499659
0.126302 0.064325 0.493000 11377848
0.126814 0.067414 0.495000 12103359
0.127327 0.070527 0.497000 11971007
0.128095 0.073810 0.500000 12496582
0.128864 0.077127 0.503000 12957134
0.129632 0.080478 0.506000 13939660
0.130401 0.083864 0.509000 13741519
0.134468 0.029275 0.521000 13163509
0.133693 0.032067 0.518000 10182324
0.132403 0.034689 0.513000 6835848
0.131629 0.037400 0.510000 10394838
0.131112 0.040156 0.508000 8082046
0.129822 0.042635 0.503000 4270689
0.129306 0.045329 0.501000 9779536
0.128531 0.047903 0.498000 12287606
0.127499 0.050341 0.494000 9929635
0.126725 0.052841 0.491000 16174238
0.126467 0.055533 0.490000 13743795
0.126209 0.058214 0.489000 13681620
0.126725 0.061258 0.491000 12764367
0.127241 0.064325 0.493000 11640498
0.128015 0.067550 0.496000 12103876
0.128531 0.070669 0.498000 11643584
0.129306 0.073957 0.501000 12890569
0.130080 0.077280 0.504000 13874638
0.130596 0.080478 0.506000 13939150
0.131370 0.083864 0.509000 13744079
0.135200 0.029219 0.520000 13359096
0.134420 0.032005 0.517000 7473574
0.133380 0.034689 0.513000 6970765
0.132600 0.037400 0.510000 9538500
0.132080 0.040156 0.508000 8665933
0.130780 0.042635 0.503000 6104661
0.130260 0.045329 0.501000 9780306
0.129480 0.047903 0.498000 12750711
0.128180 0.050239 0.493000 10513017
0.127660 0.052841 0.491000 16177557
0.127400 0.055533 0.490000 13481648
0.127140 0.058214 0.489000 13681620
0.127660 0.061258 0.491000 12761555
0.128180 0.064325 0.493000 11245740
0.128960 0.067550 0.496000 12235464
0.129480 0.070669 0.498000 11774402
0.130260 0.073957 0.501000 12956876
0.131040 0.077280 0.504000 13808846
0.131560 0.080478 0.506000 13873871
0.132340 0.083864 0.509000 13745104
0.136452 0.029275 0.521000 13623006
0.135405 0.032005 0.517000 4806076
0.134357 0.034689 0.513000 7108467
0.133571 0.037400 0.510000 8616886
0.133310 0.040235 0.509000 9264786
0.131738 0.042635 0.503000 7941211
0.131214 0.045329 0.501000 9845588
0.130429 0.047903 0.498000 13140334
0.129119 0.050239 0.493000 11168132
0.128595 0.052841 0.491000 16174751
0.128333 0.055533 0.490000 13283247
0.128333 0.058333 0.490000 13681874
0.128595 0.061258 0.491000 12827608
0.129119 0.064325 0.493000 10854323
0.129905 0.067550 0.496000 12367558
0.130429 0.070669 0.498000 11839949
0.131476 0.074105 0.502000 13025233
0.132000 0.077280 0.504000 13743308
0.132524 0.080478 0.506000 13874386
0.133571 0.084029 0.510000 13680342
0.137445 0.029275 0.521000 13813699
0.136390 0.032005 0.517000 8623571
0.135070 0.034621 0.512000 7364953
0.134543 0.037400 0.510000 9340328
0.134279 0.040235 0.509000 9665495
0.132960 0.042720 0.504000 9054050
0.132169 0.045329 0.501000 9843797
0.131377 0.047903 0.498000 11764582
0.130058 0.050239 0.493000 11762831
0.129530 0.052841 0.491000 16375466
0.129267 0.055533 0.490000 12955822
0.129267 0.058333 0.490000 13945296
0.129530 0.061258 0.491000 13091804
0.130058 0.064325 0.493000 11051194
0.130850 0.067550 0.496000 12431556
0.131641 0.070810 0.499000 12495576
0.132432 0.074105 0.502000 13615061
0.132960 0.077280 0.504000 13808843
0.133488 0.080478 0.506000 13942228
0.134543 0.084029 0.510000 13812188
0.138437 0.029275 0.521000 14006209
0.137906 0.032129 0.519000 12429513
0.135780 0.034553 0.511000 7698065
0.135514 0.037400 0.510000 10064053
0.135249 0.040235 0.509000 10069456
0.133920 0.042720 0.504000 10184856
0.133123 0.045329 0.501000 9843281
0.132326 0.047903 0.498000 10312811
0.131263 0.050341 0.494000 12288661
0.130466 0.052841 0.491000 16571055
0.130466 0.055647 0.491000 12626350
0.130200 0.058333 0.490000 14206674
0.130466 0.061258 0.491000 13290459
0.130997 0.064325 0.493000 11247800
0.131794 0.067550 0.496000 12497875
0.132591 0.070810 0.499000 13158112
0.133389 0.074105 0.502000 14204371
0.133920 0.077280 0.504000 13808336
0.134717 0.080637 0.507000 14008031
0.135514 0.084029 0.510000 13879777
0.136486 0.034486 0.510000 10858185
0.136486 0.037400 0.510000 11115202
0.136218 0.040235 0.509000 9737672
0.134880 0.042720 0.504000 11382734
0.134077 0.045329 0.501000 9648973
0.133274 0.047903 0.498000 9979505
0.132204 0.050341 0.494000 12161178
0.131401 0.052841 0.491000 16374452
0.131401 0.055647 0.491000 12758446
0.131401 0.058452 0.491000 14010836
0.131669 0.061383 0.492000 13156825
0.132204 0.064455 0.494000 11180727
0.132739 0.067550 0.496000 13421282
0.133810 0.070952 0.500000 13816809
0.134345 0.074105 0.502000 13941201
0.134880 0.077280 0.504000 14004181
0.135950 0.080796 0.508000 14208489
0.136486 0.084029 0.510000 13881573
0.137457 0.034486 0.510000 14013892
0.137457 0.037400 0.510000 12170952
0.137188 0.040235 0.509000 9342427
0.136110 0.042805 0.505000 12558540
0.135031 0.045329 0.501000 9465247
0.134223 0.047903 0.498000 9659287
0.133145 0.050341 0.494000 12030361
0.132336 0.052841 0.491000 16111539
0.132336 0.055647 0.491000 12889016
0.132336 0.058452 0.491000 13747668
0.132606 0.061383 0.492000 12962267
0.132875 0.064325 0.493000 11051973
0.133953 0.067687 0.497000 14410462
0.134492 0.070810 0.499000 14405346
0.135570 0.074252 0.503000 13744085
0.136379 0.077587 0.506000 14205148
0.136918 0.080796 0.508000 14408675
0.137727 0.084193 0.511000 13878229
0.138429 0.034486 0.510000 13746110
0.138429 0.037400 0.510000 13159887
0.138429 0.040314 0.510000 10330605
0.137071 0.042805 0.505000 11048139
0.135986 0.045329 0.501000 11050225
0.135443 0.047999 0.499000 10000318
0.134086 0.050341 0.494000 12162199
0.133271 0.052841 0.491000 15850674
0.133271 0.055647 0.491000 12759233
0.133271 0.058452 0.491000 13747411
0.133543 0.061383 0.492000 13288669
0.134086 0.064455 0.494000 12563923
0.134900 0.067687 0.497000 13814746
0.135714 0.070952 0.500000 14403803
0.136529 0.074252 0.503000 13941209
0.137343 0.077587 0.506000 14341602
0.137886 0.080796 0.508000 13548252
0.138700 0.084193 0.511000 13220294
0.139400 0.037400 0.510000 14139593
0.139400 0.040314 0.510000 11319260
0.138033 0.042805 0.505000 9543890
0.136940 0.045329 0.501000 12636133
0.136120 0.047903 0.498000 10263477
0.135027 0.050341 0.494000 12294288
0.134207 0.052841 0.491000 15586490
0.134207 0.055647 0.491000 12693193
0.134207 0.058452 0.491000 13747668
0.134480 0.061383 0.492000 13618655
0.135573 0.064716 0.496000 14010584
0.136120 0.067823 0.498000 13286104
0.136667 0.070952 0.500000 14404833
0.137760 0.074400 0.504000 14139875
0.138580 0.077740 0.507000 14406115
0.138853 0.080796 0.508000 12690897
0.139947 0.084358 0.512000 12563914
0.140371 0.037400 0.510000 13875906
0.140371 0.040314 0.510000 12499658
0.139270 0.042890 0.506000 11643866
0.137894 0.045329 0.501000 13947609
0.137069 0.047903 0.498000 10652588
0.136518 0.050545 0.496000 12491401
0.135417 0.052949 0.492000 15390913
0.135142 0.055647 0.491000 12892113
0.135142 0.058452 0.491000 13813205
0.135692 0.061508 0.493000 13815521
0.136518 0.064716 0.496000 13882333
0.137069 0.067823 0.498000 13352662
0.138170 0.071236 0.502000 14538982
0.138720 0.074400 0.504000 14405612
0.139546 0.077740 0.507000 14142692
0.140096 0.080955 0.509000 12560837
0.140922 0.084358 0.512000 12694222
0.141343 0.037400 0.510000 13613761
0.141343 0.040314 0.510000 13680327
0.140511 0.042974 0.507000 13682648
0.138849 0.045329 0.501000 15261407
0.138017 0.047903 0.498000 10985141
0.137463 0.050545 0.496000 12757407
0.136354 0.052949 0.492000 15192263
0.136077 0.055647 0.491000 13090770
0.136077 0.058452 0.491000 13879255
0.136631 0.061508 0.493000 14077670
0.137463 0.064716 0.496000 13746388
0.138017 0.067823 0.498000 13485535
0.139126 0.071236 0.502000 14669543
0.139680 0.074400 0.504000 14669034
0.140511 0.077740 0.507000 13879523
0.141066 0.080955 0.509000 12430805
0.141620 0.084193 0.511000 12761813
0.142314 0.037400 0.510000 13679296
0.142314 0.040314 0.510000 13614275
0.141198 0.042890 0.506000 13816535
0.140082 0.045419 0.502000 15526373
0.138966 0.047903 0.498000 13022654
0.138408 0.050545 0.496000 13875125
0.137570 0.053056 0.493000 14996940
0.137012 0.055647 0.491000 13222355
0.137012 0.058452 0.491000 13945050
0.137570 0.061508 0.493000 14011370
0.138408 0.064716 0.496000 12491468
0.138966 0.067823 0.498000 14078183
0.140082 0.071236 0.502000 14669288
0.140640 0.074400 0.504000 14603496
0.141477 0.077740 0.507000 14075619
0.142035 0.080955 0.509000 13421284
0.142872 0.084358 0.512000 12827100
0.143286 0.040314 0.510000 13613761
0.142162 0.042890 0.506000 13943240
0.141038 0.045419 0.502000 15787738
0.139914 0.047903 0.498000 15062227
0.139352 0.050545 0.496000 14996176
0.138510 0.053056 0.493000 14800342
0.137948 0.055647 0.491000 13420759
0.137948 0.058452 0.491000 13945309
0.138510 0.061508 0.493000 13947105
0.139352 0.064716 0.496000 11252432
0.139914 0.067823 0.498000 14669289
0.141038 0.071236 0.502000 14603752
0.141881 0.074548 0.505000 14472424
0.142443 0.077740 0.507000 14208742
0.143005 0.080955 0.509000 14475236
0.143848 0.084358 0.512000 12892885
0.144257 0.040314 0.510000 13613758
0.143409 0.042974 0.507000 13808825
0.140863 0.047903 0.498000 15398120
0.140297 0.050545 0.496000 15393514
0.139449 0.053056 0.493000 14866912
0.138883 0.055647 0.491000 13551579
0.139166 0.058571 0.492000 14010591
0.139731 0.061632 0.494000 13485015
0.140297 0.064716 0.496000 12630484
0.140863 0.067823 0.498000 14604011
0.141994 0.071236 0.502000 14603753
0.142843 0.074548 0.505000 14538215
0.143691 0.077893 0.508000 14472937
0.143974 0.080955 0.509000 14012644
0.144823 0.084358 0.512000 12826062
0.141811 0.047903 0.498000 15719639
0.141242 0.050545 0.496000 15854580
0.140388 0.053056 0.493000 14867429
0.140103 0.055760 0.492000 13682909
0.140388 0.058690 0.493000 14077153
0.140672 0.061632 0.494000 13024482
0.141242 0.064716 0.496000 13943769
0.141811 0.067823 0.498000 14604010
0.142950 0.071236 0.502000 14603754
0.144090 0.074695 0.506000 14604263
0.144659 0.077893 0.508000 14734823
0.145229 0.081114 0.510000 13552345
0.145798 0.084358 0.512000 12760267
0.142760 0.047903 0.498000 14533062
0.141900 0.050443 0.495000 15394045
0.141040 0.052949 0.492000 14932714
0.141040 0.055760 0.492000 13748703
0.141327 0.058690 0.493000 14142947
0.141613 0.061632 0.494000 13155820
0.142187 0.064716 0.496000 14275294
0.143047 0.067959 0.499000 14604008
0.143907 0.071236 0.502000 14669291
0.145053 0.074695 0.506000 14538214
0.145913 0.078047 0.509000 14603750
0.146200 0.081114 0.510000 13154509
0.146773 0.084358 0.512000 12563145
0.142843 0.050443 0.495000 14996952
0.141977 0.052949 0.492000 14934251
0.141977 0.055760 0.492000 13817066
0.142266 0.058690 0.493000 14143204
0.142843 0.061757 0.495000 13292010
0.143131 0.064716 0.496000 14602980
0.144574 0.068231 0.501000 14604008
0.144574 0.071094 0.501000 14734569
0.145729 0.074548 0.505000 14537957
0.146306 0.077740 0.507000 14469856
0.146883 0.080955 0.509000 12825296
0.147749 0.084358 0.512000 12367566
0.143786 0.050443 0.495000 14204594
0.142914 0.052949 0.492000 15531500
0.142914 0.055760 0.492000 14672116
0.143205 0.058690 0.493000 14340325
0.143786 0.061757 0.495000 13948136
0.144367 0.064847 0.497000 14538474
0.145529 0.068231 0.501000 14538472
0.145819 0.071236 0.502000 14603239
0.146981 0.074695 0.506000 14472164
0.147271 0.077740 0.507000 13545691
0.148143 0.081114 0.510000 13024723
0.149014 0.084523 0.513000 12826836
0.143851 0.052949 0.492000 16047059
0.143851 0.055760 0.492000 15527673
0.144144 0.058690 0.493000 14473452
0.145021 0.061882 0.496000 14603496
0.145606 0.064977 0.498000 14472680
0.146483 0.068231 0.501000 14538472
0.147068 0.071378 0.503000 14472422
0.147945 0.074695 0.506000 14406116
0.148530 0.077893 0.508000 12631774
0.149114 0.081114 0.510000 13289430
0.149991 0.084523 0.513000 13287378
0.144789 0.052949 0.492000 14464186
0.145083 0.055873 0.493000 15526654
0.145083 0.058690 0.493000 15130611
0.145966 0.061882 0.496000 14669287
0.146554 0.064977 0.498000 14537702
0.147437 0.068231 0.501000 14472680
0.147731 0.071236 0.502000 14472166
0.148909 0.074695 0.506000 14406371
0.149497 0.077893 0.508000 13486049
0.150380 0.081273 0.511000 13551320
0.150969 0.084523 0.513000 13551568
0.146022 0.055873 0.493000 15586264
0.146318 0.058810 0.494000 15723246
0.147503 0.062131 0.498000 14669806
0.148095 0.065238 0.500000 14603754
0.148391 0.068231 0.501000 14406890
0.148984 0.071378 0.503000 14472167
0.149576 0.074548 0.505000 14406373
0.150465 0.077893 0.508000 14275044
0.151353 0.081273 0.511000 13880286
0.151946 0.084523 0.513000 13744324
0.147557 0.058929 0.495000 15725546
0.148451 0.062131 0.498000 15263477
0.149048 0.065238 0.500000 14801134
0.149346 0.068231 0.501000 14537963
0.149942 0.071378 0.503000 14537960
0.150836 0.074695 0.506000 14406630
0.151134 0.077740 0.507000 14407142
0.152327 0.081273 0.511000 13880292
0.152923 0.084523 0.513000 13543608
0.148500 0.058929 0.495000 15651279
0.150000 0.062381 0.500000 15790067
0.150300 0.065369 0.501000 14999794
0.150300 0.068231 0.501000 14603501
0.151200 0.071520 0.504000 14603238
0.151800 0.074695 0.506000 14472167
0.152100 0.077740 0.507000 14472936
0.153300 0.081273 0.511000 13880277
0.150952 0.062381 0.500000 15393264
0.151254 0.065369 0.501000 15329271
0.151254 0.068231 0.501000 14867438
0.152462 0.071662 0.505000 14602725
0.152764 0.074695 0.506000 14472167
0.153066 0.077740 0.507000 14604010
0.154273 0.081273 0.511000 13812422
0.151905 0.062381 0.500000 15059664
0.152209 0.065369 0.501000 15657708
0.152209 0.068231 0.501000 15196915
0.153424 0.071662 0.505000 14538216
0.154031 0.074843 0.507000 14537702
0.154031 0.077740 0.507000 14734050
0.153163 0.065369 0.501000 15394017
0.153163 0.068231 0.501000 15592440
0.154691 0.071804 0.506000 14800875
0.154997 0.074843 0.507000 14537957
0.154117 0.065369 0.501000 15123394
0.154117 0.068231 0.501000 16053483
0.155963 0.071946 0.507000 15065585
0.155963 0.074843 0.507000 14472424
0.156929 0.071946 0.507000 15461112
0.156929 0.074843 0.507000 14406378
0.157894 0.071946 0.507000 15787237
0.157894 0.074843 0.507000 14405592
0.158860 0.074843 0.507000 13810630
0.071310 0.003993 0.599000 8153702
0.071310 0.007416 0.599000 8279386
0.072330 0.000570 0.598000 6779776
0.072450 0.003993 0.599000 6845817
0.072330 0.007404 0.598000 5597300
0.073346 0.000569 0.597000 6451086
0.073346 0.003980 0.597000 6715275
0.073223 0.007379 0.596000 6125711
0.073100 0.010767 0.595000 7697814
0.074358 -0.002838 0.596000 6638995
0.074358 0.000568 0.596000 6124949
0.074358 0.003973 0.596000 6650001
0.074233 0.007367 0.595000 6650234
0.073859 0.010712 0.592000 6977406
0.075367 -0.002833 0.595000 6251679
0.075493 0.000568 0.596000 6257052
0.075367 0.003967 0.595000 6912663
0.075240 0.007354 0.594000 7108709
0.074860 0.010694 0.591000 6846309
0.074227 0.013952 0.586000 6254220
0.073973 0.017242 0.584000 8417127
0.073720 0.020509 0.582000 9471376
