# .PCD v.7 - Point Cloud Data file format
VERSION .7
FIELDS x y z rgb
SIZE 4 4 4 4
TYPE F F F I
COUNT 1 1 1 1
WIDTH 1320
HEIGHT 1
POINTS 1320
DATA ascii
0.222986 -0.005529 0.645000 16056059
0.221603 -0.001831 0.641000 15525617
0.219183 0.001811 0.634000 15721971
0.218146 0.005409 0.631000 15392234
0.216417 0.008943 0.626000 15661814
0.215380 0.012460 0.623000 16382204
0.213306 0.015866 0.617000 15268606
0.212614 0.019329 0.615000 9798053
0.212614 0.022843 0.615000 11047821
0.212960 0.026400 0.616000 11048074
0.213651 0.030017 0.618000 10125182
0.214343 0.033657 0.620000 9928826
0.215380 0.037380 0.623000 9928063
0.216071 0.041071 0.625000 11112575
0.216417 0.044714 0.626000 11377033
0.218146 0.048677 0.631000 11506826
0.218837 0.052449 0.633000 11505804
0.246114 -0.054617 0.708000 14912882
0.245071 -0.050357 0.705000 14931698
0.243681 -0.046066 0.701000 15653614
0.240205 -0.041460 0.691000 14862568
0.239857 -0.037457 0.690000 15331582
0.237424 -0.033174 0.683000 10702483
0.234990 -0.028971 0.676000 9592405
0.233600 -0.024960 0.672000 10839959
0.231514 -0.020931 0.666000 14606304
0.230124 -0.017023 0.662000 15324650
0.227690 -0.013100 0.655000 15262190
0.226300 -0.009300 0.651000 16514805
0.224214 -0.005529 0.645000 16250874
0.223171 -0.001834 0.642000 16051188
0.220390 0.001811 0.634000 15853040
0.219348 0.005409 0.631000 15325674
0.217610 0.008943 0.626000 15789043
0.216567 0.012460 0.623000 16513275
0.214829 0.015891 0.618000 15594494
0.213786 0.019329 0.615000 9466539
0.213786 0.022843 0.615000 10718860
0.214133 0.026400 0.616000 10982283
0.214829 0.030017 0.618000 9928059
0.215524 0.033657 0.620000 9797495
0.216567 0.037380 0.623000 9797497
0.217262 0.041071 0.625000 10388605
0.217610 0.044714 0.626000 11310475
0.218652 0.048523 0.629000 11375496
0.219695 0.052366 0.632000 11440269
0.248162 -0.054771 0.710000 14576516
0.246414 -0.050357 0.705000 15525344
0.245016 -0.046066 0.701000 15520754
0.241521 -0.041460 0.691000 14799848
0.241171 -0.037457 0.690000 15203838
0.238725 -0.033174 0.683000 10378386
0.236278 -0.028971 0.676000 9000278
0.234530 -0.024923 0.671000 10324375
0.232783 -0.020931 0.666000 14014657
0.231385 -0.017023 0.662000 16049631
0.229288 -0.013120 0.656000 15262445
0.227190 -0.009286 0.650000 16708333
0.225443 -0.005529 0.645000 16446714
0.224394 -0.001834 0.642000 16513529
0.221598 0.001811 0.634000 15984627
0.220550 0.005409 0.631000 15195630
0.218802 0.008943 0.626000 15920115
0.217753 0.012460 0.623000 16645116
0.216006 0.015891 0.618000 15990525
0.214957 0.019329 0.615000 9151186
0.214957 0.022843 0.615000 10389662
0.214957 0.026357 0.615000 10915719
0.216006 0.030017 0.618000 9665928
0.216705 0.033657 0.620000 9665914
0.217404 0.037320 0.622000 9666682
0.218452 0.041071 0.625000 9601147
0.219151 0.044786 0.627000 11177852
0.219501 0.048446 0.628000 11244424
0.220550 0.052283 0.631000 11309453
0.248811 -0.054617 0.708000 14648982
0.247757 -0.050357 0.705000 14668751
0.246351 -0.046066 0.701000 15524598
0.242837 -0.041460 0.691000 15001065
0.242134 -0.037403 0.689000 15003646
0.240026 -0.033174 0.683000 9917074
0.237566 -0.028971 0.676000 9787991
0.236160 -0.024960 0.672000 11629719
0.234403 -0.020963 0.667000 13420193
0.232646 -0.017023 0.662000 15921876
0.230537 -0.013120 0.656000 15261419
0.228429 -0.009286 0.650000 15987173
0.226671 -0.005529 0.645000 16250106
0.225617 -0.001834 0.642000 16645886
0.222806 0.001811 0.634000 16183029
0.222103 0.005417 0.632000 15656178
0.219994 0.008943 0.626000 16051443
0.218940 0.012460 0.623000 16710653
0.217183 0.015891 0.618000 15988475
0.216129 0.019329 0.615000 12900857
0.216129 0.022843 0.615000 10983600
0.216129 0.026357 0.615000 10455683
0.216831 0.029969 0.617000 10456213
0.217534 0.033603 0.619000 9403005
0.218589 0.037320 0.622000 9535355
0.219643 0.041071 0.625000 9665914
0.219994 0.044714 0.626000 10517612
0.220697 0.048446 0.628000 11178633
0.222103 0.052366 0.632000 11178124
0.250160 -0.054617 0.708000 14638983
0.249100 -0.050357 0.705000 13748433
0.247687 -0.046066 0.701000 15528698
0.244153 -0.041460 0.691000 15193066
0.243447 -0.037403 0.689000 14876414
0.241327 -0.033174 0.683000 9454749
0.238853 -0.028971 0.676000 10517143
0.237440 -0.024960 0.672000 12956605
0.235673 -0.020963 0.667000 12836290
0.233907 -0.017023 0.662000 15785909
0.231787 -0.013120 0.656000 15261139
0.229667 -0.009286 0.650000 15261364
0.227900 -0.005529 0.645000 16056059
0.227547 -0.001840 0.644000 16708572
0.224013 0.001811 0.634000 16380661
0.223307 0.005417 0.632000 16117496
0.222247 0.008986 0.629000 16181492
0.220127 0.012460 0.623000 16709368
0.218360 0.015891 0.618000 16049654
0.217653 0.019360 0.616000 16642553
0.217300 0.022843 0.615000 11648215
0.217300 0.026357 0.615000 9998515
0.218007 0.029969 0.617000 11180172
0.218360 0.033549 0.618000 9078921
0.219067 0.037200 0.620000 9338495
0.220833 0.041071 0.625000 9666169
0.221187 0.044714 0.626000 9859451
0.221540 0.048369 0.627000 11046537
0.222953 0.052283 0.631000 10980744
0.251509 -0.054617 0.708000 14513783
0.250443 -0.050357 0.705000 14142419
0.249022 -0.046066 0.701000 15528190
0.246180 -0.041580 0.693000 15129323
0.244759 -0.037403 0.689000 15002622
0.242628 -0.033174 0.683000 8913320
0.240141 -0.028971 0.676000 12693975
0.238720 -0.024960 0.672000 14019556
0.236944 -0.020963 0.667000 13292259
0.235523 -0.017049 0.663000 14537878
0.233036 -0.013120 0.656000 14538427
0.231615 -0.009314 0.652000 14139268
0.229484 -0.005537 0.646000 15331836
0.229129 -0.001843 0.645000 13750714
0.225576 0.001814 0.635000 15655924
0.225221 0.005434 0.634000 16447486
0.223445 0.008986 0.629000 16248821
0.222379 0.012520 0.626000 16378867
0.219892 0.015917 0.619000 15985137
0.218827 0.019360 0.616000 16183545
0.218827 0.022880 0.616000 14149118
0.218471 0.026357 0.615000 12495076
0.219182 0.029969 0.617000 10784898
0.219537 0.033549 0.618000 10067094
0.220248 0.037200 0.620000 9731715
0.221669 0.041006 0.624000 9993593
0.222379 0.044714 0.626000 10520458
0.222734 0.048369 0.627000 11047562
0.223445 0.052117 0.629000 11308419
0.252857 -0.054617 0.708000 14451104
0.251786 -0.050357 0.705000 14535119
0.250357 -0.046066 0.701000 15464444
0.246786 -0.041460 0.691000 15063530
0.246071 -0.037403 0.689000 15138302
0.243929 -0.033174 0.683000 8356549
0.241429 -0.028971 0.676000 14868678
0.240000 -0.024960 0.672000 14996183
0.238929 -0.021026 0.669000 13748146
0.236786 -0.017049 0.663000 13288330
0.234643 -0.013140 0.657000 13815969
0.232857 -0.009314 0.652000 13029035
0.230714 -0.005537 0.646000 14603467
0.230357 -0.001843 0.645000 10715282
0.226786 0.001814 0.635000 14924196
0.226429 0.005434 0.634000 16707301
0.225357 0.009014 0.631000 16380665
0.223571 0.012520 0.626000 15985909
0.221429 0.015943 0.620000 15920628
0.220357 0.022917 0.617000 16711419
0.220000 0.026400 0.616000 14999537
0.220357 0.029969 0.617000 10327229
0.220714 0.033549 0.618000 10981541
0.221429 0.037200 0.620000 10127246
0.222857 0.041006 0.624000 10257282
0.223214 0.044643 0.625000 11112331
0.223571 0.048291 0.626000 11047047
0.224643 0.052117 0.629000 11634576
0.254206 -0.054617 0.708000 14455752
0.252770 -0.050286 0.704000 14535883
0.251692 -0.046066 0.701000 15458298
0.248820 -0.041580 0.693000 15129834
0.247384 -0.037403 0.689000 15267582
0.245230 -0.033174 0.683000 11457251
0.242716 -0.028971 0.676000 14536117
0.241280 -0.024960 0.672000 13611722
0.240203 -0.021026 0.669000 11373953
0.237330 -0.016997 0.661000 11838847
0.235894 -0.013140 0.657000 13484934
0.235176 -0.009357 0.655000 13752530
0.231586 -0.005529 0.645000 12098458
0.231586 -0.001843 0.645000 9788010
0.230150 0.001831 0.641000 11432788
0.227636 0.005434 0.634000 14600395
0.226559 0.009014 0.631000 16248572
0.222610 0.015943 0.620000 16052214
0.221532 0.022917 0.617000 16381688
0.221891 0.026486 0.618000 15793918
0.221532 0.029969 0.617000 13160440
0.221891 0.033549 0.618000 11436469
0.222610 0.037200 0.620000 10391192
0.224046 0.041006 0.624000 10389643
0.224405 0.044643 0.625000 11046540
0.224764 0.048291 0.626000 11111812
0.225123 0.051951 0.627000 12098461
0.256276 -0.054771 0.710000 14456506
0.254110 -0.050286 0.704000 14468799
0.252667 -0.046000 0.700000 15400686
0.250140 -0.041580 0.693000 15131632
0.249057 -0.037457 0.690000 15394266
0.246891 -0.033223 0.684000 14537672
0.244004 -0.028971 0.676000 14135246
0.242560 -0.024960 0.672000 12168371
0.242560 -0.021120 0.672000 8934263
0.238229 -0.016971 0.660000 10321780
0.237146 -0.013140 0.657000 13150572
0.236424 -0.009357 0.655000 14403769
0.232814 -0.005529 0.645000 9673638
0.232814 -0.001843 0.645000 8819086
0.228483 0.009043 0.633000 16050672
0.224512 0.026657 0.622000 16578555
0.223069 0.030017 0.618000 15990523
0.223069 0.033549 0.618000 11846105
0.224512 0.037320 0.622000 10652614
0.225234 0.041006 0.624000 10522518
0.225595 0.044643 0.625000 11046543
0.225956 0.048291 0.626000 11110782
0.225956 0.051869 0.626000 12562094
0.257629 -0.054771 0.710000 14319276
0.255451 -0.050286 0.704000 15001268
0.254000 -0.046000 0.700000 15590625
0.251460 -0.041580 0.693000 15859190
0.250371 -0.037457 0.690000 14003637
0.248920 -0.033320 0.686000 13419692
0.246017 -0.029057 0.678000 13151975
0.244566 -0.025034 0.674000 10919325
0.243840 -0.021120 0.672000 9003884
0.241300 -0.017100 0.665000 9596522
0.238034 -0.013120 0.656000 10912338
0.237671 -0.009357 0.655000 12560032
0.236946 -0.005597 0.653000 11450545
0.225697 0.026657 0.622000 16446456
0.224246 0.030017 0.618000 16186110
0.224246 0.033549 0.618000 14286590
0.226060 0.037380 0.623000 12498419
0.226423 0.041006 0.624000 10718882
0.226786 0.044643 0.625000 10784914
0.226786 0.048214 0.625000 10780537
0.226423 0.051703 0.624000 13350334
0.257887 -0.050500 0.707000 15517110
0.255698 -0.046066 0.701000 15845355
0.252780 -0.041580 0.693000 16577522
0.252050 -0.037511 0.691000 12630487
0.250227 -0.033320 0.686000 12233401
0.248038 -0.029143 0.680000 12095971
0.245850 -0.025034 0.674000 9600151
0.245120 -0.021120 0.672000 9073268
0.242567 -0.017100 0.665000 8810605
0.239284 -0.013120 0.656000 8740451
0.239649 -0.009386 0.657000 10647939
0.229435 0.026957 0.629000 16316667
0.229435 0.030551 0.629000 16381437
0.229435 0.034146 0.629000 16710652
0.227976 0.037500 0.625000 14348793
0.227976 0.041071 0.625000 10858698
0.227976 0.044643 0.625000 10524327
0.227976 0.048214 0.625000 10391957
0.227611 0.051703 0.624000 14141369
0.259233 -0.050500 0.707000 15043000
0.257767 -0.046197 0.703000 15652340
0.258133 -0.042240 0.704000 15849966
0.254100 -0.037620 0.693000 14146041
0.253000 -0.033514 0.690000 12688325
0.249333 -0.029143 0.680000 12494302
0.231367 0.027043 0.631000 16514557
0.231367 0.030649 0.631000 16579324
0.230267 0.034091 0.628000 16315387
0.229533 0.037560 0.626000 15531006
0.229167 0.041071 0.625000 13752819
0.229167 0.044643 0.625000 11510460
0.228800 0.048137 0.624000 12429746
0.228433 0.051620 0.623000 14073012
0.260580 -0.050500 0.707000 14588093
0.259843 -0.046329 0.705000 15453394
0.259474 -0.042240 0.704000 15060701
0.255420 -0.037620 0.693000 15658483
0.232569 0.027043 0.631000 16711422
0.232569 0.030649 0.631000 16711421
0.231463 0.034091 0.628000 15922684
0.231094 0.037620 0.627000 16711422
0.230726 0.041137 0.626000 16643064
0.230357 0.044643 0.625000 12500176
0.229989 0.048137 0.624000 14464184
0.261927 -0.050500 0.707000 14527426
0.261186 -0.046329 0.705000 15048368
0.260815 -0.042240 0.704000 15124941
0.256740 -0.037620 0.693000 15392749
0.233770 0.030649 0.631000 16711422
0.232659 0.034091 0.628000 16318206
0.232659 0.037680 0.628000 16381694
0.231918 0.041137 0.626000 16318206
0.231548 0.044643 0.625000 13616611
0.230436 0.047983 0.622000 14270142
0.262156 -0.042240 0.704000 15182528
0.258060 -0.037620 0.693000 15194075
0.234972 0.030649 0.631000 16711399
0.233855 0.034091 0.628000 16706783
0.233855 0.037680 0.628000 16049882
0.233483 0.041203 0.627000 15979993
0.233110 0.044714 0.626000 14725324
0.231621 0.047983 0.622000 14007740
0.235051 0.037680 0.628000 14992310
0.234677 0.041203 0.627000 14986677
0.234303 0.044714 0.626000 14399412
0.232806 0.047983 0.622000 14072761
0.168143 0.036074 0.642000 10523274
0.168667 0.039867 0.644000 9269349
0.169366 0.032406 0.642000 10782333
0.169366 0.036074 0.642000 10521476
0.170157 0.039929 0.645000 8216163
0.170323 0.032355 0.641000 11109758
0.170323 0.036018 0.641000 10522763
0.171120 0.039867 0.644000 7167835
0.172183 0.043817 0.648000 8875360
0.171544 0.032355 0.641000 10978943
0.171544 0.036018 0.641000 10390417
0.172347 0.039867 0.644000 7099219
0.173417 0.043817 0.648000 8544869
0.172495 0.032305 0.640000 10782591
0.172765 0.036018 0.641000 10325900
0.173573 0.039867 0.644000 7035483
0.174651 0.043817 0.648000 8214114
0.173443 0.028603 0.639000 10519159
0.173714 0.032305 0.640000 10782847
0.173986 0.036018 0.641000 10192774
0.174257 0.039743 0.642000 6639203
0.175614 0.043750 0.647000 8085342
0.174387 0.028558 0.638000 10454657
0.174660 0.032254 0.639000 10717565
0.175207 0.036018 0.641000 10129284
0.175480 0.039743 0.642000 6183787
0.176847 0.043750 0.647000 7952489
0.175051 0.028469 0.636000 10455179
0.175877 0.032254 0.639000 10783100
0.176152 0.035962 0.640000 10062209
0.176703 0.039743 0.642000 7300468
0.177804 0.043682 0.646000 8021107
0.175986 0.024795 0.635000 10321522
0.175986 0.028424 0.635000 10520963
0.176263 0.032103 0.636000 10782330
0.177371 0.035962 0.640000 9998202
0.177926 0.039743 0.642000 8352372
0.179034 0.043682 0.646000 8154732
0.177474 0.021200 0.636000 10057812
0.176916 0.024756 0.634000 10389110
0.176916 0.028379 0.634000 10389115
0.177474 0.032103 0.636000 10058361
0.178311 0.035906 0.639000 9864563
0.178870 0.039681 0.641000 9075572
0.179707 0.043547 0.644000 8746340
0.182619 0.014238 0.650000 9392499
0.179529 0.017649 0.639000 11436642
0.177843 0.021100 0.633000 10122334
0.177562 0.024678 0.632000 10454647
0.177562 0.028290 0.632000 10258559
0.178124 0.032002 0.634000 9336183
0.179248 0.035850 0.638000 9731700
0.179810 0.039619 0.640000 9795953
0.180090 0.043344 0.641000 9337706
0.181495 0.047373 0.646000 6382447
0.182726 0.014150 0.646000 9527921
0.179897 0.017566 0.636000 10781279
0.178766 0.021067 0.632000 9927272
0.178483 0.024639 0.631000 10783353
0.178766 0.028290 0.632000 10126723
0.179331 0.032002 0.634000 8940150
0.179897 0.035737 0.636000 9599093
0.181029 0.039619 0.640000 9598575
0.181311 0.043344 0.641000 9336688
0.182160 0.047227 0.644000 7958653
0.182248 0.014019 0.640000 9726331
0.179970 0.017455 0.632000 10124390
0.178830 0.020933 0.628000 9731696
0.179115 0.024561 0.629000 11111040
0.179970 0.028290 0.632000 10061948
0.180254 0.031951 0.633000 8482419
0.180824 0.035681 0.635000 9401463
0.181963 0.039557 0.639000 9402482
0.182532 0.043344 0.641000 9400936
0.182817 0.047080 0.642000 9535355
0.183467 0.014019 0.640000 10323588
0.180313 0.017372 0.629000 10186094
0.179740 0.020900 0.627000 10126968
0.179740 0.024483 0.627000 10914440
0.181173 0.028290 0.632000 9863797
0.181460 0.031951 0.633000 8810097
0.182033 0.035681 0.635000 9402744
0.183180 0.039557 0.639000 9469045
0.183753 0.043344 0.641000 9401952
0.184040 0.047080 0.642000 9865594
0.182089 0.013822 0.631000 10920854
0.180934 0.017317 0.627000 10254707
0.180934 0.020900 0.627000 10587517
0.180934 0.024483 0.627000 10717827
0.182089 0.028245 0.631000 9732722
0.182377 0.031901 0.632000 9072235
0.182954 0.035625 0.634000 9468790
0.184109 0.039495 0.638000 9534582
0.184686 0.043276 0.640000 9402217
0.184974 0.047007 0.641000 10124403
0.183290 0.013822 0.631000 11445672
0.182129 0.017317 0.627000 10322295
0.182129 0.020900 0.627000 10653057
0.182129 0.024483 0.627000 10783871
0.183290 0.028245 0.631000 9335150
0.183581 0.031901 0.632000 9072741
0.183871 0.035569 0.633000 9534323
0.184743 0.039371 0.636000 9534327
0.185905 0.043276 0.640000 9336945
0.186195 0.047007 0.641000 9663341
0.187416 0.003052 0.641000 8094895
0.185077 0.010249 0.633000 14803433
0.183615 0.013756 0.628000 12040902
0.183030 0.017290 0.626000 10322043
0.183030 0.020867 0.626000 10718853
0.183030 0.024444 0.626000 10783616
0.184492 0.028245 0.631000 9005164
0.184785 0.031901 0.632000 9007978
0.185077 0.035569 0.633000 9665142
0.185954 0.039371 0.636000 9469304
0.186831 0.043209 0.639000 9271156
0.187416 0.047007 0.641000 9140338
0.188637 0.003052 0.641000 11778533
0.186283 0.006631 0.633000 14806270
0.185989 0.010232 0.632000 15727614
0.184517 0.013734 0.627000 12237283
0.183929 0.017262 0.625000 10456446
0.183929 0.020833 0.625000 10718856
0.184223 0.024444 0.626000 10783361
0.185106 0.028155 0.629000 8809834
0.185989 0.031901 0.632000 9206128
0.186283 0.035569 0.633000 9599864
0.187166 0.039371 0.636000 9535097
0.188049 0.043209 0.639000 9402999
0.188637 0.047007 0.641000 9271927
0.194301 -0.008122 0.656000 10329794
0.194005 -0.004367 0.655000 8425921
0.190747 -0.000613 0.644000 13688803
0.189562 0.003048 0.640000 15395313
0.187489 0.006631 0.633000 16711420
0.186896 0.010216 0.631000 16645117
0.185119 0.013690 0.625000 12434401
0.184823 0.017234 0.624000 10519934
0.184823 0.020800 0.624000 10718862
0.185415 0.024444 0.626000 10717321
0.186008 0.028110 0.628000 8613745
0.186896 0.031850 0.631000 9403249
0.187192 0.035512 0.632000 9534584
0.188081 0.039310 0.635000 9535357
0.189266 0.043209 0.639000 9534331
0.189858 0.047007 0.641000 9403259
0.202407 -0.020047 0.679000 9733785
0.195849 -0.008134 0.657000 13292274
0.194656 -0.004353 0.653000 12576760
0.191973 -0.000613 0.644000 15201278
0.190483 0.003043 0.639000 15990013
0.188396 0.006621 0.632000 16447994
0.188098 0.010216 0.631000 16644604
0.186310 0.013690 0.625000 12632031
0.186011 0.017234 0.624000 10586494
0.186011 0.020800 0.624000 10981780
0.186608 0.024444 0.626000 11047825
0.187204 0.028110 0.628000 9139320
0.188098 0.031850 0.631000 9534834
0.188396 0.035512 0.632000 9600632
0.189290 0.039310 0.635000 9600897
0.190483 0.043209 0.639000 9600383
0.191079 0.047007 0.641000 9796990
0.201600 -0.019840 0.672000 9410749
0.201000 -0.015952 0.670000 10992341
0.197400 -0.011907 0.658000 15132143
0.196500 -0.008110 0.655000 16318200
0.195300 -0.004340 0.651000 16709626
0.192600 -0.000611 0.642000 16644861
0.191700 0.003043 0.639000 16513275
0.189600 0.006621 0.632000 16250364
0.188700 0.010184 0.629000 16579322
0.187500 0.013690 0.625000 12832745
0.186900 0.017207 0.623000 10585466
0.187200 0.020800 0.624000 11178892
0.187500 0.024405 0.625000 11307905
0.188400 0.028110 0.628000 9731722
0.189300 0.031850 0.631000 9665656
0.189600 0.035512 0.632000 9666165
0.190500 0.039310 0.635000 9600637
0.191400 0.043141 0.638000 9666172
0.192000 0.046933 0.640000 10189946
0.209220 -0.032340 0.693000 9603219
0.210428 -0.028544 0.697000 10247322
0.202578 -0.019810 0.671000 12437217
0.201370 -0.015881 0.667000 13821694
0.198351 -0.011889 0.657000 15793918
0.197748 -0.008110 0.655000 16383486
0.196238 -0.004333 0.650000 16382460
0.193823 -0.000611 0.642000 16447995
0.192615 0.003038 0.638000 16316154
0.190804 0.006621 0.632000 16250878
0.189898 0.010184 0.629000 16382456
0.188690 0.013690 0.625000 12963059
0.188087 0.017207 0.623000 10454133
0.188087 0.020767 0.623000 10454659
0.188690 0.024405 0.625000 10450546
0.189294 0.028066 0.627000 10391708
0.189898 0.031750 0.629000 9731199
0.190804 0.035512 0.632000 9534578
0.191408 0.039248 0.634000 9600122
0.192615 0.043141 0.638000 9731704
0.193219 0.046933 0.640000 9993078
0.193521 0.050670 0.641000 9469047
0.210540 -0.036300 0.693000 8425909
0.210540 -0.032340 0.693000 9471680
0.210540 -0.028380 0.693000 10266570
0.206590 -0.023962 0.680000 14149097
0.203552 -0.019781 0.670000 15461616
0.202641 -0.015881 0.667000 16645885
0.199299 -0.011870 0.656000 16447225
0.198388 -0.008085 0.653000 16448766
0.197476 -0.004333 0.650000 15985396
0.195653 -0.000613 0.644000 16251642
0.194134 0.003043 0.639000 16118262
0.192008 0.006621 0.632000 16252147
0.191096 0.010184 0.629000 16182766
0.189577 0.013669 0.624000 13098227
0.189273 0.017207 0.623000 10320762
0.189273 0.020767 0.623000 9732743
0.189881 0.024405 0.625000 9534331
0.190489 0.028066 0.627000 11047814
0.191096 0.031750 0.629000 9732734
0.192008 0.035512 0.632000 9403242
0.192615 0.039248 0.634000 9534329
0.193830 0.043141 0.638000 9863289
0.194438 0.046933 0.640000 9796729
0.194742 0.050670 0.641000 9534585
0.211860 -0.036300 0.693000 11449289
0.210943 -0.032200 0.690000 12832748
0.208803 -0.027970 0.683000 13496570
0.207580 -0.023927 0.679000 15399166
0.204523 -0.019751 0.669000 16055294
0.203300 -0.015833 0.665000 16315900
0.200549 -0.011870 0.656000 15657716
0.199326 -0.008072 0.652000 16251390
0.197797 -0.004313 0.647000 15192556
0.196269 -0.000611 0.642000 15987960
0.195351 0.003043 0.639000 15918835
0.193211 0.006621 0.632000 15457000
0.191989 0.010168 0.628000 15722981
0.190766 0.013669 0.624000 13292787
0.190460 0.017207 0.623000 10124928
0.190460 0.020767 0.623000 10060427
0.190766 0.024366 0.624000 9930629
0.191377 0.028021 0.626000 10782320
0.191989 0.031699 0.628000 9993853
0.192906 0.035456 0.631000 9140578
0.193517 0.039186 0.633000 9271672
0.195046 0.043141 0.638000 9731961
0.195657 0.046933 0.640000 9600380
0.195963 0.050670 0.641000 9600122
0.214410 -0.040492 0.697000 9480410
0.213180 -0.036300 0.693000 14409181
0.212257 -0.032200 0.690000 16252659
0.209796 -0.027930 0.682000 16710396
0.206412 -0.023645 0.671000 16711164
0.205797 -0.019751 0.669000 16579324
0.204567 -0.015833 0.665000 15984620
0.201798 -0.011870 0.656000 14871283
0.200568 -0.008072 0.652000 16120061
0.199030 -0.004313 0.647000 14407916
0.197491 -0.000611 0.642000 15660537
0.196569 0.003043 0.639000 15656689
0.194108 0.006610 0.631000 14660075
0.193185 0.010168 0.628000 15193061
0.191954 0.013669 0.624000 13560310
0.191339 0.017179 0.622000 9861259
0.191339 0.020733 0.622000 10389898
0.191647 0.024327 0.623000 10324875
0.192570 0.028021 0.626000 10516348
0.192877 0.031649 0.627000 10194056
0.194108 0.035456 0.631000 8877934
0.194415 0.039124 0.632000 8944243
0.196261 0.043141 0.638000 9666681
0.196876 0.046933 0.640000 9337982
0.197184 0.050670 0.641000 9731448
0.221619 -0.049779 0.716000 10654913
0.221000 -0.045560 0.714000 11583459
0.214810 -0.040318 0.694000 13099260
0.213881 -0.036195 0.691000 14547953
0.213262 -0.032153 0.689000 15525113
0.211095 -0.027930 0.682000 16711166
0.207690 -0.023645 0.671000 16380922
0.207071 -0.019751 0.669000 16579834
0.205833 -0.015833 0.665000 15456476
0.203048 -0.011870 0.656000 15198963
0.201810 -0.008072 0.652000 16052475
0.200262 -0.004313 0.647000 15065580
0.198714 -0.000611 0.642000 15724793
0.197786 0.003043 0.639000 15523311
0.195310 0.006610 0.631000 15063789
0.194071 0.010151 0.627000 14798566
0.192833 0.013647 0.623000 13688056
0.192524 0.017179 0.622000 9271190
0.192524 0.020733 0.622000 10917001
0.192833 0.024327 0.623000 10720913
0.193762 0.028021 0.626000 10717319
0.194071 0.031649 0.627000 10853012
0.195310 0.035456 0.631000 9732473
0.195619 0.039124 0.632000 9009263
0.196857 0.043006 0.636000 9600633
0.198095 0.046933 0.640000 9468801
0.198405 0.050670 0.641000 9600374
0.222360 -0.053720 0.714000 10003610
0.221426 -0.049431 0.711000 13558496
0.218934 -0.044858 0.703000 15986416
0.216131 -0.040318 0.694000 16711421
0.215197 -0.036195 0.691000 14600928
0.213951 -0.032060 0.687000 14854062
0.211149 -0.027766 0.678000 16702147
0.209280 -0.023680 0.672000 16051445
0.207723 -0.019692 0.667000 16511217
0.207100 -0.015833 0.665000 14930914
0.204297 -0.011870 0.656000 15460077
0.203051 -0.008072 0.652000 15988729
0.201806 -0.004320 0.648000 15722224
0.199937 -0.000611 0.642000 15791355
0.199003 0.003043 0.639000 15393265
0.196511 0.006610 0.631000 15529972
0.195577 0.010168 0.628000 14405347
0.194020 0.013647 0.623000 13888760
0.193086 0.017124 0.620000 8682139
0.193709 0.020733 0.622000 11442060
0.193709 0.024288 0.622000 11048594
0.194643 0.027976 0.625000 10915721
0.195266 0.031649 0.627000 11506061
0.195889 0.035344 0.629000 10585467
0.196823 0.039124 0.632000 9075318
0.198069 0.043006 0.636000 9601147
0.199003 0.046860 0.639000 9534077
0.199314 0.050590 0.640000 9534837
0.223720 -0.053720 0.714000 12778972
0.222467 -0.049362 0.710000 14938110
0.219647 -0.044730 0.701000 16056061
0.217767 -0.040376 0.695000 16645630
0.216513 -0.036195 0.691000 13544143
0.215260 -0.032060 0.687000 12674659
0.212440 -0.027766 0.678000 13082248
0.211187 -0.023750 0.674000 15261935
0.208993 -0.019692 0.667000 15654888
0.208367 -0.015833 0.665000 14997992
0.205547 -0.011870 0.656000 15457511
0.204293 -0.008072 0.652000 15657974
0.202727 -0.004313 0.647000 15589876
0.201160 -0.000611 0.642000 15856124
0.200220 0.003043 0.639000 15260915
0.198027 0.006621 0.632000 15263482
0.196773 0.010168 0.628000 14341345
0.194893 0.013625 0.622000 14213623
0.194267 0.017124 0.620000 8811680
0.194267 0.020667 0.620000 11376270
0.194893 0.024288 0.622000 11179410
0.195833 0.027976 0.625000 11048075
0.196460 0.031649 0.627000 11239815
0.197087 0.035344 0.629000 10583932
0.197713 0.039062 0.631000 9928828
0.198967 0.042938 0.635000 9863292
0.200220 0.046860 0.639000 9468025
0.200533 0.050590 0.640000 9469044
0.224765 -0.053645 0.713000 15522002
0.222873 -0.049153 0.707000 16375548
0.220982 -0.044730 0.701000 16048624
0.219090 -0.040376 0.695000 16579324
0.217514 -0.036143 0.690000 12495573
0.216253 -0.032013 0.686000 10576495
0.213731 -0.027766 0.678000 9395067
0.212470 -0.023750 0.674000 14477803
0.210264 -0.019692 0.667000 14734567
0.209633 -0.015833 0.665000 14999016
0.206796 -0.011870 0.656000 15392746
0.205535 -0.008072 0.652000 15394292
0.203959 -0.004313 0.647000 15394544
0.202383 -0.000611 0.642000 15988984
0.201437 0.003043 0.639000 15130098
0.199230 0.006621 0.632000 15004154
0.197970 0.010168 0.628000 14275811
0.196078 0.013625 0.622000 14609912
0.195132 0.017096 0.619000 8946848
0.195448 0.020667 0.620000 11310479
0.196078 0.024288 0.622000 11244947
0.197024 0.027976 0.625000 11114128
0.197654 0.031649 0.627000 10912390
0.198285 0.035344 0.629000 10648693
0.198915 0.039062 0.631000 10780286
0.199861 0.042870 0.634000 10059900
0.201437 0.046860 0.639000 9336440
0.201752 0.050590 0.640000 9468531
0.225489 -0.053494 0.711000 13603528
0.223586 -0.049014 0.705000 16049913
0.222317 -0.044730 0.701000 15124450
0.220414 -0.040376 0.695000 16119289
0.219146 -0.036195 0.691000 12959963
0.217560 -0.032013 0.686000 10970235
0.215023 -0.027766 0.678000 10117230
0.213754 -0.023750 0.674000 14473190
0.211217 -0.019663 0.666000 14800615
0.210266 -0.015786 0.663000 15063527
0.208046 -0.011870 0.656000 15591405
0.206777 -0.008072 0.652000 15393522
0.204874 -0.004307 0.646000 15525868
0.203606 -0.000611 0.642000 15657459
0.202654 0.003043 0.639000 15194097
0.200434 0.006621 0.632000 14935801
0.199166 0.010168 0.628000 14996709
0.197263 0.013625 0.622000 14739193
0.196629 0.017124 0.620000 8944033
0.196629 0.020667 0.620000 11310223
0.197263 0.024288 0.622000 11310229
0.197897 0.027931 0.624000 11113876
0.198531 0.031598 0.626000 10977158
0.199166 0.035288 0.628000 10713966
0.200117 0.039062 0.631000 10779775
0.201069 0.042870 0.634000 10387579
0.202337 0.046787 0.638000 8939895
0.202971 0.050590 0.640000 9336945
0.227800 -0.057800 0.714000 14569617
0.226843 -0.053494 0.711000 11647434
0.224929 -0.049014 0.705000 15656699
0.223652 -0.044730 0.701000 14208482
0.221419 -0.040318 0.694000 15724533
0.220143 -0.036143 0.690000 13350874
0.218229 -0.031920 0.684000 11301750
0.216314 -0.027766 0.678000 10843763
0.215038 -0.023750 0.674000 14412774
0.212486 -0.019663 0.666000 14865126
0.211529 -0.015786 0.663000 15069935
0.209614 -0.011889 0.657000 15720941
0.208338 -0.008085 0.653000 15398130
0.206424 -0.004313 0.647000 15656687
0.205467 -0.000613 0.644000 15327729
0.203871 0.003043 0.639000 15261166
0.201638 0.006621 0.632000 14873084
0.200362 0.010168 0.628000 15654369
0.198448 0.013625 0.622000 14936056
0.197490 0.017096 0.619000 8946342
0.197810 0.020667 0.620000 11310222
0.198448 0.024288 0.622000 11375761
0.199086 0.027931 0.624000 11179411
0.199724 0.031598 0.626000 10979211
0.200362 0.035288 0.628000 10779257
0.200681 0.038938 0.629000 10779773
0.201957 0.042803 0.633000 10780537
0.202914 0.046640 0.636000 8550009
0.203871 0.050511 0.639000 9204838
0.229160 -0.057800 0.714000 14647227
0.228197 -0.053494 0.711000 13155789
0.226271 -0.049014 0.705000 15525885
0.224988 -0.044730 0.701000 14733282
0.222741 -0.040318 0.694000 15197425
0.221457 -0.036143 0.690000 13615578
0.220173 -0.032013 0.686000 11035504
0.217606 -0.027766 0.678000 11175033
0.216322 -0.023750 0.674000 14407910
0.213754 -0.019663 0.666000 14929893
0.212470 -0.015762 0.662000 15067894
0.210545 -0.011870 0.656000 15523565
0.209261 -0.008072 0.652000 15261682
0.207656 -0.004313 0.647000 15526642
0.206693 -0.000613 0.644000 15326959
0.205089 0.003043 0.639000 15261420
0.202842 0.006621 0.632000 15002878
0.201237 0.010151 0.627000 15657182
0.199953 0.013647 0.623000 15132919
0.198670 0.017096 0.619000 9072300
0.198990 0.020667 0.620000 11179660
0.199632 0.024288 0.622000 11309966
0.199953 0.027887 0.623000 11179410
0.200916 0.031598 0.626000 11046800
0.201237 0.035231 0.627000 10779268
0.201879 0.038938 0.629000 10779514
0.202842 0.042735 0.632000 10714486
0.203805 0.046567 0.635000 9535100
0.205089 0.050511 0.639000 9335642
0.230520 -0.057800 0.714000 14759601
0.229229 -0.053419 0.710000 14598598
0.227614 -0.049014 0.705000 15464190
0.226323 -0.044730 0.701000 15259617
0.224063 -0.040318 0.694000 14743795
0.222771 -0.036143 0.690000 13877468
0.221480 -0.032013 0.686000 10770281
0.218897 -0.027766 0.678000 11436411
0.217606 -0.023750 0.674000 14409188
0.215023 -0.019663 0.666000 14932717
0.213731 -0.015762 0.662000 15069425
0.211794 -0.011870 0.656000 15326446
0.210826 -0.008085 0.653000 15127025
0.208566 -0.004307 0.646000 15393773
0.207274 -0.000611 0.642000 15395057
0.206306 0.003043 0.639000 15195887
0.204046 0.006621 0.632000 15138046
0.202754 0.010168 0.628000 15651547
0.201140 0.013647 0.623000 15397877
0.199849 0.017096 0.619000 9208748
0.199849 0.020633 0.619000 11114128
0.200817 0.024288 0.622000 11178894
0.201140 0.027887 0.623000 11179153
0.201786 0.031548 0.625000 11112854
0.202431 0.035231 0.627000 10779525
0.203077 0.038938 0.629000 10714230
0.204046 0.042735 0.632000 10649206
0.205014 0.046567 0.635000 10518136
0.205983 0.050432 0.638000 9400419
0.231880 -0.057800 0.714000 14376358
0.230581 -0.053419 0.710000 14532800
0.228957 -0.049014 0.705000 15264766
0.227658 -0.044730 0.701000 15194336
0.225385 -0.040318 0.694000 15199221
0.223761 -0.036090 0.689000 13945311
0.222137 -0.031920 0.684000 10445153
0.220189 -0.027766 0.678000 11898750
0.218240 -0.023680 0.672000 14604002
0.216616 -0.019692 0.667000 15396341
0.215317 -0.015786 0.663000 15130092
0.213369 -0.011889 0.657000 15459056
0.212070 -0.008085 0.653000 15062511
0.209796 -0.004307 0.646000 15128553
0.208497 -0.000611 0.642000 15525875
0.207198 0.003038 0.638000 15195890
0.205250 0.006621 0.632000 15068414
0.203626 0.010151 0.627000 14405080
0.202327 0.013647 0.623000 15395058
0.201028 0.017096 0.619000 9402029
0.201028 0.020633 0.619000 10982804
0.202002 0.024288 0.622000 11113358
0.202327 0.027887 0.623000 11113616
0.202651 0.031497 0.624000 11377052
0.203626 0.035231 0.627000 10848902
0.204275 0.038938 0.629000 10779506
0.205250 0.042735 0.632000 10583414
0.205899 0.046493 0.634000 10517875
0.206549 0.050274 0.636000 9923947
0.233240 -0.057800 0.714000 14057382
0.231933 -0.053419 0.710000 14401992
0.229973 -0.048945 0.704000 15138558
0.228993 -0.044730 0.701000 15062248
0.226707 -0.040318 0.694000 15721203
0.225073 -0.036090 0.689000 13944801
0.223440 -0.031920 0.684000 10181983
0.220827 -0.027684 0.676000 12289154
0.219520 -0.023680 0.672000 14802398
0.217887 -0.019692 0.667000 15853555
0.216253 -0.015762 0.662000 15261420
0.214293 -0.011870 0.656000 15524591
0.213313 -0.008085 0.653000 14932207
0.211027 -0.004307 0.646000 14867180
0.209720 -0.000611 0.642000 15656689
0.207760 0.003029 0.636000 15195632
0.206127 0.006610 0.631000 15003636
0.204493 0.010135 0.626000 13154782
0.203187 0.013625 0.622000 15395572
0.201880 0.017069 0.618000 9605552
0.201880 0.020600 0.618000 10917777
0.202533 0.024210 0.620000 11048076
0.203187 0.027842 0.622000 11113359
0.204167 0.031548 0.625000 11572116
0.204493 0.035175 0.626000 10918281
0.205147 0.038876 0.628000 10847357
0.206453 0.042735 0.632000 10583162
0.207107 0.046493 0.634000 10451575
0.207433 0.050195 0.635000 10383723
0.233286 -0.053419 0.710000 14668496
0.231643 -0.049014 0.705000 15133950
0.230329 -0.044730 0.701000 15592944
0.228029 -0.040318 0.694000 15786736
0.226386 -0.036090 0.689000 14077667
0.224743 -0.031920 0.684000 10247261
0.222114 -0.027684 0.676000 12623238
0.220471 -0.023645 0.671000 14866138
0.219157 -0.019692 0.667000 15193074
0.217843 -0.015786 0.663000 15261163
0.215543 -0.011870 0.656000 15328238
0.214229 -0.008072 0.652000 15129838
0.212257 -0.004307 0.646000 14998255
0.210943 -0.000611 0.642000 15589615
0.208971 0.003029 0.636000 15193583
0.207657 0.006621 0.632000 14802921
0.205686 0.010135 0.626000 13416165
0.204371 0.013625 0.622000 15790326
0.203057 0.017069 0.618000 9931444
0.203057 0.020600 0.618000 10850702
0.203714 0.024210 0.620000 11048075
0.204371 0.027842 0.622000 11113358
0.205029 0.031497 0.624000 11111821
0.205686 0.035175 0.626000 10916491
0.206343 0.038876 0.628000 10982793
0.207329 0.042668 0.631000 10714750
0.207986 0.046420 0.633000 10582906
0.208643 0.050195 0.635000 10317163
0.233977 -0.053269 0.708000 14929356
0.232986 -0.049014 0.705000 15138558
0.231333 -0.044667 0.700000 16114670
0.229350 -0.040318 0.694000 15921902
0.227698 -0.036090 0.689000 14207205
0.226046 -0.031920 0.684000 10375015
0.223402 -0.027684 0.676000 12879996
0.221750 -0.023645 0.671000 14996957
0.220428 -0.019692 0.667000 14472689
0.219106 -0.015786 0.663000 15259626
0.216792 -0.011870 0.656000 15062763
0.215470 -0.008072 0.652000 15391983
0.213488 -0.004307 0.646000 15065584
0.211835 -0.000610 0.641000 15586032
0.209852 0.003024 0.635000 15194863
0.208530 0.006610 0.631000 14608106
0.206878 0.010135 0.626000 13609694
0.205556 0.013625 0.622000 16183285
0.204234 0.017069 0.618000 10197944
0.204234 0.020600 0.618000 10785166
0.204565 0.024170 0.619000 11047564
0.205556 0.027842 0.622000 11047564
0.206217 0.031497 0.624000 10586759
0.206878 0.035175 0.626000 10913391
0.207539 0.038876 0.628000 11113345
0.208530 0.042668 0.631000 10846079
0.209191 0.046420 0.633000 10716294
0.209852 0.050195 0.635000 10317438
0.210183 0.053909 0.636000 10651522
0.235326 -0.053269 0.708000 15256263
0.233996 -0.048945 0.704000 15199230
0.232667 -0.044667 0.700000 15523307
0.230340 -0.040260 0.693000 15458284
0.229010 -0.036090 0.689000 14341095
0.227349 -0.031920 0.684000 10248049
0.224690 -0.027684 0.676000 11499379
0.223028 -0.023645 0.671000 14930143
0.221698 -0.019692 0.667000 14403569
0.220036 -0.015762 0.662000 15194088
0.218042 -0.011870 0.656000 15055847
0.216712 -0.008072 0.652000 15525104
0.214718 -0.004307 0.646000 15129841
0.213056 -0.000610 0.641000 15589873
0.211062 0.003024 0.635000 15129071
0.210065 0.006621 0.632000 14539754
0.208403 0.010151 0.627000 12943320
0.206741 0.013625 0.622000 16116980
0.205411 0.017069 0.618000 10854333
0.205411 0.020600 0.618000 10653326
0.205411 0.024131 0.618000 11113102
0.206076 0.027752 0.620000 11113098
0.207073 0.031447 0.623000 10717057
0.208070 0.035175 0.626000 9925458
0.208735 0.038876 0.628000 10915450
0.209732 0.042668 0.631000 10387584
0.210397 0.046420 0.633000 11179667
0.211062 0.050195 0.635000 10848401
0.211394 0.053909 0.636000 10322565
0.236674 -0.053269 0.708000 15520210
0.235337 -0.048945 0.704000 15268601
0.234334 -0.044730 0.701000 14866925
0.231660 -0.040260 0.693000 14996716
0.230323 -0.036090 0.689000 14404582
0.228651 -0.031920 0.684000 10117486
0.225977 -0.027684 0.676000 10123126
0.224306 -0.023645 0.671000 14794703
0.223637 -0.019751 0.669000 14339824
0.221297 -0.015762 0.662000 15194344
0.219291 -0.011870 0.656000 14996458
0.217620 -0.008060 0.651000 15657973
0.215949 -0.004307 0.646000 15129070
0.214277 -0.000610 0.641000 15657973
0.212271 0.003024 0.635000 15063790
0.210934 0.006610 0.631000 14544109
0.209597 0.010151 0.627000 12297176
0.207926 0.013625 0.622000 16047862
0.206254 0.017041 0.617000 11447746
0.205920 0.020533 0.616000 10587792
0.206254 0.024092 0.617000 11178381
0.206589 0.027663 0.618000 11178375
0.207257 0.031295 0.620000 10784648
0.208929 0.035119 0.625000 8878956
0.209597 0.038814 0.627000 10650749
0.210934 0.042668 0.631000 9994108
0.211269 0.046347 0.632000 11635848
0.212271 0.050195 0.635000 11377037
0.212606 0.053909 0.636000 9929598
0.237687 -0.053193 0.707000 15858908
0.236678 -0.048945 0.704000 15000563
0.235670 -0.044730 0.701000 14998767
0.232980 -0.040260 0.693000 15393004
0.230963 -0.035986 0.687000 14341094
0.229954 -0.031920 0.684000 11237739
0.227265 -0.027684 0.676000 10844537
0.225584 -0.023645 0.671000 14072511
0.224239 -0.019692 0.667000 14465775
0.222222 -0.015738 0.661000 15325928
0.220541 -0.011870 0.656000 15060717
0.218860 -0.008060 0.651000 15591673
0.216843 -0.004300 0.645000 15261420
0.215162 -0.000610 0.640000 15658232
0.213145 0.003019 0.634000 15129582
0.212136 0.006610 0.631000 14473712
0.210455 0.010135 0.626000 12092633
0.208102 0.013559 0.619000 16314360
0.207430 0.017041 0.617000 11908296
0.207093 0.020533 0.616000 10587025
0.207093 0.024053 0.616000 11047308
0.207766 0.027663 0.618000 10718084
0.209110 0.031396 0.622000 11114127
0.209783 0.035063 0.624000 9734022
0.210455 0.038752 0.626000 10455168
0.211128 0.042465 0.628000 9795960
0.212136 0.046273 0.631000 10649981
0.212809 0.050037 0.633000 11244681
0.213481 0.053824 0.635000 9270647
0.239033 -0.053193 0.707000 16108756
0.238019 -0.048945 0.704000 14797293
0.236667 -0.044667 0.700000 15129836
0.234300 -0.040260 0.693000 15850731
0.232948 -0.036090 0.689000 14273508
0.231257 -0.031920 0.684000 12418675
0.228214 -0.027643 0.675000 11568753
0.226524 -0.023610 0.670000 13351856
0.224833 -0.019633 0.665000 14605809
0.223143 -0.015714 0.660000 15458537
0.221452 -0.011852 0.655000 15061736
0.219086 -0.008023 0.648000 15527155
0.218071 -0.004300 0.645000 15392746
0.216381 -0.000610 0.640000 15659257
0.214014 0.003014 0.633000 15194862
0.213338 0.006610 0.631000 14405869
0.211648 0.010135 0.626000 11910117
0.209281 0.013559 0.619000 16578553
0.208605 0.017041 0.617000 12302543
0.208267 0.020533 0.616000 10653067
0.208267 0.024053 0.616000 10915980
0.208943 0.027663 0.618000 10189703
0.209619 0.031295 0.620000 11439243
0.210633 0.035007 0.623000 10654335
0.211310 0.038690 0.625000 10257532
0.211986 0.042397 0.627000 9664380
0.212662 0.046127 0.629000 9599614
0.214352 0.050116 0.634000 11112053
0.214690 0.053824 0.635000 8617333
0.240380 -0.053193 0.707000 15718860
0.239020 -0.048875 0.703000 14995174
0.237320 -0.044539 0.698000 14996712
0.234940 -0.040144 0.691000 15720938
0.233580 -0.035986 0.687000 14208482
0.232220 -0.031873 0.683000 11036283
0.229840 -0.027684 0.676000 11700584
0.227800 -0.023610 0.670000 13217184
0.226100 -0.019633 0.665000 14933748
0.224400 -0.015714 0.660000 15196138
0.222020 -0.011816 0.653000 14994916
0.220320 -0.008023 0.648000 15327213
0.218960 -0.004293 0.644000 15328232
0.217260 -0.000609 0.639000 15657978
0.215560 0.003019 0.634000 15523310
0.214540 0.006610 0.631000 14865897
0.212500 0.010119 0.625000 14011633
0.210800 0.013581 0.620000 16644602
0.209440 0.017013 0.616000 12763351
0.209100 0.020500 0.615000 10324357
0.209440 0.024053 0.616000 11047565
0.210120 0.027663 0.618000 10389385
0.210800 0.031295 0.620000 10189190
0.211820 0.035007 0.623000 10258552
0.212500 0.038690 0.625000 10323577
0.212840 0.042330 0.626000 9994880
0.213860 0.046127 0.629000 9399934
0.215220 0.050037 0.633000 10583649
0.215900 0.053824 0.635000 9468788
0.240359 -0.048875 0.703000 15264479
0.238650 -0.044539 0.698000 14801133
0.236256 -0.040144 0.691000 15653353
0.235572 -0.036090 0.689000 14141923
0.233521 -0.031873 0.683000 9721971
0.231128 -0.027684 0.676000 11831925
0.229076 -0.023610 0.670000 13088166
0.227367 -0.019633 0.665000 15262451
0.225657 -0.015714 0.660000 14999274
0.223948 -0.011852 0.655000 14931175
0.222238 -0.008048 0.650000 15200758
0.220187 -0.004293 0.644000 15195373
0.218819 -0.000610 0.640000 15727351
0.216768 0.003019 0.634000 15854066
0.215058 0.006590 0.629000 15324644
0.213690 0.010119 0.625000 16052470
0.211981 0.013581 0.620000 16710907
0.210613 0.017013 0.616000 13157080
0.210271 0.020500 0.615000 9996680
0.210271 0.024014 0.615000 11113102
0.210955 0.027618 0.617000 10588806
0.211981 0.031295 0.620000 8879746
0.212665 0.034950 0.622000 9930876
0.213349 0.038629 0.624000 10323326
0.214032 0.042330 0.626000 10389888
0.215058 0.046127 0.629000 9140612
0.216426 0.050037 0.633000 10058358
0.217110 0.053824 0.635000 10323584
0.241698 -0.048875 0.703000 15325143
0.239979 -0.044539 0.698000 14931187
0.237572 -0.040144 0.691000 15655144
0.236197 -0.035986 0.687000 14209508
0.233790 -0.031733 0.680000 9394283
0.233103 -0.027766 0.678000 12623234
0.230352 -0.023610 0.670000 13022636
0.228633 -0.019633 0.665000 15526897
0.227258 -0.015738 0.661000 14930666
0.224508 -0.011816 0.653000 15197418
0.222789 -0.008023 0.648000 15856382
0.221413 -0.004293 0.644000 15326450
0.220038 -0.000610 0.640000 15658484
0.217631 0.003014 0.633000 15791862
0.216256 0.006590 0.629000 15127775
0.214881 0.010119 0.625000 16383484
0.213162 0.013581 0.620000 16645116
0.211787 0.017013 0.616000 13488090
0.211443 0.020500 0.615000 10192266
0.211443 0.024014 0.615000 11179151
0.212130 0.027618 0.617000 10654339
0.212818 0.031245 0.619000 9404031
0.213850 0.034950 0.622000 9732735
0.214537 0.038629 0.624000 10456195
0.215225 0.042330 0.626000 10916991
0.216256 0.046127 0.629000 10125194
0.216944 0.049879 0.631000 10784395
0.217975 0.053739 0.634000 10916237
0.244766 -0.053269 0.708000 15319241
0.243037 -0.048875 0.703000 15461348
0.241309 -0.044539 0.698000 14996977
0.238889 -0.040144 0.691000 15719653
0.238197 -0.036090 0.689000 14207461
0.235086 -0.031733 0.680000 9000802
0.233703 -0.027684 0.676000 13404540
0.231974 -0.023645 0.671000 13022370
0.229900 -0.019633 0.665000 15787497
0.228517 -0.015738 0.661000 14864367
0.226443 -0.011852 0.655000 15391980
0.224023 -0.008023 0.648000 16514814
0.222640 -0.004293 0.644000 15395829
0.221257 -0.000610 0.640000 15591668
0.218837 0.003014 0.633000 15722738
0.217454 0.006590 0.629000 14996195
0.216071 0.010119 0.625000 16710649
0.214343 0.013581 0.620000 16578300
0.212960 0.017013 0.616000 13749988
0.212614 0.020500 0.615000 10389377
0.212614 0.024014 0.615000 11178894
0.213306 0.027618 0.617000 10720901
0.213997 0.031245 0.619000 9863037
0.215034 0.034950 0.622000 9600633
0.215726 0.038629 0.624000 10585727
0.216417 0.042330 0.626000 11376766
0.217109 0.046053 0.628000 11112841
0.218146 0.049879 0.631000 11572362
0.219183 0.053739 0.634000 11440781
0.246114 -0.053269 0.708000 15380914
0.244724 -0.048945 0.704000 15723761
0.243333 -0.044667 0.700000 14732271
0.240205 -0.040144 0.691000 15654369
0.239510 -0.036090 0.689000 14144485
0.237076 -0.031827 0.682000 8538969
0.234990 -0.027684 0.676000 12880246
0.232905 -0.023610 0.670000 12429208
0.231167 -0.019633 0.665000 15195104
0.229776 -0.015738 0.661000 15392756
0.227690 -0.011852 0.655000 15063021
0.225257 -0.008023 0.648000 16448766
0.223867 -0.004293 0.644000 16052728
0.222476 -0.000610 0.640000 16051955
0.220043 0.003014 0.633000 15589871
0.218652 0.006590 0.629000 15061734
0.217262 0.010119 0.625000 16711159
0.215524 0.013581 0.620000 16644859
0.214481 0.017041 0.617000 14473454
0.213786 0.020500 0.615000 9994871
0.213786 0.024014 0.615000 10916750
0.214481 0.027618 0.617000 10521734
0.215176 0.031245 0.619000 9731963
0.215524 0.034838 0.620000 9600626
0.216567 0.038567 0.623000 10257019
0.217610 0.042330 0.626000 10914941
0.218305 0.046053 0.628000 11048585
0.219348 0.049879 0.631000 11440777
0.220390 0.053739 0.634000 11374990
0.247463 -0.053269 0.708000 15446714
0.246065 -0.048945 0.704000 16053200
0.244667 -0.044667 0.700000 14470384
0.241521 -0.040144 0.691000 15588580
0.240123 -0.035986 0.687000 14011109
0.237676 -0.031733 0.680000 8080985
0.235929 -0.027643 0.675000 12285806
0.234181 -0.023610 0.670000 11907240
0.232433 -0.019633 0.665000 14601411
0.231035 -0.015738 0.661000 15924729
0.228938 -0.011852 0.655000 14735335
0.226142 -0.008010 0.647000 16448505
0.225093 -0.004293 0.644000 16709882
0.224045 -0.000610 0.641000 16580345
0.221249 0.003014 0.633000 15393777
0.219850 0.006590 0.629000 15193580
0.218452 0.010119 0.625000 16644087
0.216705 0.013581 0.620000 16711421
0.215656 0.017041 0.617000 15197173
0.214957 0.020500 0.615000 9602742
0.214957 0.024014 0.615000 10652818
0.215656 0.027618 0.617000 10390663
0.216006 0.031194 0.618000 9535363
0.216705 0.034838 0.620000 9600117
0.217753 0.038567 0.623000 9863291
0.218802 0.042330 0.626000 10518396
0.219151 0.045980 0.627000 10980994
0.219850 0.049721 0.629000 11309705
0.221249 0.053654 0.633000 11309195
0.248811 -0.053269 0.708000 15316675
0.247406 -0.048945 0.704000 15521967
0.246000 -0.044667 0.700000 14733041
0.242486 -0.040086 0.690000 15588326
0.241431 -0.035986 0.687000 13947877
0.239674 -0.031827 0.682000 8930392
0.236863 -0.027602 0.674000 11560551
0.235457 -0.023610 0.670000 12562615
0.233700 -0.019633 0.665000 13414309
0.232294 -0.015738 0.661000 15857150
0.230186 -0.011852 0.655000 14665185
0.227374 -0.008010 0.647000 15920371
0.226320 -0.004293 0.644000 16711420
0.225266 -0.000610 0.641000 16645886
0.222454 0.003014 0.633000 15720948
0.221751 0.006610 0.631000 15590129
0.219994 0.010135 0.626000 16513272
0.217886 0.013581 0.620000 16514046
0.216831 0.017041 0.617000 15728380
0.216129 0.020500 0.615000 12303861
0.216129 0.024014 0.615000 10257303
0.216480 0.027573 0.616000 10456712
0.217183 0.031194 0.618000 10388108
0.217534 0.034782 0.619000 9337975
0.218940 0.038567 0.623000 9732218
0.219643 0.042262 0.625000 9993082
0.220346 0.045980 0.627000 10715003
0.221049 0.049721 0.629000 11178376
0.221751 0.053485 0.631000 11047048
0.250160 -0.053269 0.708000 15179190
0.248747 -0.048945 0.704000 14919357
0.247333 -0.044667 0.700000 14933235
0.244153 -0.040144 0.691000 15515367
0.242387 -0.035933 0.686000 13813476
0.240973 -0.031827 0.682000 9846128
0.238147 -0.027602 0.674000 10780578
0.237087 -0.023645 0.671000 13231566
0.235320 -0.019663 0.666000 12240043
0.233553 -0.015738 0.661000 15856598
0.231787 -0.011870 0.656000 14537668
0.228607 -0.008010 0.647000 15328692
0.227900 -0.004300 0.645000 16711414
0.226840 -0.000611 0.642000 16711367
0.223660 0.003014 0.633000 15986935
0.222953 0.006610 0.631000 16050936
0.221187 0.010135 0.626000 16314614
0.219067 0.013581 0.620000 16317945
0.218007 0.017041 0.617000 16184055
0.217300 0.020500 0.615000 15006714
0.216947 0.023975 0.614000 9873608
0.217653 0.027573 0.616000 10586798
0.218007 0.031144 0.617000 11177611
0.218360 0.034726 0.618000 9141385
0.219773 0.038505 0.622000 9534586
0.220833 0.042262 0.625000 9470078
0.221187 0.045907 0.626000 10453122
0.221893 0.049642 0.628000 11112841
0.222953 0.053485 0.631000 10785165
0.251509 -0.053269 0.708000 15041705
0.249732 -0.048875 0.703000 14993099
0.248667 -0.044667 0.700000 15196662
0.245470 -0.040144 0.691000 15587304
0.243693 -0.035933 0.686000 13944803
0.242272 -0.031827 0.682000 10840200
0.239430 -0.027602 0.674000 12687069
0.238365 -0.023645 0.671000 13949925
0.236589 -0.019663 0.666000 12698545
0.234812 -0.015738 0.661000 14802861
0.232681 -0.011852 0.655000 13944231
0.230194 -0.008023 0.648000 14802037
0.229129 -0.004300 0.645000 15269616
0.228063 -0.000611 0.642000 14336656
0.225221 0.003019 0.634000 16317433
0.224866 0.006631 0.633000 16381694
0.222734 0.010151 0.627000 16181748
0.220958 0.013625 0.622000 16183284
0.219537 0.017069 0.618000 16049906
0.218471 0.020500 0.615000 15595774
0.218471 0.024014 0.615000 13294329
0.218827 0.027573 0.616000 11641811
0.219182 0.031144 0.617000 10785162
0.219537 0.034726 0.618000 10062746
0.220958 0.038505 0.622000 9335930
0.222024 0.042262 0.625000 10127233
0.222379 0.045907 0.626000 10717834
0.223090 0.049642 0.628000 11112586
0.223445 0.053315 0.629000 11506323
