# .PCD v.7 - Point Cloud Data file format
VERSION .7
FIELDS x y z rgb
SIZE 4 4 4 4
TYPE F F F I
COUNT 1 1 1 1
WIDTH 1309
HEIGHT 1
POINTS 1309
DATA ascii
0.098280 -0.078120 0.882000 7766435
0.098057 -0.072914 0.880000 8880780
0.097834 -0.067731 0.878000 7495291
0.101320 -0.120051 0.894000 15033031
0.100527 -0.114043 0.887000 15128810
0.099960 -0.108360 0.882000 9282779
0.099960 -0.103320 0.882000 6041700
0.099960 -0.098280 0.882000 6383752
0.099733 -0.093029 0.880000 7240858
0.099733 -0.088000 0.880000 7373734
0.099960 -0.083160 0.882000 7832746
0.099733 -0.077943 0.880000 8160165
0.099507 -0.072749 0.878000 9864085
0.099507 -0.067731 0.878000 8156017
0.103023 -0.120051 0.894000 14917098
0.102216 -0.114043 0.887000 15659746
0.101640 -0.108360 0.882000 11257342
0.101179 -0.102851 0.878000 6315430
0.101179 -0.097834 0.878000 6782121
0.101179 -0.092817 0.878000 7438756
0.101179 -0.087800 0.878000 8620710
0.101179 -0.082783 0.878000 8226217
0.100833 -0.077500 0.875000 8357287
0.100603 -0.072334 0.873000 9535389
0.100833 -0.067500 0.875000 8284774
0.105546 -0.126140 0.901000 14524597
0.104726 -0.120051 0.894000 14869490
0.103906 -0.114043 0.887000 16112618
0.103320 -0.108360 0.882000 13233662
0.102500 -0.102500 0.875000 6517937
0.102500 -0.097500 0.875000 7177642
0.102500 -0.092500 0.875000 7569317
0.102500 -0.087500 0.875000 9867681
0.102500 -0.082500 0.875000 8554410
0.102266 -0.077323 0.873000 8619149
0.102266 -0.072334 0.873000 9203820
0.102500 -0.067500 0.875000 8480103
0.102500 -0.062500 0.875000 6836566
0.107262 -0.126140 0.901000 14725822
0.106429 -0.120051 0.894000 15522297
0.105595 -0.114043 0.887000 15982579
0.104762 -0.108114 0.880000 14345470
0.104167 -0.102500 0.875000 6192572
0.104167 -0.097500 0.875000 7307946
0.103929 -0.092289 0.873000 7830694
0.104167 -0.087500 0.875000 9340572
0.103929 -0.082311 0.873000 8817580
0.103690 -0.077146 0.871000 8876147
0.103690 -0.072169 0.871000 9594170
0.103929 -0.067346 0.873000 8480103
0.104167 -0.062500 0.875000 7033427
0.108615 -0.125720 0.898000 14852023
0.108131 -0.120051 0.894000 16252148
0.106922 -0.113657 0.884000 15785715
0.106438 -0.108114 0.880000 15527931
0.105591 -0.102266 0.873000 5870021
0.105591 -0.097277 0.873000 7504299
0.105591 -0.092289 0.873000 8094377
0.105591 -0.087300 0.873000 8813730
0.105350 -0.082123 0.871000 9077901
0.105108 -0.076969 0.869000 9132139
0.105350 -0.072169 0.871000 9924197
0.105350 -0.067191 0.871000 8547148
0.105833 -0.062500 0.875000 7229777
0.110326 -0.125720 0.898000 14720177
0.109466 -0.119649 0.891000 15984110
0.108606 -0.113657 0.884000 15321843
0.107869 -0.107869 0.878000 15789048
0.107009 -0.102031 0.871000 8756174
0.107009 -0.097054 0.871000 7831980
0.107009 -0.092077 0.871000 8489899
0.107254 -0.087300 0.873000 9142951
0.106763 -0.081934 0.869000 9597807
0.106517 -0.076791 0.867000 9333090
0.106517 -0.071837 0.867000 9994128
0.106763 -0.067037 0.869000 7159857
0.107254 -0.062357 0.873000 7099726
0.111787 -0.125440 0.896000 14591167
0.111163 -0.119649 0.891000 15715562
0.110290 -0.113657 0.884000 14866165
0.109541 -0.107869 0.878000 16054009
0.108668 -0.102031 0.871000 11584742
0.108418 -0.096831 0.869000 8225702
0.108418 -0.091866 0.869000 8881813
0.108169 -0.086700 0.867000 9471109
0.108169 -0.081746 0.867000 10121065
0.108169 -0.076791 0.867000 9533314
0.108169 -0.071837 0.867000 10060929
0.108418 -0.067037 0.869000 5701940
0.108169 -0.061929 0.867000 6966089
0.113747 -0.125720 0.898000 15385037
0.112860 -0.119649 0.891000 15717606
0.111973 -0.113657 0.884000 15459063
0.111213 -0.107869 0.878000 16183802
0.110073 -0.101797 0.869000 14154494
0.109820 -0.096609 0.867000 8486303
0.109820 -0.091654 0.867000 9141120
0.109567 -0.086500 0.865000 9467234
0.109567 -0.081557 0.865000 9793379
0.109567 -0.076614 0.865000 9602977
0.109567 -0.071671 0.865000 9796722
0.109567 -0.066729 0.865000 5183030
0.109187 -0.061571 0.862000 6310212
0.108680 -0.056383 0.858000 6177362
0.115200 -0.125440 0.896000 16171474
0.114557 -0.119649 0.891000 15718639
0.113657 -0.113657 0.884000 15983091
0.112886 -0.107869 0.878000 16313079
0.111471 -0.101563 0.867000 16706558
0.111214 -0.096386 0.865000 8812974
0.111214 -0.091443 0.865000 9335161
0.111214 -0.086500 0.865000 9463663
0.111214 -0.081557 0.865000 9467773
0.111214 -0.076614 0.865000 9671285
0.111214 -0.071671 0.865000 9520221
0.110829 -0.066497 0.862000 4663085
0.110314 -0.061286 0.858000 5651534
0.110314 -0.056383 0.858000 5912156
0.116646 -0.125160 0.894000 15851479
0.116254 -0.119649 0.891000 16049912
0.115341 -0.113657 0.884000 15782896
0.114558 -0.107869 0.878000 16248051
0.113123 -0.101563 0.867000 15461630
0.112862 -0.096386 0.865000 10129852
0.112210 -0.090914 0.860000 9334131
0.111949 -0.085800 0.858000 9401212
0.112210 -0.081086 0.860000 9337752
0.112210 -0.076171 0.860000 9390921
0.112210 -0.071257 0.860000 9252425
0.112210 -0.066343 0.860000 4594980
0.111949 -0.061286 0.858000 5321559
0.111949 -0.056383 0.858000 6704486
0.117951 -0.124740 0.891000 15450848
0.117951 -0.119649 0.891000 16375800
0.116760 -0.113400 0.882000 15521008
0.115833 -0.107500 0.875000 16185337
0.114774 -0.101563 0.867000 14203111
0.114112 -0.096051 0.862000 11443677
0.113583 -0.090703 0.858000 9334399
0.113318 -0.085600 0.856000 9403761
0.113583 -0.080897 0.858000 9195364
0.113583 -0.075994 0.858000 9175367
0.113583 -0.071091 0.858000 8987972
0.113583 -0.066189 0.858000 4593994
0.113318 -0.061143 0.856000 4992858
0.113318 -0.056251 0.856000 7564893
0.113053 -0.051240 0.854000 6502210
0.119380 -0.124460 0.889000 15320297
0.119111 -0.119111 0.887000 16178935
0.118440 -0.113400 0.882000 15454193
0.117500 -0.107500 0.875000 16252158
0.116426 -0.101563 0.867000 13128911
0.115754 -0.096051 0.862000 12041726
0.115217 -0.090703 0.858000 9140107
0.114949 -0.085600 0.856000 8272485
0.114949 -0.080709 0.856000 9114928
0.114949 -0.075817 0.856000 9113925
0.114949 -0.070926 0.856000 8725823
0.114949 -0.066034 0.856000 6182000
0.114680 -0.061000 0.854000 5387101
0.114680 -0.056120 0.854000 7759188
0.114680 -0.051240 0.854000 6765139
0.121754 -0.125160 0.894000 15125991
0.121073 -0.119380 0.889000 16044533
0.120120 -0.113400 0.882000 15326707
0.119167 -0.107500 0.875000 16317950
0.118077 -0.101563 0.867000 12019629
0.117124 -0.095829 0.860000 12641278
0.116851 -0.090703 0.858000 8879005
0.116579 -0.085600 0.856000 7143786
0.116579 -0.080709 0.856000 8983591
0.116307 -0.075640 0.854000 8985665
0.116579 -0.070926 0.856000 8410723
0.116579 -0.066034 0.856000 7765634
0.116307 -0.061000 0.854000 5789806
0.116307 -0.056120 0.854000 8026233
0.116307 -0.051240 0.854000 7034978
0.123043 -0.124740 0.891000 15255269
0.122767 -0.119380 0.889000 15916275
0.121800 -0.113400 0.882000 15720181
0.120833 -0.107500 0.875000 15590142
0.119729 -0.101563 0.867000 12606604
0.118762 -0.095829 0.860000 14146558
0.118210 -0.090491 0.856000 8553135
0.117933 -0.085400 0.854000 8140398
0.117933 -0.080520 0.854000 9115422
0.117933 -0.075640 0.854000 8863292
0.117933 -0.070760 0.854000 8289415
0.117657 -0.065726 0.852000 8089747
0.117657 -0.060857 0.852000 8489856
0.117657 -0.055989 0.852000 9736350
0.117933 -0.051240 0.854000 7104370
0.124740 -0.124740 0.891000 15324389
0.124460 -0.119380 0.889000 15718897
0.123480 -0.113400 0.882000 16116726
0.122500 -0.107500 0.875000 14934752
0.121380 -0.101563 0.867000 13195395
0.120120 -0.095606 0.858000 15660525
0.119560 -0.090280 0.854000 8230846
0.119280 -0.085200 0.852000 9206420
0.119280 -0.080331 0.852000 9184318
0.119000 -0.075286 0.850000 8674385
0.119280 -0.070594 0.852000 8157316
0.119280 -0.065726 0.852000 8481161
0.119280 -0.060857 0.852000 11113614
0.119000 -0.055857 0.850000 11514520
0.119560 -0.051240 0.854000 7104893
0.126153 -0.124460 0.889000 15391205
0.125870 -0.119111 0.887000 15718383
0.125160 -0.113400 0.882000 16449271
0.124167 -0.107500 0.875000 13999042
0.123031 -0.101563 0.867000 12017018
0.122038 -0.095829 0.860000 14864348
0.120903 -0.090069 0.852000 10001868
0.120903 -0.085200 0.852000 8947898
0.120903 -0.080331 0.852000 8928095
0.120903 -0.075463 0.852000 7756134
0.120903 -0.070594 0.852000 8419201
0.120619 -0.065571 0.850000 9206399
0.120619 -0.060714 0.850000 11181980
0.120619 -0.055857 0.850000 10849938
0.120903 -0.051120 0.852000 8880521
0.127847 -0.124460 0.889000 15388636
0.127128 -0.118709 0.884000 15720688
0.126552 -0.113143 0.880000 16711160
0.125833 -0.107500 0.875000 13121703
0.124683 -0.101563 0.867000 10772344
0.123676 -0.095829 0.860000 14079672
0.122238 -0.089857 0.850000 11715039
0.122238 -0.085000 0.850000 8684449
0.122238 -0.080143 0.850000 8672106
0.122238 -0.075286 0.850000 6839158
0.122238 -0.070429 0.850000 8619153
0.122238 -0.065571 0.850000 9994139
0.121950 -0.060571 0.848000 11178647
0.121519 -0.055529 0.845000 10190239
0.121950 -0.050880 0.848000 10584197
0.122238 -0.046143 0.850000 5919845
0.129540 -0.124460 0.889000 15318227
0.128811 -0.118709 0.884000 15918065
0.128229 -0.113143 0.880000 16645882
0.127500 -0.107500 0.875000 12017548
0.126334 -0.101563 0.867000 11366263
0.124731 -0.095383 0.856000 14137492
0.123566 -0.089646 0.848000 14148081
0.123566 -0.084800 0.848000 7299464
0.123129 -0.079671 0.845000 7231092
0.123129 -0.074843 0.845000 7366022
0.123129 -0.070014 0.845000 9804193
0.123129 -0.065186 0.845000 10391991
0.123129 -0.060357 0.845000 11505042
0.122837 -0.055397 0.843000 11314348
0.122837 -0.050580 0.843000 9863553
0.123129 -0.045871 0.845000 6643066
0.130495 -0.118709 0.884000 16178929
0.129905 -0.113143 0.880000 16569313
0.129167 -0.107500 0.875000 10973320
0.127986 -0.101563 0.867000 11958404
0.126657 -0.095606 0.858000 14200509
0.124443 -0.089117 0.843000 16574711
0.124443 -0.084300 0.843000 5918613
0.124148 -0.079294 0.841000 5726083
0.124148 -0.074489 0.841000 7956617
0.124148 -0.069683 0.841000 10982812
0.124148 -0.064877 0.841000 10787244
0.124148 -0.060071 0.841000 11770252
0.123852 -0.055134 0.839000 12431751
0.123852 -0.050340 0.839000 9140599
0.124148 -0.045654 0.841000 7425881
0.131581 -0.118171 0.880000 16115441
0.131282 -0.112886 0.878000 13875144
0.130534 -0.107254 0.873000 11497091
0.128890 -0.100977 0.862000 11899537
0.127693 -0.095160 0.854000 14664165
0.126049 -0.089117 0.843000 16645885
0.125750 -0.084100 0.841000 7630242
0.125450 -0.079106 0.839000 7633299
0.125450 -0.074311 0.839000 8748172
0.125450 -0.069517 0.839000 10522775
0.125450 -0.064723 0.839000 10325408
0.125450 -0.059929 0.839000 10723206
0.125450 -0.055134 0.839000 10121826
0.125450 -0.050340 0.839000 9073004
0.125450 -0.045546 0.839000 6897207
0.133257 -0.118171 0.880000 16113897
0.132500 -0.112500 0.875000 11103151
0.131894 -0.107009 0.871000 12084334
0.130531 -0.100977 0.862000 11831446
0.128714 -0.094714 0.850000 15135473
0.127654 -0.089117 0.843000 16710907
0.127049 -0.083900 0.839000 9272015
0.127049 -0.079106 0.839000 9470352
0.126746 -0.074134 0.837000 9535630
0.126746 -0.069351 0.837000 10057860
0.126746 -0.064569 0.837000 9861481
0.126746 -0.059786 0.837000 9660515
0.126746 -0.055003 0.837000 7805260
0.126746 -0.050220 0.837000 8935776
0.126746 -0.045437 0.837000 6373453
0.127049 -0.040751 0.839000 7557439
0.133860 -0.112243 0.873000 10359189
0.133553 -0.107009 0.871000 11688024
0.131867 -0.100743 0.860000 12807067
0.130947 -0.095160 0.854000 15524604
0.129260 -0.089117 0.843000 16711417
0.128647 -0.083900 0.839000 11251964
0.128340 -0.078917 0.837000 9208206
0.128340 -0.074134 0.837000 9601167
0.128033 -0.069186 0.835000 9129842
0.128033 -0.064414 0.835000 8803121
0.128340 -0.059786 0.837000 9719617
0.128340 -0.055003 0.837000 6105654
0.128340 -0.050220 0.837000 8545108
0.128340 -0.045437 0.837000 6179170
0.128647 -0.040751 0.839000 6968122
0.135523 -0.112243 0.873000 9658549
0.134902 -0.106763 0.869000 11367285
0.133505 -0.100743 0.860000 13735081
0.132263 -0.094937 0.852000 15983097
0.130555 -0.088906 0.841000 16708084
0.129934 -0.083700 0.837000 13295613
0.129934 -0.078917 0.837000 8881052
0.129624 -0.073957 0.835000 9670050
0.129313 -0.069020 0.833000 8221576
0.129313 -0.064260 0.833000 7821893
0.129624 -0.059643 0.835000 9788236
0.129624 -0.054871 0.835000 4406844
0.129624 -0.050100 0.835000 8078922
0.129624 -0.045329 0.835000 5918826
0.129934 -0.040654 0.837000 6374479
0.136871 -0.111986 0.871000 12161237
0.136557 -0.106763 0.869000 11367569
0.134829 -0.100509 0.858000 13733303
0.133886 -0.094937 0.852000 15852277
0.132157 -0.088906 0.841000 16047088
0.131529 -0.083700 0.837000 14608126
0.131214 -0.078729 0.835000 9537450
0.130900 -0.073780 0.833000 10000308
0.130900 -0.069020 0.833000 8688798
0.130900 -0.064260 0.833000 8610649
0.130900 -0.059500 0.833000 8937304
0.130900 -0.054740 0.833000 4470594
0.130586 -0.049860 0.831000 7815231
0.131214 -0.045329 0.835000 6707058
0.131214 -0.040557 0.835000 6242660
0.130900 -0.035700 0.833000 5653328
0.138530 -0.111986 0.871000 14664678
0.138212 -0.106763 0.869000 11374234
0.136781 -0.100743 0.860000 13746130
0.134872 -0.094491 0.848000 15719411
0.133759 -0.088906 0.841000 15389934
0.133123 -0.083700 0.837000 15924734
0.132169 -0.078351 0.831000 10197686
0.131850 -0.073426 0.829000 10327201
0.131850 -0.068689 0.829000 9132915
0.131850 -0.063951 0.829000 9464155
0.131850 -0.059214 0.829000 8084562
0.131850 -0.054477 0.829000 4605007
0.132169 -0.049860 0.831000 7555169
0.131850 -0.045003 0.829000 7494522
0.131850 -0.040266 0.829000 6116973
0.131850 -0.035529 0.829000 5324626
0.139868 -0.111729 0.869000 15726327
0.139546 -0.106517 0.867000 11830691
0.138097 -0.100509 0.858000 15269100
0.136488 -0.094491 0.848000 15785968
0.135361 -0.088906 0.841000 15454955
0.134717 -0.083700 0.837000 16053246
0.133751 -0.078351 0.831000 10918083
0.133430 -0.073426 0.829000 9534605
0.133430 -0.068689 0.829000 6751560
0.133430 -0.063951 0.829000 7690332
0.133430 -0.059214 0.829000 7758156
0.133430 -0.054477 0.829000 5258843
0.133430 -0.049740 0.829000 7891842
0.133430 -0.045003 0.829000 7363969
0.133430 -0.040266 0.829000 8223095
0.133430 -0.035529 0.829000 5915220
0.141523 -0.111729 0.869000 16704502
0.140871 -0.106271 0.865000 12291509
0.139731 -0.100509 0.858000 16706540
0.138754 -0.094937 0.852000 15853297
0.136963 -0.088906 0.841000 15521775
0.135986 -0.083500 0.835000 16183549
0.135334 -0.078351 0.831000 11647703
0.134683 -0.073249 0.827000 8812140
0.134683 -0.068523 0.827000 4331859
0.134683 -0.063797 0.827000 5922169
0.134683 -0.059071 0.827000 7429715
0.134683 -0.054346 0.827000 5912923
0.134683 -0.049620 0.827000 8152187
0.134357 -0.044786 0.825000 7297402
0.134357 -0.040071 0.825000 10315632
0.134357 -0.035357 0.825000 6506074
0.142519 -0.106271 0.865000 13218246
0.141036 -0.100274 0.856000 16313581
0.140048 -0.094714 0.850000 15785970
0.138565 -0.088906 0.841000 15655411
0.137247 -0.083300 0.833000 16249340
0.136588 -0.078163 0.829000 13687276
0.136258 -0.073249 0.827000 6369610
0.135929 -0.068357 0.825000 5119327
0.135929 -0.063643 0.825000 6841493
0.135929 -0.058929 0.825000 7429722
0.135929 -0.054214 0.825000 6771291
0.135929 -0.049500 0.825000 8284276
0.135599 -0.044677 0.823000 7756659
0.135599 -0.039974 0.823000 8804458
0.135929 -0.035357 0.825000 7427679
0.143667 -0.105903 0.862000 14204624
0.142667 -0.100274 0.856000 15853544
0.141667 -0.094714 0.850000 15785457
0.140167 -0.088906 0.841000 15785712
0.138500 -0.083100 0.831000 16318202
0.137833 -0.077974 0.827000 15719669
0.137500 -0.073071 0.825000 3998018
0.137167 -0.068191 0.823000 5851253
0.137167 -0.063489 0.823000 7831446
0.137167 -0.058786 0.823000 7361892
0.137167 -0.054083 0.823000 7627373
0.137167 -0.049380 0.823000 8349303
0.137167 -0.044677 0.823000 8214901
0.136833 -0.039877 0.821000 7232624
0.137167 -0.035271 0.823000 8282473
0.145309 -0.105903 0.862000 14470361
0.143960 -0.100040 0.854000 15853283
0.143286 -0.094714 0.850000 15587568
0.141769 -0.088906 0.841000 15783405
0.140083 -0.083100 0.831000 16183800
0.139409 -0.077974 0.827000 16252670
0.138734 -0.072894 0.823000 5848889
0.138734 -0.068191 0.823000 7040908
0.138397 -0.063334 0.821000 8355223
0.138397 -0.058643 0.821000 7555693
0.138397 -0.053951 0.821000 7692159
0.138397 -0.049260 0.821000 9206906
0.138397 -0.044569 0.821000 8276854
0.138397 -0.039877 0.821000 8614774
0.138734 -0.035271 0.823000 8937330
0.145587 -0.100040 0.854000 15784925
0.144905 -0.094714 0.850000 15456497
0.143370 -0.088906 0.841000 15785200
0.141666 -0.083100 0.831000 16050166
0.140643 -0.077786 0.825000 16707834
0.139961 -0.072717 0.821000 7761551
0.139961 -0.068026 0.821000 8150898
0.139961 -0.063334 0.821000 8943735
0.139961 -0.058643 0.821000 7686231
0.139961 -0.053951 0.821000 7758701
0.139620 -0.049140 0.819000 9991530
0.139620 -0.044460 0.819000 8405107
0.139620 -0.039780 0.819000 9984626
0.139961 -0.035186 0.821000 9656946
0.147213 -0.100040 0.854000 15652567
0.146179 -0.094491 0.848000 15588338
0.144628 -0.088694 0.839000 15852275
0.142904 -0.082900 0.829000 15983603
0.142214 -0.077786 0.825000 16510710
0.141525 -0.072717 0.821000 10067685
0.141180 -0.067860 0.819000 7491929
0.141180 -0.063180 0.819000 7620951
0.141180 -0.058500 0.819000 5972545
0.141180 -0.053820 0.819000 7950683
0.140490 -0.048900 0.815000 11043675
0.140835 -0.044351 0.817000 9198703
0.140835 -0.039683 0.817000 9254255
0.140835 -0.035014 0.817000 8937329
0.140490 -0.030271 0.815000 8213341
0.148491 -0.099806 0.852000 15457511
0.148143 -0.094714 0.850000 15720687
0.146574 -0.088906 0.841000 15917298
0.144483 -0.082900 0.829000 15985394
0.143786 -0.077786 0.825000 16248053
0.142740 -0.072540 0.819000 12371442
0.142391 -0.067694 0.817000 6769525
0.142043 -0.062871 0.815000 6366278
0.142043 -0.058214 0.815000 4267573
0.142043 -0.053557 0.815000 8140596
0.142043 -0.048900 0.815000 12094033
0.142043 -0.044243 0.815000 10055270
0.142043 -0.039586 0.815000 8474223
0.142043 -0.034929 0.815000 8216172
0.142043 -0.030271 0.815000 7820886
0.150467 -0.100040 0.854000 16121079
0.149410 -0.094491 0.848000 15653612
0.147471 -0.088483 0.837000 15918577
0.146062 -0.082900 0.829000 15786225
0.145357 -0.077786 0.825000 16182261
0.143948 -0.072363 0.817000 13424638
0.143595 -0.067529 0.815000 6044817
0.143595 -0.062871 0.815000 6894901
0.143595 -0.058214 0.815000 6038314
0.143419 -0.053491 0.814000 7740428
0.143419 -0.048840 0.814000 11703367
0.143419 -0.044189 0.814000 9857628
0.143595 -0.039586 0.815000 8415087
0.143419 -0.034886 0.814000 8939367
0.143067 -0.030160 0.812000 9331023
0.152093 -0.100040 0.854000 16710650
0.151025 -0.094491 0.848000 15651054
0.149066 -0.088483 0.837000 15852018
0.147641 -0.082900 0.829000 15655410
0.146572 -0.077597 0.823000 16118265
0.145504 -0.072363 0.817000 14482174
0.145148 -0.067529 0.815000 5331880
0.144970 -0.062794 0.814000 7424091
0.144970 -0.058143 0.814000 7805738
0.144970 -0.053491 0.814000 7346224
0.144970 -0.048840 0.814000 11298390
0.144970 -0.044189 0.814000 9660502
0.144970 -0.039537 0.814000 8282722
0.144970 -0.034886 0.814000 9660788
0.144613 -0.030160 0.812000 10844782
0.144257 -0.025457 0.810000 6897749
0.153360 -0.099806 0.852000 16711421
0.152640 -0.094491 0.848000 15785711
0.150660 -0.088483 0.837000 15918323
0.149220 -0.082900 0.829000 15786995
0.148140 -0.077597 0.823000 16252412
0.147060 -0.072363 0.817000 15463422
0.146700 -0.067529 0.815000 8153022
0.146160 -0.062640 0.812000 8083073
0.146160 -0.058000 0.812000 7737386
0.146160 -0.053360 0.812000 8146515
0.146160 -0.048720 0.812000 8925797
0.146160 -0.044080 0.812000 10384720
0.146160 -0.039440 0.812000 9133397
0.146160 -0.034800 0.812000 10123393
0.145800 -0.030086 0.810000 10984845
0.145800 -0.025457 0.810000 7952226
0.154983 -0.099806 0.852000 16711165
0.154255 -0.094491 0.848000 15984374
0.152254 -0.088483 0.837000 15917810
0.150799 -0.082900 0.829000 15983090
0.149708 -0.077597 0.823000 16380406
0.148252 -0.072186 0.815000 16445948
0.148070 -0.067446 0.814000 10988751
0.147343 -0.062486 0.810000 8744829
0.147343 -0.057857 0.810000 7614292
0.147343 -0.053229 0.810000 9003865
0.147707 -0.048720 0.812000 6511970
0.147343 -0.043971 0.810000 11173209
0.147343 -0.039343 0.810000 9922656
0.147343 -0.034714 0.810000 10649736
0.147343 -0.030086 0.810000 11044220
0.147343 -0.025457 0.810000 8940133
0.156606 -0.099806 0.852000 16711421
0.155319 -0.094157 0.845000 16315645
0.153849 -0.088483 0.837000 15720176
0.152378 -0.082900 0.829000 15851761
0.151275 -0.077597 0.823000 15917295
0.149805 -0.072186 0.815000 16380409
0.149621 -0.067446 0.814000 13424353
0.148518 -0.062331 0.808000 8875128
0.148518 -0.057714 0.808000 7489405
0.148518 -0.053097 0.808000 9790046
0.148886 -0.048600 0.810000 9077087
0.148886 -0.043971 0.810000 10710881
0.148518 -0.039246 0.808000 10316139
0.148518 -0.034629 0.808000 11111311
0.148886 -0.030086 0.810000 9466475
0.149621 -0.025583 0.814000 9136743
0.156929 -0.094157 0.845000 16711422
0.155071 -0.088271 0.835000 15459060
0.153957 -0.082900 0.829000 15788278
0.152843 -0.077597 0.823000 15456751
0.151357 -0.072186 0.815000 16381436
0.151171 -0.067446 0.814000 15785966
0.150057 -0.062331 0.808000 9003402
0.149686 -0.057571 0.806000 7299693
0.149686 -0.052966 0.806000 10580573
0.150057 -0.048480 0.808000 11563351
0.150057 -0.043863 0.808000 10248555
0.150057 -0.039246 0.808000 10648181
0.150057 -0.034629 0.808000 11636619
0.150429 -0.030086 0.810000 7825252
0.151171 -0.025583 0.814000 9330021
0.158163 -0.093934 0.843000 16711422
0.156662 -0.088271 0.835000 15657720
0.155911 -0.083100 0.831000 15920122
0.154035 -0.077409 0.821000 15455727
0.152910 -0.072186 0.815000 16447486
0.152347 -0.067280 0.812000 16251644
0.151221 -0.062177 0.806000 10518172
0.151221 -0.057571 0.806000 9800541
0.151221 -0.052966 0.806000 10253147
0.151221 -0.048360 0.806000 9787983
0.151221 -0.043754 0.806000 10581876
0.151596 -0.039246 0.808000 10913664
0.151596 -0.034629 0.808000 10781575
0.151971 -0.030086 0.810000 7493213
0.152722 -0.025583 0.814000 8741731
0.159769 -0.093934 0.843000 16711422
0.158252 -0.088271 0.835000 15854071
0.157494 -0.083100 0.831000 16051448
0.155978 -0.077597 0.823000 15391984
0.154462 -0.072186 0.815000 16579576
0.153514 -0.067114 0.810000 16709624
0.152377 -0.062023 0.804000 11965372
0.151998 -0.057286 0.802000 12223071
0.151998 -0.052703 0.802000 9987153
0.152377 -0.048240 0.804000 7956577
0.152756 -0.043754 0.806000 10914165
0.152756 -0.039149 0.806000 11111036
0.153135 -0.034629 0.808000 9930113
0.153893 -0.030160 0.812000 7102055
0.154462 -0.025614 0.815000 8154213
0.161374 -0.093934 0.843000 16711422
0.160226 -0.088483 0.837000 16114167
0.158694 -0.082900 0.829000 16050421
0.157546 -0.077597 0.823000 15719922
0.155823 -0.072097 0.814000 15786993
0.154674 -0.066949 0.808000 16711413
0.153909 -0.062023 0.804000 12496091
0.153526 -0.057286 0.802000 10182753
0.153526 -0.052703 0.802000 9724487
0.153909 -0.048240 0.804000 9930354
0.154291 -0.043754 0.806000 10782069
0.154291 -0.039149 0.806000 10914167
0.154674 -0.034629 0.808000 9928315
0.155823 -0.030234 0.814000 7890801
0.156014 -0.025614 0.815000 8151143
0.162980 -0.093934 0.843000 16711422
0.161433 -0.088271 0.835000 16315642
0.160273 -0.082900 0.829000 16052212
0.159113 -0.077597 0.823000 16051444
0.157373 -0.072097 0.814000 14994923
0.156213 -0.066949 0.808000 16708341
0.155053 -0.061869 0.802000 13017829
0.154667 -0.057143 0.800000 8151917
0.154667 -0.052571 0.800000 9467498
0.155053 -0.048120 0.802000 11832191
0.155827 -0.043754 0.806000 10716026
0.155827 -0.039149 0.806000 10714997
0.156600 -0.034714 0.810000 9927803
0.157567 -0.030271 0.815000 8615024
0.157953 -0.025677 0.817000 8148843
0.164586 -0.093934 0.843000 16711422
0.163024 -0.088271 0.835000 16514814
0.161852 -0.082900 0.829000 16050163
0.160290 -0.077409 0.821000 16383223
0.158924 -0.072097 0.814000 14927076
0.157752 -0.066949 0.808000 16711414
0.156581 -0.061869 0.802000 12225775
0.156190 -0.057143 0.800000 9730938
0.156190 -0.052571 0.800000 10455181
0.156971 -0.048240 0.804000 11503500
0.157362 -0.043754 0.806000 10056574
0.157752 -0.039246 0.808000 10451826
0.158533 -0.034800 0.812000 9927035
0.159119 -0.030271 0.815000 9732463
0.159900 -0.025740 0.819000 8150895
0.164220 -0.088060 0.833000 16711422
0.163431 -0.082900 0.829000 15983351
0.161854 -0.077409 0.821000 16709109
0.160474 -0.072097 0.814000 14855653
0.159291 -0.066949 0.808000 16710647
0.157714 -0.061714 0.800000 11423408
0.157714 -0.057143 0.800000 11240578
0.157714 -0.052571 0.800000 11440265
0.158503 -0.048240 0.804000 11173500
0.158897 -0.043754 0.806000 9465468
0.159291 -0.039246 0.808000 10124151
0.160474 -0.034886 0.814000 9926521
0.161066 -0.030346 0.817000 10845299
0.161460 -0.025740 0.819000 8152181
0.165409 -0.087849 0.831000 16711422
0.165010 -0.082900 0.829000 16184315
0.163020 -0.077220 0.819000 15987700
0.162025 -0.072097 0.814000 15060198
0.160432 -0.066783 0.806000 16711417
0.159238 -0.061714 0.800000 10841969
0.159238 -0.057143 0.800000 11440266
0.159636 -0.052703 0.802000 10979972
0.160034 -0.048240 0.804000 10056301
0.160830 -0.043863 0.808000 9663353
0.161229 -0.039343 0.810000 10124155
0.162025 -0.034886 0.814000 9860982
0.162622 -0.030346 0.817000 10517624
0.163418 -0.025803 0.821000 8876155
0.166590 -0.087637 0.829000 16711422
0.165786 -0.082500 0.825000 16383741
0.164580 -0.077220 0.819000 15259116
0.163575 -0.072097 0.814000 15199216
0.162370 -0.066949 0.808000 16705262
0.160762 -0.061714 0.800000 10316668
0.160762 -0.057143 0.800000 11636103
0.161164 -0.052703 0.802000 10521224
0.161968 -0.048360 0.806000 8942710
0.162370 -0.043863 0.808000 9926778
0.163173 -0.039440 0.812000 10058876
0.163776 -0.034929 0.815000 9796728
0.164580 -0.030420 0.819000 10189431
0.164982 -0.025803 0.821000 9600118
0.168169 -0.087637 0.829000 16711422
0.166951 -0.082300 0.823000 16513278
0.166140 -0.077220 0.819000 14732003
0.165126 -0.072097 0.814000 15788538
0.163503 -0.066783 0.806000 15330787
0.162286 -0.061714 0.800000 10189446
0.162286 -0.057143 0.800000 10780805
0.162691 -0.052703 0.802000 10652299
0.163503 -0.048360 0.806000 9533567
0.163909 -0.043863 0.808000 10123898
0.165126 -0.039537 0.814000 10124670
0.165329 -0.034929 0.815000 9993338
0.166546 -0.030494 0.821000 10058358
0.168519 -0.082300 0.823000 16580350
0.167700 -0.077220 0.819000 14209510
0.166676 -0.072097 0.814000 16444156
0.165038 -0.066783 0.806000 13938895
0.163810 -0.061714 0.800000 10061710
0.163810 -0.057143 0.800000 9862793
0.164629 -0.052834 0.804000 10785416
0.165038 -0.048360 0.806000 10123394
0.165857 -0.043971 0.810000 10321019
0.166676 -0.039537 0.814000 10190207
0.166881 -0.034929 0.815000 10124923
0.168110 -0.030494 0.821000 9862008
0.169673 -0.082100 0.821000 16645630
0.168433 -0.076843 0.815000 14137833
0.167400 -0.071743 0.810000 16578045
0.166160 -0.066617 0.804000 11700667
0.165333 -0.061714 0.800000 10718102
0.165333 -0.057143 0.800000 10452878
0.166160 -0.052834 0.804000 10980229
0.166573 -0.048360 0.806000 9925253
0.167400 -0.043971 0.810000 10058619
0.167813 -0.039440 0.812000 10256000
0.168433 -0.034929 0.815000 10059132
0.169673 -0.030494 0.821000 9993082
0.170820 -0.081900 0.819000 16711422
0.169986 -0.076843 0.815000 14081264
0.168943 -0.071743 0.810000 16711422
0.167691 -0.066617 0.804000 9471926
0.166857 -0.061714 0.800000 11376789
0.166857 -0.057143 0.800000 11047061
0.167691 -0.052834 0.804000 11240073
0.168109 -0.048360 0.806000 9665928
0.169360 -0.044080 0.812000 9796221
0.169777 -0.039537 0.814000 10255743
0.169986 -0.034929 0.815000 10059388
0.171237 -0.030494 0.821000 10058877
0.172380 -0.081900 0.819000 16711422
0.171328 -0.076749 0.814000 15393527
0.170486 -0.071743 0.810000 16055550
0.169223 -0.066617 0.804000 9661105
0.168802 -0.061869 0.802000 11638419
0.168802 -0.057286 0.802000 11376539
0.169644 -0.052966 0.806000 11438988
0.170065 -0.048480 0.808000 10518924
0.170907 -0.044080 0.812000 10058110
0.171328 -0.039537 0.814000 10256255
0.171959 -0.035014 0.817000 10190460
0.172801 -0.030494 0.821000 10320769
0.173515 -0.081700 0.817000 16711422
0.172878 -0.076749 0.814000 16709627
0.172029 -0.071743 0.810000 15466238
0.170754 -0.066617 0.804000 9793951
0.170330 -0.061869 0.802000 11965587
0.170754 -0.057429 0.804000 11703448
0.171179 -0.052966 0.806000 11635852
0.172029 -0.048600 0.810000 11370630
0.172453 -0.044080 0.812000 10386814
0.172878 -0.039537 0.814000 10255489
0.173515 -0.035014 0.817000 10386300
0.174365 -0.030494 0.821000 10583165
0.174643 -0.081500 0.815000 16711422
0.174429 -0.076749 0.814000 16711422
0.173143 -0.071566 0.808000 14342910
0.172286 -0.066617 0.804000 10651276
0.172286 -0.062023 0.804000 11899795
0.172286 -0.057429 0.804000 11834261
0.173143 -0.053097 0.808000 11568780
0.174000 -0.048720 0.812000 11369856
0.174429 -0.044189 0.814000 10584190
0.174643 -0.039586 0.815000 9926018
0.175500 -0.035100 0.819000 10254971
0.176357 -0.030569 0.823000 10386810
0.175979 -0.081400 0.814000 16711422
0.175547 -0.076560 0.812000 16711422
0.174682 -0.071566 0.808000 13230054
0.174250 -0.066783 0.806000 11502223
0.173817 -0.062023 0.804000 11834002
0.174250 -0.057571 0.806000 11900053
0.175114 -0.053229 0.810000 11501962
0.175547 -0.048720 0.812000 11304321
0.175979 -0.044189 0.814000 10780542
0.176628 -0.039683 0.817000 9599612
0.177492 -0.035186 0.821000 10123384
0.178357 -0.030643 0.825000 10190199
0.177530 -0.081400 0.814000 16711422
0.177093 -0.076560 0.812000 16711422
0.176221 -0.071566 0.808000 12559309
0.175785 -0.066783 0.806000 11637907
0.175349 -0.062023 0.804000 11834001
0.175785 -0.057571 0.806000 11835030
0.176657 -0.053229 0.810000 11635847
0.177093 -0.048720 0.812000 11304578
0.177748 -0.044243 0.815000 10976638
0.178620 -0.039780 0.819000 10057846
0.179492 -0.035271 0.823000 10123380
0.179080 -0.081400 0.814000 16711422
0.178640 -0.076560 0.812000 16711422
0.177760 -0.071566 0.808000 11884194
0.177320 -0.066783 0.806000 11703187
0.177320 -0.062177 0.806000 11833744
0.177760 -0.057714 0.808000 11702417
0.178640 -0.053360 0.812000 11769995
0.179080 -0.048840 0.814000 11240073
0.179300 -0.044243 0.815000 11172480
0.180180 -0.039780 0.819000 10450550
0.181060 -0.035271 0.823000 10123395
0.179743 -0.076371 0.810000 16711422
0.179299 -0.071566 0.808000 11300471
0.178855 -0.066783 0.806000 11703443
0.178855 -0.062177 0.806000 11702414
0.179743 -0.057857 0.810000 11437197
0.180630 -0.053491 0.814000 11110798
0.180630 -0.048840 0.814000 11109777
0.181296 -0.044351 0.817000 11172737
0.182184 -0.039877 0.821000 10777463
0.183071 -0.035357 0.825000 11045522
0.181286 -0.076371 0.810000 16709618
0.180838 -0.071566 0.808000 10766457
0.180838 -0.066949 0.808000 11703442
0.180838 -0.062331 0.808000 11570574
0.181733 -0.058000 0.812000 11176331
0.182405 -0.053557 0.815000 10518155
0.182405 -0.048900 0.815000 10977929
0.183300 -0.044460 0.819000 11174287
0.184195 -0.039974 0.823000 11106172
0.185090 -0.035443 0.827000 11965813
0.182377 -0.076183 0.808000 16574438
0.182377 -0.071566 0.808000 10317946
0.182377 -0.066949 0.808000 11637905
0.183280 -0.062640 0.812000 11175310
0.183731 -0.058143 0.814000 11047561
0.184409 -0.053689 0.817000 10518920
0.184409 -0.049020 0.817000 10451586
0.184860 -0.044460 0.819000 11372957
0.186214 -0.040071 0.825000 11173505
0.186666 -0.035443 0.827000 10387032
0.183916 -0.076183 0.808000 16376305
0.184371 -0.071743 0.810000 9865125
0.184371 -0.067114 0.810000 11505290
0.184827 -0.062640 0.812000 10781070
0.185510 -0.058214 0.815000 10847881
0.186420 -0.053820 0.819000 10519686
0.185965 -0.049020 0.817000 9862790
0.186875 -0.044569 0.821000 11569045
0.187330 -0.039974 0.823000 11173245
0.188241 -0.035443 0.827000 8811844
0.185914 -0.071743 0.810000 11839696
0.185914 -0.067114 0.810000 11043972
0.186832 -0.062794 0.814000 10387341
0.187521 -0.058357 0.817000 10518666
0.187980 -0.053820 0.819000 10848899
0.187980 -0.049140 0.819000 10519434
0.188439 -0.044569 0.821000 11371916
0.189816 -0.040169 0.827000 10117754
0.190275 -0.035529 0.829000 9195311
0.187457 -0.071743 0.810000 13819367
0.187920 -0.067280 0.812000 10520493
0.188383 -0.062794 0.814000 9992832
0.189077 -0.058357 0.817000 10190980
0.189540 -0.053820 0.819000 11243656
0.190003 -0.049260 0.821000 11112075
0.190929 -0.044786 0.825000 11175304
0.191391 -0.040169 0.827000 9070721
0.191854 -0.035529 0.829000 9584269
0.189000 -0.071743 0.810000 15267582
0.189467 -0.067280 0.812000 12819927
0.189933 -0.062794 0.814000 9860723
0.190633 -0.058357 0.817000 10190462
0.191100 -0.053820 0.819000 10978445
0.192033 -0.049380 0.823000 11376269
0.192967 -0.044894 0.827000 10914179
0.192967 -0.040169 0.827000 11295624
0.193433 -0.035529 0.829000 13154538
0.190543 -0.071743 0.810000 16711422
0.191013 -0.067280 0.812000 15128298
0.191719 -0.062871 0.815000 9729719
0.192660 -0.058500 0.819000 10122118
0.193130 -0.053951 0.821000 10780812
0.193601 -0.049380 0.823000 11636355
0.194542 -0.044894 0.827000 10649736
0.195012 -0.040266 0.829000 13480128
0.195012 -0.035529 0.829000 16711412
0.192086 -0.071743 0.810000 16711422
0.192560 -0.067280 0.812000 15924990
0.193271 -0.062871 0.815000 12367611
0.194220 -0.058500 0.819000 9594767
0.195169 -0.054083 0.823000 10781834
0.196117 -0.049620 0.827000 10979706
0.196117 -0.044894 0.827000 12489357
0.196591 -0.040266 0.829000 15138552
0.194107 -0.067280 0.812000 16711422
0.195302 -0.063026 0.817000 15073021
0.196258 -0.058643 0.821000 9080769
0.196736 -0.054083 0.823000 10781563
0.197692 -0.049620 0.827000 10259104
0.198170 -0.045003 0.829000 14406598
0.198170 -0.040266 0.829000 16711419
0.196858 -0.063026 0.817000 15859454
0.197822 -0.058643 0.821000 12893172
0.198786 -0.054214 0.825000 11368044
0.199268 -0.049620 0.827000 13478855
0.199750 -0.045003 0.829000 15528958
0.199386 -0.058643 0.821000 16640505
0.200843 -0.054346 0.827000 11969717
0.201329 -0.049740 0.829000 16704226
0.202418 -0.054346 0.827000 14346494
0.202908 -0.049740 0.829000 16711422
0.078260 -0.093740 0.903000 14863539
0.078433 -0.088776 0.905000 10978197
0.079803 -0.098681 0.901000 12953520
0.079980 -0.093740 0.903000 11370386
0.080157 -0.088776 0.905000 9527155
0.081519 -0.098681 0.901000 10516586
0.081519 -0.093532 0.901000 7881848
0.081700 -0.088580 0.903000 8025729
0.081248 -0.082958 0.898000 7957581
0.083235 -0.103830 0.901000 9922134
0.082958 -0.098352 0.898000 10122532
0.082773 -0.093013 0.896000 8747358
0.082958 -0.088090 0.898000 7635599
0.082958 -0.082958 0.898000 8615249
0.082958 -0.077827 0.898000 11435626
0.084669 -0.113747 0.898000 14403495
0.084669 -0.108615 0.898000 9592441
0.084669 -0.103484 0.898000 5588587
0.084480 -0.098133 0.896000 9732171
0.084480 -0.093013 0.896000 9604722
0.084480 -0.087893 0.896000 7176073
0.084480 -0.082773 0.896000 9272905
0.084669 -0.077827 0.898000 8288086
0.086379 -0.113747 0.898000 9457529
0.086379 -0.108615 0.898000 8739390
0.086379 -0.103484 0.898000 6975360
0.086187 -0.098133 0.896000 9668722
0.085994 -0.092806 0.894000 9140101
0.085994 -0.087697 0.894000 7568259
0.086187 -0.082773 0.896000 9467200
0.086379 -0.077827 0.898000 9201731
0.087893 -0.113493 0.896000 4587884
0.087893 -0.108373 0.896000 7894342
0.087697 -0.103023 0.894000 8357500
0.087697 -0.097914 0.894000 9538138
0.087697 -0.092806 0.894000 8609867
0.087697 -0.087697 0.894000 7961949
0.087893 -0.082773 0.896000 9660738
0.088384 -0.078087 0.901000 10056272
0.089600 -0.113493 0.896000 7100767
0.089400 -0.108131 0.894000 9142862
0.089400 -0.103023 0.894000 9537400
0.089400 -0.097914 0.894000 9341762
0.089100 -0.092494 0.891000 8277521
0.089100 -0.087403 0.891000 9601079
0.089100 -0.082311 0.891000 9332035
0.090100 -0.078087 0.901000 10123869
0.090797 -0.117951 0.891000 13602469
0.090797 -0.112860 0.891000 9672297
0.090797 -0.107769 0.891000 10387260
0.090593 -0.102447 0.889000 10780763
0.090593 -0.097367 0.889000 9142083
0.090593 -0.092287 0.889000 7941186
0.090593 -0.087207 0.889000 11172906
0.090797 -0.082311 0.891000 9067810
0.090797 -0.077220 0.891000 10114875
0.090593 -0.071967 0.889000 8872801
0.092806 -0.118349 0.894000 14186389
0.092806 -0.113240 0.894000 10195058
0.092287 -0.107527 0.889000 10386474
0.092079 -0.102216 0.887000 11108926
0.092079 -0.097148 0.887000 9334085
0.092079 -0.092079 0.887000 7359091
0.092079 -0.087010 0.887000 11499294
0.092287 -0.082127 0.889000 8013825
0.092287 -0.077047 0.889000 8192281
0.092287 -0.071967 0.889000 8678008
0.094509 -0.118349 0.894000 14779540
0.094509 -0.113240 0.894000 10723233
0.093980 -0.107527 0.889000 10312997
0.093769 -0.102216 0.887000 11436593
0.093769 -0.097148 0.887000 9463875
0.093451 -0.091768 0.884000 6841671
0.093451 -0.086716 0.884000 11817780
0.093769 -0.081942 0.887000 6909767
0.093769 -0.076873 0.887000 6309980
0.093451 -0.071562 0.884000 8483456
0.096211 -0.118349 0.894000 15038612
0.095889 -0.112860 0.891000 11973584
0.095458 -0.107285 0.887000 8074528
0.095135 -0.101870 0.884000 10579492
0.095135 -0.096819 0.884000 9785922
0.095135 -0.091768 0.884000 6568730
0.095135 -0.086716 0.884000 9451338
0.095135 -0.081665 0.884000 7042445
0.095135 -0.076613 0.884000 7044254
0.095135 -0.071562 0.884000 8022664
0.097914 -0.118349 0.894000 15244717
0.097586 -0.112860 0.891000 13220839
0.096819 -0.106922 0.884000 5788748
0.096819 -0.101870 0.884000 9721881
0.096819 -0.096819 0.884000 10109529
0.096819 -0.091768 0.884000 6311521
0.096600 -0.086520 0.882000 7101561
0.096819 -0.081665 0.884000 7111580
0.096600 -0.076440 0.882000 7699870
0.096600 -0.071400 0.882000 7563140
0.099283 -0.117951 0.891000 15458502
0.098837 -0.112353 0.887000 14010366
0.098503 -0.106922 0.884000 4934263
0.098280 -0.101640 0.882000 8008718
0.098280 -0.096600 0.882000 8143728
0.098280 -0.091560 0.882000 6845096
0.098057 -0.086324 0.880000 7242152
0.098280 -0.081480 0.882000 7504811
0.098280 -0.076440 0.882000 8027550
0.098057 -0.071238 0.880000 8615552
0.101547 -0.123733 0.896000 14718886
0.100980 -0.117951 0.891000 15577039
0.100527 -0.112353 0.887000 14810622
0.099960 -0.106680 0.882000 4089763
0.099960 -0.101640 0.882000 6307678
0.099960 -0.096600 0.882000 6187148
0.099733 -0.091352 0.880000 7308197
0.099960 -0.086520 0.882000 7307944
0.099733 -0.081295 0.880000 7898026
0.099733 -0.076267 0.880000 8291233
0.099507 -0.071076 0.878000 9733261
0.099507 -0.066059 0.878000 6707043
0.103253 -0.123733 0.896000 14780559
0.102677 -0.117951 0.891000 15051480
0.101870 -0.111973 0.884000 15595006
0.101640 -0.106680 0.882000 6916814
0.101179 -0.101179 0.878000 6645934
0.101179 -0.096162 0.878000 6586791
0.101179 -0.091145 0.878000 8160930
0.101410 -0.086324 0.880000 8290984
0.100833 -0.080833 0.875000 8226217
0.100833 -0.075833 0.875000 8488868
0.100833 -0.070833 0.875000 9403034
0.100833 -0.065833 0.875000 7362660
0.105194 -0.124010 0.898000 14904734
0.104374 -0.117951 0.891000 14467047
0.103554 -0.111973 0.884000 16443897
0.103086 -0.106438 0.880000 9678557
0.102500 -0.100833 0.875000 6914727
0.102500 -0.095833 0.875000 6980008
0.102500 -0.090833 0.875000 9011875
0.102500 -0.085833 0.875000 9210276
0.102500 -0.080833 0.875000 8554158
0.102266 -0.075660 0.873000 8681079
0.102266 -0.070671 0.873000 9072503
0.102500 -0.065833 0.875000 8018529
0.106905 -0.124010 0.898000 15177644
0.106071 -0.117951 0.891000 15450102
0.105238 -0.111973 0.884000 16114676
0.104524 -0.106196 0.878000 12504300
0.104167 -0.100833 0.875000 6717087
0.103929 -0.095614 0.873000 7438761
0.104167 -0.090833 0.875000 8683172
0.104167 -0.085833 0.875000 9145761
0.103929 -0.080649 0.873000 8816562
0.103690 -0.075487 0.871000 8938058
0.103690 -0.070510 0.871000 9399891
0.104167 -0.065833 0.875000 7754846
0.103929 -0.060694 0.873000 6770258
0.108615 -0.124010 0.898000 15432123
0.107769 -0.117951 0.891000 16378870
0.106922 -0.111973 0.884000 15784942
0.106196 -0.106196 0.878000 15326451
0.105591 -0.100603 0.873000 6518431
0.105591 -0.095614 0.873000 7832235
0.105591 -0.090626 0.873000 8289447
0.105591 -0.085637 0.873000 9077401
0.105350 -0.080464 0.871000 9144971
0.105108 -0.075313 0.869000 9134430
0.105350 -0.070510 0.871000 9795450
0.105591 -0.065683 0.873000 7491151
0.105591 -0.060694 0.873000 6967375
0.110080 -0.123733 0.896000 15182282
0.109220 -0.117687 0.889000 16383478
0.108360 -0.111720 0.882000 15453928
0.107869 -0.106196 0.878000 16056059
0.107009 -0.100372 0.871000 8094879
0.107009 -0.095395 0.871000 8225964
0.107009 -0.090418 0.871000 8685994
0.107009 -0.085441 0.871000 9336977
0.106763 -0.080279 0.869000 9466979
0.106517 -0.075140 0.867000 9334641
0.106763 -0.070348 0.869000 8944800
0.107009 -0.065532 0.871000 6433601
0.107254 -0.060694 0.873000 6836556
0.111787 -0.123733 0.896000 14860516
0.110913 -0.117687 0.889000 16311794
0.110040 -0.111720 0.882000 15125999
0.109167 -0.105833 0.875000 16710395
0.108418 -0.100142 0.869000 9733327
0.108418 -0.095176 0.869000 8618397
0.108418 -0.090210 0.869000 9080471
0.108169 -0.085049 0.867000 9598324
0.108169 -0.080094 0.867000 9793135
0.108169 -0.075140 0.867000 9535368
0.108169 -0.070186 0.867000 8097909
0.108169 -0.065231 0.867000 5382462
0.108169 -0.060277 0.867000 6770762
0.113493 -0.123733 0.896000 15322621
0.112607 -0.117687 0.889000 16247791
0.111720 -0.111720 0.882000 15523829
0.110833 -0.105833 0.875000 16711164
0.109820 -0.099911 0.867000 11186686
0.109820 -0.094957 0.867000 8878989
0.109820 -0.090003 0.867000 9273220
0.109567 -0.084852 0.865000 9464918
0.109567 -0.079910 0.865000 9729659
0.109567 -0.074967 0.865000 9540254
0.109567 -0.070024 0.865000 7752009
0.109820 -0.065231 0.867000 4659003
0.109820 -0.060277 0.867000 6244424
0.114943 -0.123457 0.894000 15725054
0.114300 -0.117687 0.889000 16180722
0.113400 -0.111720 0.882000 15984370
0.112500 -0.105833 0.875000 16709114
0.111471 -0.099911 0.867000 12634622
0.111214 -0.094738 0.865000 9073557
0.111214 -0.089795 0.865000 9468023
0.111214 -0.084852 0.865000 9335411
0.111214 -0.079910 0.865000 9599877
0.111214 -0.074967 0.865000 9530735
0.111214 -0.070024 0.865000 7471442
0.111214 -0.065081 0.865000 3875387
0.111214 -0.060138 0.865000 5719634
0.110314 -0.054749 0.858000 6045002
0.116646 -0.123457 0.894000 15919614
0.115993 -0.117687 0.889000 16115957
0.115080 -0.111720 0.882000 15850990
0.114167 -0.105833 0.875000 16575993
0.113123 -0.099911 0.867000 13420798
0.112470 -0.094410 0.862000 8876700
0.112210 -0.089276 0.860000 9464938
0.112210 -0.084362 0.860000 9273487
0.111949 -0.079263 0.858000 9399438
0.112210 -0.074533 0.860000 9317440
0.112210 -0.069619 0.860000 7215450
0.111949 -0.064554 0.858000 4005436
0.111949 -0.059651 0.858000 6242651
0.111949 -0.054749 0.858000 6239814
0.117951 -0.123043 0.891000 16112875
0.117422 -0.117422 0.887000 15981556
0.116495 -0.111467 0.880000 15784944
0.115304 -0.105350 0.871000 16381434
0.114510 -0.099681 0.865000 14266834
0.113848 -0.094190 0.860000 8617900
0.113583 -0.089069 0.858000 9463172
0.113583 -0.084166 0.858000 9132142
0.113583 -0.079263 0.858000 9260637
0.113583 -0.074360 0.858000 9116223
0.113583 -0.069457 0.858000 7020112
0.113318 -0.064404 0.856000 4075088
0.113318 -0.059512 0.856000 6828895
0.113318 -0.054621 0.856000 6441810
0.113318 -0.049730 0.856000 6569532
0.119380 -0.122767 0.889000 15914199
0.118709 -0.117025 0.884000 15913972
0.118171 -0.111467 0.880000 15918577
0.116963 -0.105350 0.871000 16121595
0.116157 -0.099681 0.865000 14130854
0.115486 -0.094190 0.860000 8944827
0.115217 -0.089069 0.858000 8548765
0.114949 -0.083970 0.856000 8586060
0.114949 -0.079078 0.856000 9117996
0.114949 -0.074187 0.856000 9116223
0.114949 -0.069295 0.856000 7686213
0.114949 -0.064404 0.856000 5659748
0.114680 -0.059373 0.854000 6439266
0.114949 -0.054621 0.856000 8085087
0.114949 -0.049730 0.856000 6635069
0.121754 -0.123457 0.894000 15710950
0.120801 -0.117422 0.887000 15784434
0.119575 -0.111213 0.878000 16050934
0.118622 -0.105350 0.871000 15844833
0.117805 -0.099681 0.865000 13991063
0.116851 -0.093971 0.858000 9283025
0.116579 -0.088861 0.856000 7569559
0.116579 -0.083970 0.856000 8063050
0.116579 -0.079078 0.856000 8983587
0.116579 -0.074187 0.856000 9057871
0.116307 -0.069133 0.854000 8356200
0.116307 -0.064253 0.854000 7234679
0.116307 -0.059373 0.854000 6115441
0.116307 -0.054493 0.854000 9665917
0.116579 -0.049730 0.856000 6766916
0.123043 -0.123043 0.891000 15652341
0.122490 -0.117422 0.887000 15655921
0.121524 -0.111467 0.880000 16249339
0.120281 -0.105350 0.871000 14461383
0.119452 -0.099681 0.865000 14256264
0.118486 -0.093971 0.858000 12305894
0.117933 -0.088653 0.854000 8222608
0.117933 -0.083773 0.854000 8523080
0.117933 -0.078893 0.854000 8918554
0.117933 -0.074013 0.854000 8940384
0.117657 -0.068971 0.852000 7895435
0.117657 -0.064103 0.852000 8741258
0.117657 -0.059234 0.852000 8549247
0.117657 -0.054366 0.852000 10855323
0.118486 -0.049846 0.858000 6702923
0.124740 -0.123043 0.891000 15659512
0.124180 -0.117422 0.887000 15521008
0.123200 -0.111467 0.880000 16449277
0.121940 -0.105350 0.871000 13076404
0.121100 -0.099681 0.865000 14580606
0.120120 -0.093971 0.858000 15325930
0.119280 -0.088446 0.852000 8817301
0.119280 -0.083577 0.852000 8932979
0.119280 -0.078709 0.852000 8854059
0.119560 -0.074013 0.854000 8808805
0.119280 -0.068971 0.852000 7433871
0.119280 -0.064103 0.852000 10189963
0.119000 -0.059095 0.850000 11042959
0.119280 -0.054366 0.852000 12031893
0.119560 -0.049613 0.854000 6699113
0.126437 -0.123043 0.891000 15590651
0.125444 -0.117025 0.884000 15581679
0.124876 -0.111467 0.880000 15923966
0.123315 -0.105108 0.869000 12543393
0.122748 -0.099681 0.865000 12805236
0.121470 -0.093752 0.856000 16056045
0.120903 -0.088446 0.852000 9474714
0.120903 -0.083577 0.852000 8949150
0.120903 -0.078709 0.852000 8535612
0.120903 -0.073840 0.852000 7364203
0.120619 -0.068810 0.850000 8289939
0.120619 -0.063952 0.850000 10257036
0.120619 -0.059095 0.850000 10783903
0.120619 -0.054238 0.850000 11175566
0.120903 -0.049497 0.852000 7626631
0.127559 -0.122490 0.887000 15590886
0.127128 -0.117025 0.884000 15655667
0.126552 -0.111467 0.880000 15465978
0.124970 -0.105108 0.869000 12016269
0.124395 -0.099681 0.865000 11093631
0.123101 -0.093752 0.856000 16708571
0.122238 -0.088238 0.850000 10062783
0.122238 -0.083381 0.850000 8941708
0.122238 -0.078524 0.850000 8213341
0.122238 -0.073667 0.850000 5858942
0.122238 -0.068810 0.850000 9148060
0.122238 -0.063952 0.850000 10258583
0.121950 -0.058956 0.848000 10587290
0.121519 -0.053919 0.845000 10324638
0.121519 -0.049090 0.845000 8554350
0.121950 -0.044419 0.848000 5390928
0.129249 -0.122490 0.887000 15520977
0.128520 -0.116760 0.882000 16117240
0.127937 -0.111213 0.878000 14992118
0.126626 -0.105108 0.869000 10772856
0.126043 -0.099681 0.865000 11495049
0.124731 -0.093752 0.856000 16645577
0.123566 -0.088030 0.848000 10987492
0.123129 -0.082890 0.845000 6768505
0.123566 -0.078339 0.848000 7100542
0.123129 -0.073233 0.845000 7764114
0.123566 -0.068648 0.848000 10066596
0.123129 -0.063576 0.845000 10456483
0.123129 -0.058748 0.845000 11313301
0.122837 -0.053791 0.843000 11447981
0.122837 -0.048974 0.843000 8550740
0.123566 -0.044419 0.848000 6114914
0.130200 -0.116760 0.882000 16511736
0.129610 -0.111213 0.878000 14457540
0.128281 -0.105108 0.869000 9529722
0.127690 -0.099681 0.865000 11896474
0.125181 -0.092876 0.848000 16572637
0.124443 -0.087511 0.843000 11978225
0.124148 -0.082498 0.841000 4542346
0.124148 -0.077692 0.841000 5987976
0.124148 -0.072887 0.841000 9665936
0.124148 -0.068081 0.841000 10983586
0.124148 -0.063275 0.841000 10586783
0.123852 -0.058330 0.839000 12103814
0.123852 -0.053536 0.839000 12491911
0.123852 -0.048742 0.839000 8608102
0.124443 -0.044157 0.843000 6770256
0.131581 -0.116495 0.880000 16645880
0.130833 -0.110833 0.875000 12939154
0.129637 -0.104866 0.867000 10975869
0.128291 -0.098874 0.858000 12488363
0.126796 -0.092876 0.848000 16308209
0.126049 -0.087511 0.843000 13030909
0.125750 -0.082498 0.841000 5854875
0.125750 -0.077692 0.841000 7764370
0.125450 -0.072713 0.839000 9536141
0.125450 -0.067919 0.839000 10589856
0.125450 -0.063125 0.839000 9992859
0.125450 -0.058330 0.839000 10453367
0.125450 -0.053536 0.839000 10123617
0.125450 -0.048742 0.839000 8015992
0.125750 -0.044052 0.841000 6836286
0.133257 -0.116495 0.880000 16705764
0.132500 -0.110833 0.875000 11469182
0.131289 -0.104866 0.867000 12352886
0.129926 -0.098874 0.858000 13014190
0.128411 -0.092876 0.848000 16048884
0.127654 -0.087511 0.843000 14088958
0.127049 -0.082302 0.839000 7173293
