# .PCD v.7 - Point Cloud Data file format
VERSION .7
FIELDS x y z rgb
SIZE 4 4 4 4
TYPE F F F I
COUNT 1 1 1 1
WIDTH 1333
HEIGHT 1
POINTS 1333
DATA ascii
-0.032355 0.047007 0.641000 11641750
-0.032406 0.050749 0.642000 12039342
-0.032507 0.054587 0.644000 9605046
-0.032507 0.058267 0.644000 5603005
-0.032557 0.062043 0.645000 1797576
-0.032557 0.065729 0.645000 6058419
-0.032557 0.069414 0.645000 12565957
-0.032557 0.073100 0.645000 12304576
-0.032557 0.076786 0.645000 9144204
-0.032557 0.080471 0.645000 9790564
-0.031134 0.043344 0.641000 9602390
-0.031134 0.047007 0.641000 10590324
-0.031183 0.050749 0.642000 9868421
-0.031183 0.054417 0.642000 6182056
-0.031183 0.058086 0.642000 6588866
-0.031280 0.061947 0.644000 6927318
-0.031280 0.065627 0.644000 7439281
-0.031280 0.069307 0.644000 12961998
-0.031280 0.072987 0.644000 12500949
-0.031280 0.076667 0.644000 10193561
-0.031280 0.080347 0.644000 9659751
-0.030100 0.039929 0.645000 15260107
-0.029913 0.043344 0.641000 7500651
-0.029867 0.046933 0.640000 9532735
-0.029913 0.050670 0.641000 7640705
-0.029913 0.054332 0.641000 2780330
-0.029960 0.058086 0.642000 7571124
-0.029960 0.061754 0.642000 12031671
-0.030053 0.065627 0.644000 8814758
-0.029960 0.069091 0.642000 13284013
-0.030053 0.072987 0.644000 12697265
-0.030053 0.076667 0.644000 11182766
-0.030053 0.080347 0.644000 9530983
-0.028871 0.039929 0.645000 15133412
-0.028692 0.043344 0.641000 8622463
-0.028648 0.046933 0.640000 6703114
-0.028648 0.050590 0.640000 7440765
-0.028648 0.054248 0.640000 5537197
-0.028692 0.057995 0.641000 8948389
-0.028692 0.061658 0.641000 11632793
-0.028737 0.065423 0.642000 9535643
-0.028737 0.069091 0.642000 11903372
-0.028737 0.072760 0.642000 11643021
-0.028737 0.076429 0.642000 12239043
-0.028737 0.080097 0.642000 9333862
-0.028071 0.033062 0.655000 13081518
-0.027857 0.036524 0.650000 12892559
-0.027686 0.039990 0.646000 14999501
-0.027471 0.043344 0.641000 9679518
-0.027429 0.046933 0.640000 3887918
-0.027386 0.050511 0.639000 7305535
-0.027386 0.054163 0.639000 8222619
-0.027429 0.057905 0.640000 10327459
-0.027471 0.061658 0.641000 11174561
-0.027471 0.065321 0.641000 10261405
-0.027514 0.069091 0.642000 10455177
-0.027471 0.072647 0.641000 10653263
-0.027471 0.076310 0.641000 13284755
-0.027471 0.079972 0.641000 9069940
-0.026824 0.033062 0.655000 12025262
-0.026619 0.036524 0.650000 13616001
-0.026455 0.039990 0.646000 14930870
-0.026250 0.043344 0.641000 11451325
-0.026169 0.046860 0.639000 5921875
-0.026169 0.050511 0.639000 5858305
-0.026169 0.054163 0.639000 6972297
-0.026169 0.057814 0.639000 9210273
-0.026210 0.061562 0.640000 10780586
-0.026250 0.065321 0.641000 9993886
-0.026250 0.068984 0.641000 8614535
-0.026250 0.072647 0.641000 10259473
-0.026250 0.076310 0.641000 12366435
-0.026210 0.079848 0.640000 9467265
-0.026210 0.083505 0.640000 8608599
-0.025576 0.033062 0.655000 10922411
-0.025381 0.036524 0.650000 14338918
-0.025186 0.039929 0.645000 14801851
-0.024990 0.043276 0.640000 13290167
-0.024951 0.046860 0.639000 7901572
-0.024912 0.050432 0.638000 4415566
-0.024912 0.054078 0.638000 5729928
-0.024951 0.057814 0.639000 8027306
-0.024951 0.061466 0.639000 10391735
-0.024990 0.065219 0.640000 9737642
-0.024990 0.068876 0.640000 6713504
-0.024990 0.072533 0.640000 9800992
-0.024990 0.076190 0.640000 11445591
-0.024990 0.079848 0.640000 9928571
-0.024990 0.083505 0.640000 8674382
-0.024329 0.033062 0.655000 12177064
-0.024143 0.036524 0.650000 13878090
-0.023957 0.039929 0.645000 15262401
-0.023771 0.043276 0.640000 13487792
-0.023697 0.046787 0.638000 9814198
-0.023623 0.050274 0.636000 7438747
-0.023623 0.053909 0.636000 5987463
-0.023697 0.057724 0.638000 6453682
-0.023734 0.061466 0.639000 10203589
-0.023734 0.065117 0.639000 7631798
-0.023771 0.068876 0.640000 8617914
-0.023771 0.072533 0.640000 9735726
-0.023771 0.076190 0.640000 11311948
-0.023734 0.079723 0.639000 9667189
-0.023734 0.083374 0.639000 8412997
-0.023010 0.032961 0.653000 13351074
-0.022834 0.036411 0.648000 13419137
-0.022693 0.039867 0.644000 15723231
-0.022482 0.043141 0.638000 13750202
-0.022341 0.046493 0.634000 11641717
-0.022341 0.050116 0.634000 10529452
-0.022341 0.053739 0.634000 6261669
-0.022341 0.057362 0.634000 4880295
-0.022411 0.061177 0.636000 9996962
-0.022411 0.064811 0.636000 5531070
-0.022411 0.068446 0.636000 10527677
-0.022411 0.072080 0.636000 9669453
-0.022482 0.075952 0.638000 11115119
-0.022482 0.079598 0.638000 9409445
-0.022482 0.083244 0.638000 8084555
-0.021767 0.032961 0.653000 11905181
-0.021567 0.036355 0.647000 13619895
-0.021467 0.039867 0.644000 15659773
-0.021267 0.043141 0.638000 13749443
-0.021133 0.046493 0.634000 11829045
-0.021100 0.050037 0.633000 11053500
-0.021100 0.053654 0.633000 9355203
-0.021133 0.057362 0.634000 5466779
-0.021167 0.061081 0.635000 9462144
-0.021167 0.064710 0.635000 8888261
-0.021200 0.068446 0.636000 10534080
-0.021200 0.072080 0.636000 10260331
-0.021200 0.075714 0.636000 11051410
-0.021200 0.079349 0.636000 10592724
-0.021200 0.082983 0.636000 7952978
-0.020649 0.029409 0.657000 12493250
-0.020523 0.032961 0.653000 10402485
-0.020334 0.036355 0.647000 13886393
-0.020177 0.039743 0.642000 15523808
-0.020051 0.043141 0.638000 13749654
-0.019926 0.046493 0.634000 12033347
-0.019894 0.050037 0.633000 11575429
-0.019894 0.053654 0.633000 12430517
-0.019926 0.057362 0.634000 5996390
-0.019957 0.061081 0.635000 8946791
-0.019957 0.064710 0.635000 12301677
-0.019926 0.068230 0.634000 10451857
-0.019957 0.071967 0.635000 10853216
-0.019926 0.075476 0.634000 10984069
-0.019989 0.079349 0.636000 11715756
-0.019989 0.082983 0.636000 7758694
-0.019397 0.029409 0.657000 13356519
-0.019279 0.032961 0.653000 12437197
-0.019102 0.036355 0.647000 13815995
-0.018954 0.039743 0.642000 13809604
-0.018836 0.043141 0.638000 12827240
-0.018689 0.046420 0.633000 12893266
-0.018659 0.049958 0.632000 11309646
-0.018659 0.053570 0.632000 11184808
-0.018689 0.057271 0.633000 8490033
-0.018718 0.060985 0.634000 10197582
-0.018718 0.064608 0.634000 12100372
-0.018718 0.068230 0.634000 8461155
-0.018718 0.071853 0.634000 11115605
-0.018689 0.075357 0.633000 8814200
-0.018718 0.079099 0.634000 11773316
-0.018748 0.082852 0.635000 7691641
-0.018146 0.029409 0.657000 14214832
-0.018035 0.032961 0.653000 14406337
-0.017842 0.036299 0.646000 13749855
-0.017731 0.039743 0.642000 12107955
-0.017621 0.043141 0.638000 11971173
-0.017483 0.046420 0.633000 13674061
-0.017428 0.049879 0.631000 11108165
-0.017455 0.053570 0.632000 9929110
-0.017483 0.057271 0.633000 11050787
-0.017510 0.060985 0.634000 11434044
-0.017510 0.064608 0.634000 11899181
-0.017510 0.068230 0.634000 6506845
-0.017483 0.071740 0.633000 11317830
-0.017483 0.075357 0.633000 6584388
-0.017483 0.078974 0.633000 11834712
-0.017510 0.082722 0.634000 7564675
-0.016894 0.029409 0.657000 12301689
-0.016791 0.032961 0.653000 15000245
-0.016611 0.036299 0.646000 13683715
-0.016509 0.039743 0.642000 13028003
-0.016354 0.043006 0.636000 11904610
-0.016277 0.046420 0.633000 13410888
-0.016226 0.049879 0.631000 11044411
-0.016226 0.053485 0.631000 8618884
-0.016251 0.057181 0.632000 10848788
-0.016303 0.060985 0.634000 5774378
-0.016303 0.064608 0.634000 12032581
-0.016303 0.068230 0.634000 7297879
-0.016277 0.071740 0.633000 10784822
-0.016251 0.075238 0.632000 6977807
-0.016277 0.078974 0.633000 12033067
-0.016303 0.082722 0.634000 8747916
-0.015643 0.029409 0.657000 10398843
-0.015548 0.032961 0.653000 15521953
-0.015381 0.036299 0.646000 13680440
-0.015286 0.039743 0.642000 13940353
-0.015190 0.043141 0.638000 11910248
-0.015071 0.046420 0.633000 13146717
-0.014976 0.049721 0.629000 11044657
-0.014976 0.053315 0.629000 7298130
-0.015048 0.057181 0.632000 10657316
-0.015071 0.060889 0.633000 76845
-0.015071 0.064506 0.633000 12230710
-0.015071 0.068123 0.633000 8089453
-0.015048 0.071627 0.632000 10262556
-0.015048 0.075238 0.632000 7373856
-0.015071 0.078974 0.633000 12294683
-0.015071 0.082591 0.633000 9932446
-0.014370 0.029364 0.656000 11582588
-0.014304 0.032961 0.653000 15522446
-0.014172 0.036355 0.647000 12563820
-0.014041 0.039681 0.641000 11963232
-0.013975 0.043141 0.638000 12433773
-0.013866 0.046420 0.633000 13410418
-0.013778 0.049721 0.629000 11701031
-0.013778 0.053315 0.629000 7688993
-0.013822 0.057090 0.631000 10715955
-0.013866 0.060889 0.633000 1311024
-0.013866 0.064506 0.633000 11637030
-0.013844 0.068015 0.632000 8759171
-0.013822 0.071513 0.631000 9327617
-0.013844 0.075238 0.632000 9933873
-0.013844 0.078850 0.632000 12097546
-0.013844 0.082461 0.632000 11250864
-0.013120 0.029364 0.656000 12766322
-0.013060 0.032961 0.653000 15521678
-0.012920 0.036299 0.646000 11382122
-0.012820 0.039681 0.641000 9930835
-0.012760 0.043141 0.638000 12896111
-0.012680 0.046493 0.634000 13672803
-0.012580 0.049721 0.629000 12421667
-0.012560 0.053230 0.628000 8015141
-0.012560 0.056819 0.628000 10716442
-0.012640 0.060792 0.632000 2566686
-0.012640 0.064404 0.632000 11049518
-0.012640 0.068015 0.632000 9404235
-0.012580 0.071287 0.629000 8461063
-0.012580 0.074881 0.629000 12488760
-0.012620 0.078725 0.631000 11897625
-0.012620 0.082330 0.631000 12496309
-0.012620 0.085936 0.631000 6370084
-0.011870 0.029364 0.656000 11976295
-0.011816 0.032961 0.653000 14342542
-0.011690 0.036299 0.646000 11578727
-0.011617 0.039743 0.642000 9661511
-0.011545 0.043141 0.638000 12628593
-0.011472 0.046493 0.634000 13741909
-0.011382 0.049721 0.629000 9982494
-0.011346 0.053146 0.627000 8411690
-0.011346 0.056729 0.627000 8212225
-0.011382 0.060504 0.629000 5580556
-0.011382 0.064098 0.629000 10844470
-0.011418 0.067908 0.631000 8020499
-0.011382 0.071287 0.629000 8863757
-0.011382 0.074881 0.629000 12155966
-0.011418 0.078725 0.631000 11697191
-0.011382 0.082070 0.629000 13092281
-0.011418 0.085936 0.631000 6767920
-0.010605 0.029319 0.655000 11190375
-0.010572 0.032961 0.653000 13090670
-0.010475 0.036355 0.647000 11708785
-0.010394 0.039743 0.642000 9341573
-0.010330 0.043141 0.638000 12303221
-0.010265 0.046493 0.634000 13789518
-0.010184 0.049721 0.629000 7605813
-0.010135 0.053061 0.626000 8793395
-0.010135 0.056638 0.626000 5715201
-0.010184 0.060504 0.629000 8532246
-0.010184 0.064098 0.629000 10709801
-0.010184 0.067692 0.629000 6640669
-0.010184 0.071287 0.629000 9326092
-0.010184 0.074881 0.629000 11822126
-0.010184 0.078475 0.629000 11490328
-0.010184 0.082070 0.629000 13613703
-0.010184 0.085664 0.629000 7158885
-0.009357 0.029319 0.655000 10988647
-0.009314 0.032910 0.652000 14070862
-0.009243 0.036355 0.647000 12366971
-0.009171 0.039743 0.642000 11510211
-0.009129 0.043209 0.639000 11637880
-0.009057 0.046493 0.634000 12532294
-0.008986 0.049721 0.629000 7941708
-0.008929 0.052976 0.625000 8652092
-0.008929 0.056548 0.625000 5776385
-0.008971 0.060408 0.628000 8726816
-0.008971 0.063996 0.628000 9119260
-0.008986 0.067692 0.629000 6500904
-0.008971 0.071173 0.628000 9124618
-0.008986 0.074881 0.629000 9644830
-0.008986 0.078475 0.629000 10897160
-0.008986 0.082070 0.629000 13022292
-0.008986 0.085664 0.629000 7690650
-0.008085 0.029230 0.653000 10792051
-0.008072 0.032910 0.652000 14990432
-0.007998 0.036299 0.646000 13018990
-0.007949 0.039743 0.642000 13615072
-0.007899 0.043141 0.638000 10912855
-0.007837 0.046420 0.633000 11283508
-0.007775 0.049642 0.628000 8284308
-0.007738 0.052976 0.625000 8474982
-0.007738 0.056548 0.625000 5785701
-0.007775 0.060408 0.628000 8851256
-0.007775 0.063996 0.628000 7611237
-0.007775 0.067585 0.628000 6360904
-0.007775 0.071173 0.628000 8993368
-0.007775 0.074762 0.628000 7410456
-0.007775 0.078350 0.628000 10363397
-0.007775 0.081939 0.628000 12431432
-0.007775 0.085528 0.628000 8155018
-0.006841 0.029230 0.653000 10790015
-0.006830 0.032910 0.652000 14928753
-0.006757 0.036243 0.645000 13743457
-0.006726 0.039743 0.642000 14482174
-0.006684 0.043141 0.638000 11031349
-0.006642 0.046493 0.634000 8585506
-0.006579 0.049642 0.628000 10591708
-0.006537 0.052891 0.624000 9542799
-0.006537 0.056457 0.624000 8685000
-0.006569 0.060311 0.627000 8061264
-0.006569 0.063894 0.627000 9596589
-0.006579 0.067585 0.628000 6291816
-0.006569 0.071060 0.627000 8936869
-0.006569 0.074643 0.627000 6226194
-0.006569 0.078226 0.627000 9712385
-0.006569 0.081809 0.627000 11905340
-0.006579 0.085528 0.628000 8814713
-0.005597 0.029230 0.653000 10856383
-0.005589 0.032910 0.652000 14859122
-0.005537 0.036299 0.646000 14399332
-0.005503 0.039743 0.642000 15317175
-0.005451 0.043006 0.636000 11155510
-0.005426 0.046420 0.633000 5859706
-0.005357 0.049405 0.625000 12826826
-0.005349 0.052891 0.624000 10511725
-0.005340 0.056367 0.623000 11648453
-0.005366 0.060215 0.626000 7237742
-0.005366 0.063792 0.626000 11582650
-0.005374 0.067477 0.627000 6191258
-0.005374 0.071060 0.627000 8959420
-0.005374 0.074643 0.627000 5056614
-0.005366 0.078101 0.626000 9125472
-0.005374 0.081809 0.627000 11377452
-0.005383 0.085528 0.628000 9544596
-0.005383 0.089116 0.628000 5256002
-0.004353 0.029230 0.653000 12305150
-0.004340 0.032860 0.651000 14134642
-0.004307 0.036299 0.646000 14330982
-0.004280 0.039743 0.642000 12158832
-0.004227 0.042870 0.634000 11747127
-0.004213 0.046347 0.632000 11325138
-0.004180 0.049563 0.627000 12226231
-0.004160 0.052891 0.624000 8784458
-0.004153 0.056367 0.623000 12104385
-0.004167 0.060119 0.625000 9741709
-0.004173 0.063792 0.626000 11909318
-0.004173 0.067370 0.626000 9550028
-0.004173 0.070947 0.626000 10925267
-0.004173 0.074524 0.626000 8747195
-0.004173 0.078101 0.626000 10783423
-0.004173 0.081678 0.626000 10715164
-0.004180 0.085391 0.627000 10199214
-0.004187 0.089116 0.628000 4987986
-0.003110 0.029230 0.653000 13691378
-0.003100 0.032860 0.651000 13344139
-0.003076 0.036299 0.646000 14330706
-0.003057 0.039743 0.642000 8996414
-0.003024 0.042938 0.635000 12394016
-0.003010 0.046347 0.632000 16707045
-0.002986 0.049563 0.627000 11706587
-0.002971 0.052891 0.624000 7016556
-0.002967 0.056367 0.623000 12562845
-0.002962 0.059830 0.622000 12232866
-0.002967 0.063487 0.623000 12299679
-0.002971 0.067154 0.624000 12891592
-0.002971 0.070720 0.624000 12891852
-0.002981 0.074524 0.626000 12431556
-0.002976 0.077976 0.625000 12374731
-0.002976 0.081548 0.625000 10067054
-0.002976 0.085119 0.625000 10922604
-0.002976 0.088690 0.625000 4667978
-0.002976 0.092262 0.625000 5911842
-0.001857 0.032810 0.650000 12288677
-0.001846 0.036299 0.646000 13005630
-0.001834 0.039743 0.642000 8913163
-0.001814 0.042938 0.635000 11226121
-0.001806 0.046347 0.632000 16710392
-0.001791 0.049563 0.627000 13750014
-0.001783 0.052891 0.624000 7078286
-0.001777 0.056276 0.622000 11441017
-0.001777 0.059830 0.622000 12036023
-0.001780 0.063487 0.623000 11969911
-0.001777 0.066939 0.622000 12562885
-0.001780 0.070607 0.623000 12694468
-0.001786 0.074405 0.625000 12763597
-0.001783 0.077851 0.624000 12831190
-0.001783 0.081417 0.624000 11515072
-0.001786 0.085119 0.625000 10590505
-0.001783 0.088549 0.624000 4734530
-0.001786 0.092262 0.625000 5519151
-0.000617 0.032709 0.648000 11242657
-0.000615 0.036299 0.646000 11671367
-0.000611 0.039743 0.642000 8801349
-0.000604 0.042870 0.634000 10120829
-0.000602 0.046347 0.632000 16641993
-0.000596 0.049484 0.626000 15787971
-0.000594 0.052891 0.624000 7166879
-0.000592 0.056276 0.622000 10391374
-0.000592 0.059830 0.622000 11840188
-0.000592 0.063385 0.622000 11705496
-0.000592 0.066939 0.622000 12235205
-0.000592 0.070493 0.622000 12430788
-0.000594 0.074286 0.624000 13022915
-0.000594 0.077851 0.624000 13222572
-0.000594 0.081417 0.624000 12889262
-0.000594 0.084983 0.624000 10264700
-0.000594 0.088549 0.624000 4741223
-0.000595 0.092262 0.625000 5126183
0.000617 0.032709 0.648000 10839198
0.000615 0.036299 0.646000 10956623
0.000611 0.039743 0.642000 11711616
0.000604 0.042870 0.634000 11643121
0.000602 0.046347 0.632000 16117403
0.000597 0.049563 0.627000 13735559
0.000594 0.052891 0.624000 8688304
0.000590 0.056095 0.620000 9396771
0.000590 0.059638 0.620000 12234946
0.000590 0.063181 0.620000 12103097
0.000590 0.066724 0.620000 12432070
0.000590 0.070267 0.620000 12629444
0.000593 0.074167 0.623000 11118009
0.000594 0.077851 0.624000 11174786
0.000593 0.081287 0.623000 11635099
0.000593 0.084847 0.623000 11711183
0.000594 0.088549 0.624000 7240333
0.000595 0.092262 0.625000 5057567
0.001851 0.032709 0.648000 10456501
0.001846 0.036299 0.646000 10249074
0.001831 0.039681 0.641000 14533311
0.001811 0.042870 0.634000 13227743
0.001806 0.046347 0.632000 15508590
0.001791 0.049563 0.627000 11665775
0.001780 0.052807 0.623000 10124993
0.001771 0.056095 0.620000 8473637
0.001769 0.059542 0.619000 12563124
0.001771 0.063181 0.620000 12498366
0.001769 0.066616 0.619000 12629425
0.001771 0.070267 0.620000 12761774
0.001777 0.074048 0.622000 9204879
0.001780 0.077727 0.623000 9121383
0.001780 0.081287 0.623000 10385531
0.001780 0.084847 0.623000 13221324
0.001780 0.088407 0.623000 9736357
0.001783 0.092114 0.624000 5055521
0.003086 0.032709 0.648000 11646411
0.003076 0.036299 0.646000 11506325
0.003052 0.039681 0.641000 14676990
0.003019 0.042870 0.634000 11502540
0.003010 0.046347 0.632000 13342274
0.002981 0.049484 0.626000 10626646
0.002967 0.052807 0.623000 11700177
0.002952 0.056095 0.620000 9262887
0.002948 0.059542 0.619000 11579303
0.002948 0.063079 0.619000 11445954
0.002948 0.066616 0.619000 11514013
0.002948 0.070153 0.619000 11174808
0.002962 0.074048 0.622000 8925286
0.002967 0.077727 0.623000 9588812
0.002962 0.081156 0.622000 10449244
0.002962 0.084710 0.622000 12958664
0.002962 0.088265 0.622000 11317949
0.002967 0.091967 0.623000 5055523
0.004320 0.032709 0.648000 12762077
0.004307 0.036299 0.646000 12820829
0.004260 0.039557 0.639000 14791861
0.004233 0.042938 0.635000 9841792
0.004220 0.046420 0.633000 11089449
0.004173 0.049484 0.626000 9644626
0.004153 0.052807 0.623000 13219282
0.004133 0.056095 0.620000 10042228
0.004127 0.059542 0.619000 10516865
0.004120 0.062977 0.618000 10454121
0.004120 0.066509 0.618000 10314351
0.004127 0.070153 0.619000 9585538
0.004133 0.073810 0.620000 8610396
0.004147 0.077602 0.622000 10121057
0.004147 0.081156 0.622000 10516273
0.004147 0.084710 0.622000 12697274
0.004147 0.088265 0.622000 12890051
0.004160 0.092114 0.624000 5116217
0.004160 0.095680 0.624000 5716012
0.005554 0.032709 0.648000 13952240
0.005537 0.036299 0.646000 11038757
0.005477 0.039557 0.639000 12146027
0.005443 0.042938 0.635000 8394292
0.005426 0.046420 0.633000 9175313
0.005357 0.049405 0.625000 10635086
0.005340 0.052807 0.623000 13694676
0.005306 0.056005 0.619000 10118849
0.005297 0.059446 0.618000 9317724
0.005297 0.062977 0.618000 9849360
0.005297 0.066509 0.618000 9573185
0.005306 0.070153 0.619000 9856875
0.005314 0.073810 0.620000 9141330
0.005314 0.077352 0.620000 8876918
0.005331 0.081156 0.622000 9524487
0.005314 0.084438 0.620000 12101547
0.005314 0.087981 0.620000 12958921
0.005331 0.091819 0.622000 5847375
0.005349 0.095680 0.624000 5450276
0.006747 0.036187 0.644000 9266799
0.006684 0.039495 0.638000 9517152
0.006652 0.042938 0.635000 6892379
0.006621 0.046347 0.632000 7295864
0.006537 0.049326 0.624000 11644326
0.006495 0.052552 0.620000 14147531
0.006474 0.055914 0.618000 10176138
0.006453 0.059253 0.616000 8145759
0.006453 0.062773 0.616000 9335342
0.006453 0.066293 0.616000 8806733
0.006464 0.069927 0.617000 10127241
0.006464 0.073452 0.617000 9664119
0.006464 0.076978 0.617000 7699319
0.006474 0.080634 0.618000 8465942
0.006485 0.084302 0.619000 11503450
0.006485 0.087839 0.619000 12957880
0.006495 0.091524 0.620000 6573173
0.006527 0.095527 0.623000 5122848
0.007973 0.036187 0.644000 9724344
0.007899 0.039495 0.638000 8194902
0.007862 0.042938 0.635000 8995458
0.007812 0.046273 0.631000 11649759
0.007726 0.049326 0.624000 13096958
0.007664 0.052468 0.619000 13285826
0.007639 0.055824 0.617000 9915474
0.007614 0.059157 0.615000 9335906
0.007614 0.062671 0.615000 9994316
0.007614 0.066186 0.615000 9402201
0.007627 0.069813 0.616000 10522535
0.007627 0.073333 0.616000 10578076
0.007639 0.076978 0.617000 7166583
0.007651 0.080634 0.618000 4522277
0.007651 0.084166 0.618000 7481609
0.007651 0.087697 0.618000 13089448
0.007651 0.091229 0.618000 7300762
0.007701 0.095373 0.622000 4992285
0.009171 0.036074 0.642000 10179254
0.009114 0.039495 0.638000 6896004
0.009071 0.042938 0.635000 11184576
0.009014 0.046273 0.631000 15984622
0.008914 0.049326 0.624000 14536426
0.008843 0.052468 0.619000 12418987
0.008814 0.055824 0.617000 9733487
0.008786 0.059157 0.615000 10453881
0.008786 0.062671 0.615000 10585192
0.008786 0.066186 0.615000 9998461
0.008786 0.069700 0.615000 10990758
0.008800 0.073333 0.616000 11510178
0.008786 0.076729 0.615000 6642298
0.008800 0.080373 0.616000 535645
0.008814 0.084030 0.617000 3474246
0.008814 0.087555 0.617000 13220534
0.008829 0.091229 0.618000 7964079
0.008857 0.095067 0.620000 4859947
0.010394 0.036074 0.642000 10972083
0.010330 0.039495 0.638000 10718899
0.010281 0.042938 0.635000 13687294
0.010216 0.046273 0.631000 15921661
0.010103 0.049326 0.624000 13936086
0.010022 0.052468 0.619000 12610709
0.009990 0.055824 0.617000 10852235
0.009957 0.059157 0.615000 10458768
0.009941 0.062570 0.614000 11115652
0.009941 0.066078 0.614000 11517602
0.009957 0.069700 0.615000 11711140
0.009957 0.073214 0.615000 11913639
0.009957 0.076729 0.615000 7630205
0.009973 0.080373 0.616000 4481173
0.009973 0.083893 0.616000 6379395
0.009990 0.087555 0.617000 13352900
0.010006 0.091229 0.618000 9475779
0.010022 0.094913 0.619000 4268601
0.011599 0.036018 0.641000 11776473
0.011545 0.039495 0.638000 14471384
0.011490 0.042938 0.635000 16252666
0.011418 0.046273 0.631000 15790075
0.011291 0.049326 0.624000 13346278
0.011201 0.052468 0.619000 12752005
0.011147 0.055733 0.616000 11972264
0.011110 0.059061 0.614000 10459242
0.011110 0.062570 0.614000 11707219
0.011110 0.066078 0.614000 13022070
0.011129 0.069700 0.615000 12432271
0.011110 0.073095 0.614000 12229506
0.011110 0.076604 0.614000 8676966
0.011110 0.080112 0.614000 8350100
0.011129 0.083757 0.615000 9266038
0.011147 0.087413 0.616000 13417149
0.011165 0.091081 0.617000 10989764
0.011183 0.094760 0.618000 3681352
0.012900 0.036243 0.645000 13819902
0.012760 0.039495 0.638000 15201788
0.012700 0.042938 0.635000 15921141
0.012620 0.046273 0.631000 15985912
0.012480 0.049326 0.624000 13079541
0.012380 0.052468 0.619000 13153396
0.012320 0.055733 0.616000 11908548
0.012280 0.059061 0.614000 10063940
0.012260 0.062468 0.613000 11116321
0.012280 0.066078 0.614000 11380554
0.012280 0.069587 0.614000 10911609
0.012280 0.073095 0.614000 8808029
0.012280 0.076604 0.614000 7823950
0.012280 0.080112 0.614000 8937875
0.012280 0.083621 0.614000 8346729
0.012300 0.087271 0.615000 11511222
0.012320 0.090933 0.616000 11777476
0.012340 0.094607 0.617000 3547479
0.014129 0.036243 0.645000 15856636
0.013997 0.039557 0.639000 15855351
0.013910 0.042938 0.635000 15591412
0.013822 0.046273 0.631000 16183795
0.013669 0.049326 0.624000 12805275
0.013559 0.052468 0.619000 13478770
0.013493 0.055733 0.616000 11846846
0.013450 0.059061 0.614000 9600871
0.013428 0.062468 0.613000 10591295
0.013428 0.065970 0.613000 9720379
0.013428 0.069473 0.613000 9451349
0.013428 0.072976 0.613000 5391175
0.013428 0.076479 0.613000 6969943
0.013428 0.079982 0.613000 9462921
0.013450 0.083621 0.614000 7482436
0.013450 0.087130 0.614000 9600397
0.013471 0.090786 0.615000 12567753
0.013493 0.094453 0.616000 3359850
0.015190 0.039495 0.638000 15723251
0.015095 0.042870 0.634000 15657202
0.015024 0.046273 0.631000 15923950
0.014857 0.049326 0.624000 12089665
0.014738 0.052468 0.619000 13015920
0.014667 0.055733 0.616000 12372407
0.014619 0.059061 0.614000 9062283
0.014595 0.062468 0.613000 9720925
0.014571 0.065863 0.612000 9896237
0.014571 0.069360 0.612000 9644849
0.014595 0.072976 0.613000 7416113
0.014619 0.076604 0.614000 7035743
0.014595 0.079982 0.613000 7294591
0.014595 0.083485 0.613000 6892831
0.014619 0.087130 0.614000 8991845
0.014619 0.090638 0.614000 12105678
0.014643 0.094300 0.615000 5854589
0.016406 0.039495 0.638000 15526644
0.016303 0.042870 0.634000 15722997
0.016226 0.046273 0.631000 15584213
0.016046 0.049326 0.624000 11376230
0.015891 0.052383 0.618000 12563060
0.015840 0.055733 0.616000 12897698
0.015789 0.059061 0.614000 8542355
0.015711 0.062264 0.611000 8857948
0.015711 0.065755 0.611000 10047064
0.015711 0.069247 0.611000 9924958
0.015737 0.072857 0.612000 9380669
0.015737 0.076354 0.612000 7100769
0.015737 0.079851 0.612000 5061975
0.015763 0.083485 0.613000 6295825
0.015763 0.086988 0.613000 8351863
0.015789 0.090638 0.614000 11642772
0.015789 0.094147 0.614000 8284269
0.015763 0.097496 0.613000 3943730
0.017621 0.039495 0.638000 15591925
0.017510 0.042870 0.634000 15724279
0.017455 0.046347 0.632000 13670588
0.017234 0.049326 0.624000 11968650
0.017096 0.052468 0.619000 12964729
0.016986 0.055643 0.615000 12287885
0.016930 0.058965 0.613000 10787227
0.016875 0.062264 0.611000 9455706
0.016875 0.065755 0.611000 10188676
0.016875 0.069247 0.611000 10052491
0.016875 0.072738 0.611000 9113930
0.016875 0.076230 0.611000 7093090
0.016875 0.079721 0.611000 5774640
0.016903 0.083349 0.612000 6691075
0.016930 0.086988 0.613000 9212554
0.016930 0.090490 0.613000 10985306
0.016930 0.093993 0.613000 8682846
0.016930 0.097496 0.613000 4403245
0.018836 0.039495 0.638000 15592695
0.018718 0.042870 0.634000 15724792
0.018630 0.046273 0.631000 11771542
0.018423 0.049326 0.624000 12624751
0.018275 0.052468 0.619000 13354878
0.018157 0.055643 0.615000 11676038
0.018098 0.058965 0.613000 12943495
0.017980 0.062060 0.609000 10106462
0.017980 0.065540 0.609000 10246518
0.017950 0.068907 0.608000 10112620
0.017980 0.072500 0.609000 8863585
0.018039 0.076230 0.611000 7089780
0.018039 0.079721 0.611000 6429238
0.018039 0.083212 0.611000 7144717
0.018069 0.086846 0.612000 9989211
0.018069 0.090343 0.612000 10394701
0.018098 0.093993 0.613000 9076313
0.018069 0.097337 0.612000 4863272
0.019989 0.039371 0.636000 15789050
0.019926 0.042870 0.634000 14801656
0.019769 0.046127 0.629000 12493424
0.019611 0.049326 0.624000 11901523
0.019486 0.052552 0.620000 12700547
0.019329 0.055643 0.615000 12016767
0.019234 0.058869 0.612000 12268914
0.019109 0.061958 0.608000 10176097
0.019077 0.065325 0.607000 10309736
0.019077 0.068793 0.607000 10310989
0.019109 0.072381 0.608000 10124409
0.019140 0.075980 0.609000 9335174
0.019203 0.079721 0.611000 6819132
0.019203 0.083212 0.611000 7150102
0.019203 0.086704 0.611000 8333100
0.019234 0.090343 0.612000 8617536
0.019234 0.093840 0.612000 9210708
0.019234 0.097337 0.612000 5126179
0.021200 0.039371 0.636000 15921399
0.021133 0.042870 0.634000 13814987
0.020967 0.046127 0.629000 13210988
0.020800 0.049326 0.624000 11240804
0.020633 0.052468 0.619000 12027524
0.020500 0.055643 0.615000 12291998
0.020400 0.058869 0.612000 11626636
0.020233 0.061856 0.607000 10322046
0.020233 0.065325 0.607000 10377306
0.020233 0.068793 0.607000 10508371
0.020233 0.072262 0.607000 11301750
0.020267 0.075855 0.608000 11637099
0.020300 0.079460 0.609000 7221066
0.020367 0.083212 0.611000 7232355
0.020367 0.086704 0.611000 6639442
0.020367 0.090195 0.611000 6917760
0.020367 0.093687 0.611000 9339467
0.020400 0.097337 0.612000 5453649
0.022411 0.039371 0.636000 15855093
0.022341 0.042870 0.634000 13083549
0.022130 0.046053 0.628000 12093544
0.021989 0.049326 0.624000 11314548
0.021812 0.052468 0.619000 12009349
0.021671 0.055643 0.615000 12548796
0.021530 0.058772 0.611000 12563110
0.021390 0.061856 0.607000 10445978
0.021390 0.065325 0.607000 10107725
0.021354 0.068680 0.606000 9978457
0.021390 0.072262 0.607000 10309490
0.021390 0.075730 0.607000 10177104
0.021460 0.079460 0.609000 7622743
0.021460 0.082940 0.609000 8618160
0.021530 0.086704 0.611000 8150137
0.021530 0.090195 0.611000 8494527
0.021530 0.093687 0.611000 8879427
0.021566 0.097337 0.612000 6445439
0.023623 0.039371 0.636000 15788017
0.023549 0.042870 0.634000 12293023
0.023326 0.046053 0.628000 10918030
0.023177 0.049326 0.624000 11390112
0.022991 0.052468 0.619000 12023441
0.022843 0.055643 0.615000 12872859
0.022694 0.058772 0.611000 13400728
0.022546 0.061856 0.607000 10640786
0.022509 0.065217 0.606000 9848165
0.022546 0.068793 0.607000 9516910
0.022546 0.072262 0.607000 9329542
0.022546 0.075730 0.607000 8719949
0.022620 0.079460 0.609000 8014422
0.022583 0.082804 0.608000 10004374
0.022620 0.086420 0.609000 9671820
0.022620 0.089900 0.609000 10066272
0.022694 0.093687 0.611000 8359536
0.022694 0.097178 0.611000 7498083
0.024795 0.039310 0.635000 15789550
0.024756 0.042870 0.634000 12426144
0.024483 0.045980 0.627000 13088692
0.024366 0.049326 0.624000 12367819
0.024170 0.052468 0.619000 12357533
0.024014 0.055643 0.615000 12941178
0.023741 0.058484 0.608000 12856969
0.023663 0.061754 0.606000 11040906
0.023663 0.065217 0.606000 9990526
0.023663 0.068680 0.606000 9660546
0.023663 0.072143 0.606000 9532314
0.023663 0.075606 0.606000 8726089
0.023702 0.079199 0.607000 7747413
0.023702 0.082668 0.607000 10589563
0.023780 0.086420 0.609000 11454879
0.023780 0.089900 0.609000 8483841
0.023780 0.093380 0.609000 10793630
0.023780 0.096860 0.609000 7761991
0.026005 0.039310 0.635000 15721955
0.025923 0.042803 0.633000 12556985
0.025718 0.046053 0.628000 15191504
0.025554 0.049326 0.624000 13348767
0.025350 0.052468 0.619000 12616087
0.025186 0.055643 0.615000 13068665
0.024899 0.058484 0.608000 12286619
0.024817 0.061754 0.606000 11507322
0.024776 0.065110 0.605000 10048116
0.024817 0.068680 0.606000 9854328
0.024817 0.072143 0.606000 9722728
0.024817 0.075606 0.606000 8726604
0.024817 0.079069 0.606000 7412525
0.024817 0.082531 0.606000 11180147
0.024858 0.086136 0.607000 13215871
0.024899 0.089752 0.608000 6901008
0.024940 0.093380 0.609000 13217942
0.024899 0.096701 0.608000 8030084
0.024899 0.100175 0.608000 6443843
0.027086 0.042735 0.632000 13216209
0.026914 0.046053 0.628000 15461357
0.026700 0.049247 0.623000 12878707
0.026529 0.052468 0.619000 12616082
0.026357 0.055643 0.615000 12738168
0.026057 0.058484 0.608000 13019310
0.025971 0.061754 0.606000 11103337
0.025929 0.065110 0.605000 9971818
0.025929 0.068567 0.605000 9323117
0.025929 0.072024 0.605000 9254710
0.025929 0.075481 0.605000 8464462
0.025971 0.079069 0.606000 8586757
0.025971 0.082531 0.606000 10976874
0.025971 0.085994 0.606000 12486496
0.026014 0.089605 0.607000 7823903
0.026057 0.093227 0.608000 12890254
0.026057 0.096701 0.608000 9476288
0.026014 0.100010 0.607000 6246210
0.028290 0.042735 0.632000 13939680
0.028110 0.046053 0.628000 15653851
0.027887 0.049247 0.623000 12331901
0.027708 0.052468 0.619000 12615308
0.027529 0.055643 0.615000 12411515
0.027215 0.058484 0.608000 13667476
0.027126 0.061754 0.606000 10778497
0.027081 0.065110 0.605000 9931938
0.027081 0.068567 0.605000 8890018
0.027081 0.072024 0.605000 8803920
0.027081 0.075481 0.605000 8282702
0.027081 0.078938 0.605000 9701404
0.027081 0.082395 0.605000 10785135
0.027126 0.085994 0.606000 11702410
0.027126 0.089457 0.606000 8746069
0.027170 0.093073 0.607000 12564134
0.027170 0.096542 0.607000 10991818
0.027126 0.099846 0.606000 6050133
0.029260 0.045980 0.627000 13482184
0.029073 0.049247 0.623000 12216199
0.028887 0.052468 0.619000 12349829
0.028700 0.055643 0.615000 12350077
0.028420 0.058580 0.609000 12344443
0.028280 0.061754 0.606000 12626585
0.028233 0.065110 0.605000 11520473
0.028233 0.068567 0.605000 10399958
0.028233 0.072024 0.605000 8742763
0.028233 0.075481 0.605000 9199949
0.028233 0.078938 0.605000 9437748
0.028233 0.082395 0.605000 10979187
0.028233 0.085852 0.605000 12166837
0.028280 0.089457 0.606000 10721163
0.028280 0.092920 0.606000 12892606
0.028280 0.096383 0.606000 11777748
0.028280 0.099846 0.606000 5984104
0.028233 0.103138 0.605000 6311999
0.030503 0.046053 0.628000 11232415
0.030260 0.049247 0.623000 12090478
0.030066 0.052468 0.619000 12085372
0.029871 0.055643 0.615000 12282519
0.029677 0.058772 0.611000 10980228
0.029434 0.061754 0.606000 14537648
0.029337 0.065002 0.604000 13090519
0.029337 0.068453 0.604000 11975890
0.029337 0.071905 0.604000 8677477
0.029337 0.075356 0.604000 10179911
0.029337 0.078808 0.604000 9180982
0.029386 0.082395 0.605000 11183986
0.029386 0.085852 0.605000 12561847
0.029386 0.089310 0.605000 12691604
0.029386 0.092767 0.605000 13153187
0.029434 0.096383 0.606000 12632236
0.029386 0.099681 0.605000 5858151
0.029386 0.103138 0.605000 6116161
0.031699 0.042465 0.628000 15593726
0.031649 0.045980 0.627000 10092917
0.031447 0.049247 0.623000 11877204
0.031245 0.052468 0.619000 12216435
0.031043 0.055643 0.615000 12221105
0.030841 0.058772 0.611000 13085581
0.030538 0.061652 0.605000 14862278
0.030488 0.065002 0.604000 12103125
0.030437 0.068340 0.603000 12171214
0.030437 0.071786 0.603000 8811872
0.030437 0.075231 0.603000 10177601
0.030488 0.078808 0.604000 9046328
0.030488 0.082259 0.604000 11178609
0.030488 0.085710 0.604000 12693177
0.030538 0.089310 0.605000 12494237
0.030538 0.092767 0.605000 12365192
0.030538 0.096224 0.605000 11773827
0.030538 0.099681 0.605000 7236455
0.030538 0.103138 0.605000 6115651
0.032895 0.042465 0.628000 15660798
0.032843 0.045980 0.627000 8988530
0.032686 0.049326 0.624000 11739985
0.032371 0.052383 0.618000 12345998
0.032214 0.055643 0.615000 12167340
0.032057 0.058869 0.612000 15120025
0.031743 0.061754 0.606000 15188384
0.031586 0.064894 0.603000 11053237
0.031533 0.068227 0.602000 12371403
0.031533 0.071667 0.602000 8868954
0.031586 0.075231 0.603000 10241080
0.031638 0.078808 0.604000 8867908
0.031638 0.082259 0.604000 11182457
0.031638 0.085710 0.604000 12757420
0.031638 0.089162 0.604000 12362866
0.031690 0.092767 0.605000 11573843
0.031690 0.096224 0.605000 10983285
0.031690 0.099681 0.605000 8618629
0.031690 0.103138 0.605000 6180924
0.034037 0.045980 0.627000 8257902
0.033874 0.049326 0.624000 11810893
0.033549 0.052383 0.618000 12479145
0.033386 0.055643 0.615000 12753063
0.033169 0.058772 0.611000 15127206
0.032897 0.061754 0.606000 14531193
0.032734 0.064894 0.603000 9797525
0.032680 0.068227 0.602000 10921416
0.032680 0.071667 0.602000 8066900
0.032680 0.075107 0.602000 9784878
0.032734 0.078677 0.603000 9334353
0.032734 0.082123 0.603000 11903104
0.032734 0.085569 0.603000 12819872
0.032789 0.089162 0.604000 10122054
0.032789 0.092613 0.604000 9271838
0.032843 0.096224 0.605000 11049831
0.032843 0.099681 0.605000 10330019
0.032843 0.103138 0.605000 6114101
0.035231 0.045980 0.627000 7544688
0.035007 0.049247 0.623000 11873115
0.034726 0.052383 0.618000 12618404
0.034557 0.055643 0.615000 13333117
0.034332 0.058772 0.611000 15123107
0.033995 0.061652 0.605000 13868923
0.033827 0.064787 0.602000 8544637
0.033714 0.068000 0.600000 9536613
0.033714 0.071429 0.600000 7290968
0.033714 0.074857 0.600000 9394277
0.033827 0.078547 0.602000 9792325
0.033883 0.082123 0.603000 12623227
0.033883 0.085569 0.603000 12816507
0.033883 0.089014 0.603000 7876133
0.033883 0.092460 0.603000 6905659
0.033827 0.095747 0.602000 11181108
0.033827 0.099187 0.602000 11968691
0.033827 0.102627 0.602000 5982267
0.036368 0.045907 0.626000 7405937
0.036193 0.049247 0.623000 11948137
0.035845 0.052298 0.617000 12948383
0.035670 0.055552 0.614000 12675411
0.035380 0.058580 0.609000 15186336
0.035148 0.061652 0.605000 12159613
0.034915 0.064679 0.601000 6429541
0.034799 0.067887 0.599000 4991489
0.034799 0.071310 0.599000 7297885
0.034857 0.074857 0.600000 8478363
0.034857 0.078286 0.600000 9923129
0.034915 0.081850 0.601000 12490613
0.034915 0.085285 0.601000 8939862
0.034915 0.088719 0.601000 5385476
0.034915 0.092153 0.601000 7759192
0.034973 0.095747 0.602000 7622145
0.034973 0.099187 0.602000 12437444
0.034915 0.102456 0.601000 6115137
0.037560 0.045907 0.626000 7290504
0.037320 0.049168 0.622000 12084611
0.037020 0.052298 0.617000 13205121
0.036840 0.055552 0.614000 12092026
0.036540 0.058580 0.609000 15249810
0.036300 0.061652 0.605000 10446957
0.036060 0.064679 0.601000 4344690
0.035940 0.067887 0.599000 533066
0.035940 0.071310 0.599000 7229544
0.036000 0.074857 0.600000 7626608
0.036000 0.078286 0.600000 9987645
0.036000 0.081714 0.600000 12423530
0.036060 0.085285 0.601000 4996164
0.036060 0.088719 0.601000 2826756
0.036060 0.092153 0.601000 8609116
0.036060 0.095588 0.601000 4129283
0.036060 0.099022 0.601000 12883079
0.036060 0.102456 0.601000 6244182
0.038690 0.045833 0.625000 9987487
0.038505 0.049168 0.622000 11956124
0.038257 0.052383 0.618000 12282212
0.038010 0.055552 0.614000 11961761
0.037700 0.058580 0.609000 13935747
0.037452 0.061652 0.605000 9125980
0.037143 0.064571 0.600000 7241856
0.037019 0.067773 0.598000 4546706
0.037019 0.071190 0.598000 7164787
0.037081 0.074732 0.599000 7820101
0.037143 0.078286 0.600000 9524290
0.037143 0.081714 0.600000 11899231
0.037143 0.085143 0.600000 4587826
0.037205 0.088719 0.601000 2690307
0.037205 0.092153 0.601000 8085087
0.037143 0.095429 0.600000 4130820
0.037205 0.099022 0.601000 10641227
0.037205 0.102456 0.601000 6838891
0.039881 0.045833 0.625000 12621764
0.039690 0.049168 0.622000 11833983
0.039434 0.052383 0.618000 11284571
0.039179 0.055552 0.614000 11908497
0.038860 0.058580 0.609000 12610685
0.038605 0.061652 0.605000 7733571
0.038350 0.064679 0.601000 10128802
0.038158 0.067773 0.598000 8492207
0.038158 0.071190 0.598000 7033459
0.038222 0.074732 0.599000 8014404
0.038222 0.078155 0.599000 9068617
0.038222 0.081578 0.599000 11377506
0.038286 0.085143 0.600000 4141387
0.038286 0.088571 0.600000 2622503
0.038286 0.092000 0.600000 7489382
0.038286 0.095429 0.600000 4131392
0.038286 0.098857 0.600000 8345967
0.038286 0.102286 0.600000 7432332
0.038286 0.105714 0.600000 6113595
0.041071 0.045833 0.625000 13946600
0.040874 0.049168 0.622000 11285089
0.040546 0.052298 0.617000 10422610
0.040349 0.055552 0.614000 13481088
0.040020 0.058580 0.609000 10879352
0.039757 0.061652 0.605000 7946025
0.039560 0.064787 0.602000 9802692
0.039297 0.067773 0.598000 8427211
0.039231 0.071071 0.597000 7292787
0.039297 0.074608 0.598000 8674114
0.039297 0.078025 0.598000 9134417
0.039297 0.081442 0.598000 10782053
0.039363 0.085001 0.599000 4602724
0.039429 0.088571 0.600000 4729163
0.039429 0.092000 0.600000 7950957
0.039363 0.095270 0.599000 5717883
0.039429 0.098857 0.600000 8155540
0.039429 0.102286 0.600000 7897005
0.039429 0.105714 0.600000 6180924
0.042127 0.049247 0.623000 10756714
0.041721 0.052298 0.617000 9584724
0.041518 0.055552 0.614000 15116656
0.041180 0.058580 0.609000 9206144
0.040910 0.061652 0.605000 8212076
0.040639 0.064679 0.601000 9408957
0.040436 0.067773 0.598000 8427955
0.040369 0.071071 0.597000 7552862
0.040369 0.074483 0.597000 9400679
0.040369 0.077894 0.597000 9202280
0.040369 0.081306 0.597000 10191728
0.040436 0.084859 0.598000 5000035
0.040571 0.088571 0.600000 6893668
0.040571 0.092000 0.600000 8348805
0.040436 0.095110 0.598000 7232655
0.040504 0.098692 0.599000 7959704
0.040571 0.102286 0.600000 8368280
0.040504 0.105538 0.599000 6180419
0.043313 0.049247 0.623000 11552114
0.042966 0.052383 0.618000 10707031
0.042688 0.055552 0.614000 14851936
0.042340 0.058580 0.609000 12299145
0.042062 0.061652 0.605000 9867182
0.041784 0.064679 0.601000 9671350
0.041506 0.067660 0.597000 8154267
0.041506 0.071071 0.597000 7221320
0.041506 0.074483 0.597000 9533835
0.041506 0.077894 0.597000 9069952
0.041506 0.081306 0.597000 8808314
0.041506 0.084717 0.597000 8021346
0.041645 0.088424 0.599000 6636412
0.041575 0.091693 0.598000 7632797
0.041575 0.095110 0.598000 7696546
0.041645 0.098692 0.599000 6774173
0.041645 0.102115 0.599000 8948611
0.041645 0.105538 0.599000 6049866
0.044500 0.049247 0.623000 12345782
0.044071 0.052298 0.617000 11752264
0.043857 0.055552 0.614000 14648147
0.043429 0.058484 0.608000 15379336
0.043143 0.061550 0.604000 11575475
0.042929 0.064679 0.601000 9868738
0.042643 0.067660 0.597000 7898019
0.042643 0.071071 0.597000 6830661
0.042571 0.074358 0.596000 9666182
0.042500 0.077633 0.595000 8875137
0.042643 0.081306 0.597000 7427943
0.042643 0.084717 0.597000 10974065
0.042786 0.088424 0.599000 6448272
0.042786 0.091847 0.599000 6905254
0.042714 0.095110 0.598000 8160431
0.042714 0.098528 0.598000 5531541
0.042786 0.102115 0.599000 9473679
0.042786 0.105538 0.599000 5857643
0.045467 0.049010 0.620000 13012986
0.045247 0.052298 0.617000 11488313
0.045027 0.055552 0.614000 14180165
0.044513 0.058388 0.607000 15445896
0.044293 0.061550 0.604000 11112887
0.044073 0.064679 0.601000 9935566
0.043780 0.067660 0.597000 8948394
0.043707 0.070952 0.596000 7224898
0.043633 0.074233 0.595000 9731457
0.043633 0.077633 0.595000 8678274
0.043633 0.081033 0.595000 7232083
0.043707 0.084575 0.596000 10713471
0.043780 0.088129 0.597000 7304868
0.043780 0.091540 0.597000 6042286
0.043780 0.094951 0.597000 7897531
0.043780 0.098363 0.597000 7236749
0.043780 0.101774 0.597000 10788251
0.043853 0.105362 0.598000 8025229
0.043780 0.108597 0.597000 6705464
0.046572 0.048930 0.619000 13687036
0.046422 0.052298 0.617000 11153248
0.046196 0.055552 0.614000 13722452
0.045670 0.058388 0.607000 15446166
0.045369 0.061449 0.603000 10710919
0.045218 0.064679 0.601000 9999023
0.044917 0.067660 0.597000 10005422
0.044842 0.070952 0.596000 7619910
0.044767 0.074233 0.595000 9797535
0.044691 0.077503 0.594000 8484759
0.044767 0.081033 0.595000 7106432
0.044842 0.084575 0.596000 10440819
0.044842 0.087981 0.596000 8221316
0.044842 0.091387 0.596000 5131946
0.044842 0.094792 0.596000 7700393
0.044842 0.098198 0.596000 8871287
0.044917 0.101774 0.597000 12166006
0.044917 0.105186 0.597000 10124149
0.044842 0.108415 0.596000 7233881
0.047751 0.048930 0.619000 14410238
0.047597 0.052298 0.617000 10813830
0.047366 0.055552 0.614000 13994851
0.046903 0.058484 0.608000 14789540
0.046594 0.061550 0.604000 10309206
0.046286 0.064571 0.600000 10062992
0.046054 0.067660 0.597000 9407665
0.045900 0.070833 0.595000 7548490
0.045823 0.074109 0.594000 10917821
0.045746 0.077372 0.593000 10788013
0.045823 0.080897 0.594000 9338796
0.045900 0.084433 0.595000 10369895
0.045977 0.087981 0.596000 8344164
0.045900 0.091233 0.595000 6317477
0.045977 0.094792 0.596000 7954839
0.045977 0.098198 0.596000 8926817
0.045977 0.101604 0.596000 11232848
0.045977 0.105010 0.596000 10255453
0.045977 0.108415 0.596000 8285562
0.049168 0.049168 0.622000 15136508
0.048772 0.052298 0.617000 10452397
0.048456 0.055462 0.613000 14263409
0.048061 0.058484 0.608000 14060427
0.047666 0.061449 0.603000 9977698
0.047429 0.064571 0.600000 10064293
0.047191 0.067660 0.597000 8809854
0.047033 0.070833 0.595000 7418192
0.046875 0.073984 0.593000 12098399
0.046875 0.077372 0.593000 13024181
0.046875 0.080761 0.593000 11578056
0.046954 0.084291 0.594000 10295667
0.047033 0.087833 0.595000 8464971
0.046954 0.091080 0.594000 7495565
0.047033 0.094633 0.595000 8214923
0.047033 0.098033 0.595000 8922459
0.047033 0.101433 0.595000 10368347
0.047112 0.105010 0.596000 10387046
0.047112 0.108415 0.596000 9336694
0.050190 0.049010 0.620000 15198458
0.049948 0.052298 0.617000 12635092
0.049624 0.055462 0.613000 14460286
0.049219 0.058484 0.608000 13530226
0.048895 0.061550 0.604000 9919597
0.048490 0.064464 0.599000 9740730
0.048248 0.067547 0.596000 7823178
0.048086 0.070714 0.594000 6104662
0.048005 0.073984 0.593000 9851393
0.047924 0.077242 0.592000 13090749
0.048005 0.080761 0.593000 12168164
0.048086 0.084291 0.594000 9896320
0.048086 0.087686 0.594000 7670577
0.048086 0.091080 0.594000 7494518
0.048086 0.094474 0.594000 8668543
0.048167 0.098033 0.595000 8262742
0.048167 0.101433 0.595000 9838694
0.048167 0.104833 0.595000 10783854
0.048248 0.108415 0.596000 9466226
0.051289 0.048930 0.619000 15330555
0.051040 0.052213 0.616000 14799055
0.050791 0.055462 0.613000 14723196
0.050294 0.058388 0.607000 12944745
0.050046 0.061550 0.604000 9793673
0.049631 0.064464 0.599000 9400740
0.049383 0.067547 0.596000 6902882
0.049134 0.070595 0.593000 4797553
0.049134 0.073984 0.593000 7548238
0.049051 0.077242 0.592000 13088958
0.049134 0.080761 0.593000 12697561
0.049134 0.084150 0.593000 9528998
0.049217 0.087686 0.594000 6947197
0.049134 0.090927 0.593000 7487101
0.049217 0.094474 0.594000 9190011
0.049217 0.097869 0.594000 7610205
0.049217 0.101263 0.594000 9378157
0.049217 0.104657 0.594000 11175803
0.049300 0.108233 0.595000 9597300
0.052383 0.048851 0.618000 15198460
0.052298 0.052298 0.617000 14666186
0.051874 0.055371 0.612000 14724473
0.051450 0.058388 0.607000 13216353
0.051196 0.061550 0.604000 10720933
0.050857 0.064571 0.600000 7547791
0.050518 0.067547 0.596000 6570362
0.050264 0.070595 0.593000 5985677
0.050179 0.073859 0.592000 8020378
0.050179 0.077242 0.592000 12301760
0.050264 0.080761 0.593000 12895182
0.050264 0.084150 0.593000 11321548
0.050264 0.087538 0.593000 9795016
0.050264 0.090927 0.593000 8401284
0.050264 0.094315 0.593000 9516663
0.050349 0.097869 0.594000 8402788
0.050349 0.101263 0.594000 9314675
0.050349 0.104657 0.594000 11508360
0.050433 0.108233 0.595000 9861238
0.053560 0.048851 0.618000 15069172
0.053473 0.052298 0.617000 14461850
0.053127 0.055462 0.613000 14663034
0.052693 0.058484 0.608000 13467218
0.052347 0.061550 0.604000 11703977
0.052000 0.064571 0.600000 5721753
0.051653 0.067547 0.596000 6237286
0.051393 0.070595 0.593000 7169691
0.051307 0.073859 0.592000 8489364
0.051307 0.077242 0.592000 11505824
0.051307 0.080625 0.592000 13091021
0.051393 0.084150 0.593000 13086652
0.051393 0.087538 0.593000 12700091
0.051393 0.090927 0.593000 9330318
0.051393 0.094315 0.593000 9909616
0.051393 0.097704 0.593000 9193571
0.051393 0.101092 0.593000 9252720
0.051393 0.104481 0.593000 11832193
0.051480 0.108051 0.594000 10059135
0.054649 0.052298 0.617000 13728874
0.054294 0.055462 0.613000 13870459
0.053851 0.058484 0.608000 11089988
0.053497 0.061550 0.604000 10256812
0.053054 0.064464 0.599000 6513059
0.052700 0.067433 0.595000 8084561
0.052434 0.070476 0.592000 8950697
0.052434 0.073859 0.592000 6971021
0.052346 0.077111 0.591000 10572416
0.052346 0.080489 0.591000 12891339
0.052434 0.084008 0.592000 12684972
0.052434 0.087390 0.592000 12628910
0.052434 0.090773 0.592000 9666457
0.052434 0.094156 0.592000 9982825
0.052523 0.097704 0.593000 8867427
0.052523 0.101092 0.593000 9713261
0.052434 0.104305 0.592000 12032377
0.052611 0.108051 0.594000 10322568
0.055733 0.052213 0.616000 13011535
0.055462 0.055462 0.613000 13016422
0.055010 0.058484 0.608000 8672632
0.054557 0.061449 0.603000 8816835
0.054286 0.064571 0.600000 7232928
0.053924 0.067547 0.596000 9995665
0.053562 0.070476 0.592000 10725560
0.053471 0.073734 0.591000 5463197
0.053381 0.076981 0.590000 9604263
0.053471 0.080489 0.591000 12694984
0.053471 0.083866 0.591000 12226221
0.053562 0.087390 0.592000 12622511
0.053562 0.090773 0.592000 9996454
0.053562 0.094156 0.592000 10051699
0.053562 0.097539 0.592000 8534614
0.053562 0.100922 0.592000 10173805
0.053562 0.104305 0.592000 12225121
0.053652 0.107870 0.593000 10517604
0.053743 0.111446 0.594000 9729650
0.056907 0.052213 0.616000 13204021
0.056537 0.055371 0.612000 12808784
0.056168 0.058484 0.608000 9345452
0.055706 0.061449 0.603000 9277657
0.055429 0.064571 0.600000 7229597
0.055059 0.067547 0.596000 10395089
0.054597 0.070357 0.591000 12499143
0.054597 0.073734 0.591000 8618669
0.054505 0.076981 0.590000 11450062
0.054505 0.080352 0.590000 12431301
0.054505 0.083724 0.590000 12225711
0.054505 0.087095 0.590000 12557744
0.054597 0.090620 0.591000 8817844
0.054597 0.093997 0.591000 8079485
0.054597 0.097374 0.591000 8063306
0.054597 0.100751 0.591000 9252460
0.054690 0.104305 0.592000 11896137
0.054782 0.107870 0.593000 10055488
0.054782 0.111258 0.593000 9994616
0.058174 0.052298 0.617000 13404492
0.057703 0.055371 0.612000 12676693
0.057326 0.058484 0.608000 9932467
0.056760 0.061347 0.602000 9737650
0.056477 0.064464 0.599000 7232655
0.056194 0.067547 0.596000 10785952
0.055723 0.070357 0.591000 14205110
0.055723 0.073734 0.591000 11774398
0.055629 0.076981 0.590000 13287115
0.055534 0.080216 0.589000 12234434
0.055534 0.083582 0.589000 12159374
0.055629 0.087095 0.590000 12561320
