# .PCD v.7 - Point Cloud Data file format
VERSION .7
FIELDS x y z rgb
SIZE 4 4 4 4
TYPE F F F I
COUNT 1 1 1 1
WIDTH 1309
HEIGHT 1
POINTS 1309
DATA ascii
0.249606 -0.006189 0.722000 11636619
0.249951 -0.002066 0.723000 11571855
0.250989 0.002074 0.726000 11106176
0.252717 0.006266 0.731000 11172475
0.253754 0.010486 0.734000 10713464
0.254446 0.014720 0.736000 9402478
0.259671 -0.040551 0.747000 15255736
0.257933 -0.036040 0.742000 16381686
0.255152 -0.031457 0.734000 15587565
0.254110 -0.027151 0.731000 14932203
0.252371 -0.022817 0.726000 14929383
0.250981 -0.018566 0.722000 15986417
0.249938 -0.014380 0.719000 11106428
0.250286 -0.010286 0.720000 11505032
0.250981 -0.006189 0.722000 11702154
0.251329 -0.002066 0.723000 11834773
0.253067 0.002080 0.728000 11240080
0.254110 0.006266 0.731000 11172479
0.255152 0.010486 0.734000 10844537
0.256195 0.014740 0.737000 10057323
0.261094 -0.040551 0.747000 13873087
0.259347 -0.036040 0.742000 16505826
0.256550 -0.031457 0.734000 15457774
0.254803 -0.027077 0.729000 15785709
0.253405 -0.022786 0.725000 15203827
0.251657 -0.018514 0.720000 16048622
0.251308 -0.014380 0.719000 10974838
0.251657 -0.010286 0.720000 11505546
0.252356 -0.006189 0.722000 11767946
0.252706 -0.002066 0.723000 12029578
0.254453 0.002080 0.728000 11373192
0.255502 0.006266 0.731000 11172481
0.256550 0.010486 0.734000 10975352
0.260760 -0.036040 0.742000 15386061
0.256191 -0.031243 0.729000 15521006
0.255840 -0.027040 0.728000 16251375
0.254786 -0.022786 0.725000 15857918
0.253029 -0.018514 0.720000 16119019
0.252677 -0.014380 0.719000 10779760
0.253029 -0.010286 0.720000 11571340
0.253731 -0.006189 0.722000 11702410
0.254083 -0.002066 0.723000 10976384
0.255840 0.002080 0.728000 11505279
0.257246 0.006274 0.732000 11303300
0.258651 0.010514 0.736000 10844023
0.262173 -0.036040 0.742000 14204872
0.257580 -0.031243 0.729000 15523290
0.256520 -0.026966 0.726000 16709875
0.255460 -0.022723 0.723000 16578299
0.254400 -0.018514 0.720000 16112617
0.254047 -0.014380 0.719000 10583416
0.254400 -0.010286 0.720000 11571083
0.255107 -0.006189 0.722000 11570822
0.255460 -0.002066 0.723000 9863551
0.257580 0.002083 0.729000 11635582
0.258640 0.006274 0.732000 11436161
0.260053 0.010514 0.736000 10712696
0.258969 -0.031243 0.729000 15125446
0.257903 -0.026966 0.726000 16711159
0.256837 -0.022723 0.723000 16644088
0.255771 -0.018514 0.720000 15195622
0.255416 -0.014380 0.719000 10518144
0.255771 -0.010286 0.720000 11505547
0.256482 -0.006189 0.722000 11570306
0.256837 -0.002066 0.723000 10387581
0.258969 0.002083 0.729000 10649213
0.260034 0.006274 0.732000 10713983
0.261810 0.010529 0.737000 11241080
0.259286 -0.026966 0.726000 16706529
0.257857 -0.022691 0.722000 16709883
0.257143 -0.018514 0.720000 14206939
0.256786 -0.014380 0.719000 10519685
0.257143 -0.010286 0.720000 11440011
0.257857 -0.006189 0.722000 11569027
0.258929 -0.002071 0.725000 10913407
0.260357 0.002083 0.729000 9665406
0.261429 0.006274 0.732000 9993337
0.263214 0.010529 0.737000 11833468
0.260669 -0.026966 0.726000 15520459
0.259232 -0.022691 0.722000 16644606
0.258514 -0.018514 0.720000 13484495
0.258155 -0.014380 0.719000 10716809
0.258514 -0.010286 0.720000 11440779
0.259232 -0.006189 0.722000 11043204
0.260310 -0.002071 0.725000 10782082
0.261746 0.002083 0.729000 9994110
0.262823 0.006274 0.732000 10124404
0.264618 0.010529 0.737000 11044223
0.262051 -0.026966 0.726000 14271171
0.259886 -0.022629 0.720000 16577254
0.259525 -0.018489 0.719000 12692935
0.258803 -0.014340 0.717000 10980236
0.259525 -0.010271 0.719000 11440266
0.259886 -0.006171 0.720000 10518145
0.260969 -0.002066 0.723000 10584192
0.263134 0.002083 0.729000 10322558
0.264217 0.006274 0.732000 10255999
0.265661 0.010514 0.736000 10320259
0.261257 -0.022629 0.720000 15914957
0.260169 -0.018437 0.717000 12424128
0.260169 -0.014340 0.717000 10980238
0.260894 -0.010271 0.719000 11439754
0.261983 -0.006189 0.722000 10518398
0.263071 -0.002071 0.725000 10517886
0.264523 0.002083 0.729000 10716542
0.265611 0.006274 0.732000 10649482
0.267063 0.010514 0.736000 10387079
0.262629 -0.022629 0.720000 15252679
0.261534 -0.018437 0.717000 12170443
0.261534 -0.014340 0.717000 10981276
0.262264 -0.010271 0.719000 11373448
0.263358 -0.006189 0.722000 10517366
0.263723 -0.002066 0.723000 10452092
0.265547 0.002080 0.728000 11110014
0.267006 0.006274 0.732000 10980237
0.268465 0.010514 0.736000 10455942
0.262900 -0.018437 0.717000 14147542
0.262900 -0.014340 0.717000 11573930
0.264000 -0.010286 0.720000 11307655
0.264733 -0.006189 0.722000 10254957
0.265833 -0.002071 0.725000 10320763
0.266933 0.002080 0.728000 10978430
0.268033 0.006266 0.731000 11244688
0.269133 0.010486 0.734000 11112581
0.264266 -0.014340 0.717000 12168393
0.265371 -0.010286 0.720000 11176860
0.266109 -0.006189 0.722000 10058371
0.267214 -0.002071 0.725000 10124151
0.268320 0.002080 0.728000 10910333
0.269426 0.006266 0.731000 11440261
0.270531 0.010486 0.734000 11702918
0.266372 -0.014380 0.719000 13880552
0.267484 -0.010314 0.722000 11439282
0.267854 -0.006197 0.723000 10388632
0.268595 -0.002071 0.725000 9861490
0.270077 0.002083 0.729000 10386043
0.270818 0.006266 0.731000 11242362
0.272670 0.010514 0.736000 11571335
0.267742 -0.014380 0.719000 15587288
0.269231 -0.010329 0.723000 11712712
0.269976 -0.006214 0.725000 10653349
0.270349 -0.002074 0.726000 9533818
0.271466 0.002083 0.729000 9929345
0.272210 0.006266 0.731000 11044221
0.273328 0.010486 0.734000 11440005
0.271357 -0.010357 0.725000 13886686
0.271357 -0.006214 0.725000 11509938
0.271731 -0.002074 0.726000 10189953
0.272854 0.002083 0.729000 10520198
0.273977 0.006274 0.732000 11242881
0.275474 0.010514 0.736000 11570307
0.273114 -0.010371 0.726000 15979474
0.273114 -0.006223 0.726000 12370125
0.273114 -0.002074 0.726000 10782622
0.274243 0.002083 0.729000 11110793
0.275371 0.006274 0.732000 11373695
0.276876 0.010514 0.736000 11701391
0.274497 -0.010371 0.726000 15516870
0.274497 -0.006223 0.726000 13946855
0.274497 -0.002074 0.726000 11374522
0.276388 0.002089 0.731000 11176588
0.276766 0.006274 0.732000 10979453
0.278278 0.010514 0.736000 12886427
0.276640 -0.006240 0.728000 15521236
0.276640 -0.002080 0.728000 11909579
0.277780 0.002089 0.731000 11243677
0.277780 0.006266 0.731000 10520213
0.278160 0.010457 0.732000 14074290
0.278027 -0.006240 0.728000 15321025
0.278027 -0.002080 0.728000 13754075
0.279172 0.002089 0.731000 11966893
0.279554 0.006274 0.732000 12095405
0.279554 0.010457 0.732000 14532809
0.279413 -0.002080 0.728000 15584719
0.280565 0.002089 0.731000 12693948
0.280565 0.006266 0.731000 13611963
0.280949 0.010457 0.732000 15056838
0.281957 0.006266 0.731000 14270665
0.203397 -0.062523 0.831000 9853018
0.203397 -0.057774 0.831000 14001807
0.204980 -0.067271 0.831000 8998530
0.204980 -0.062523 0.831000 8025462
0.204487 -0.057635 0.829000 12883784
0.204487 -0.052898 0.829000 14725784
0.206563 -0.067271 0.831000 9074546
0.206563 -0.062523 0.831000 7635090
0.206066 -0.057635 0.829000 11303169
0.205569 -0.052770 0.827000 13408623
0.207645 -0.071847 0.829000 9991516
0.207645 -0.067110 0.829000 9144415
0.207645 -0.062372 0.829000 7175773
0.207645 -0.057635 0.829000 9719559
0.206643 -0.052643 0.825000 12087629
0.205641 -0.047696 0.821000 14001022
0.208719 -0.081125 0.827000 13352118
0.208214 -0.076214 0.825000 9725224
0.208214 -0.071500 0.825000 9666395
0.208719 -0.066948 0.827000 9138508
0.208214 -0.062071 0.825000 9469992
0.208214 -0.057357 0.825000 9196812
0.207205 -0.052388 0.821000 10562859
0.207205 -0.047696 0.821000 10052180
0.209786 -0.080929 0.825000 11036555
0.209786 -0.076214 0.825000 7103587
0.209786 -0.071500 0.825000 9274184
0.209786 -0.066786 0.825000 9195602
0.209277 -0.061921 0.823000 11762747
0.209277 -0.057218 0.823000 8735272
0.208260 -0.052260 0.819000 8998480
0.207751 -0.047464 0.817000 6182779
0.210332 -0.085228 0.821000 12359350
0.211357 -0.080929 0.825000 8794207
0.211357 -0.076214 0.825000 8354973
0.211357 -0.071500 0.825000 9537845
0.211357 -0.066786 0.825000 7559767
0.210332 -0.061770 0.821000 11037774
0.210332 -0.057079 0.821000 8342340
0.209308 -0.052132 0.817000 8089205
0.208539 -0.047290 0.814000 7304610
0.211896 -0.085228 0.821000 9456732
0.212412 -0.080732 0.823000 6511685
0.212412 -0.076030 0.823000 9601387
0.212412 -0.071327 0.823000 9798712
0.211896 -0.066462 0.821000 5991255
0.210864 -0.061470 0.817000 10242619
0.210864 -0.056801 0.817000 8017777
0.209573 -0.051813 0.812000 7108747
0.209057 -0.047057 0.810000 8487328
0.207509 -0.042114 0.804000 8944522
0.206476 -0.037333 0.800000 8941176
0.213460 -0.085228 0.821000 8084481
0.213460 -0.080536 0.821000 8618539
0.213460 -0.075845 0.821000 10519096
0.212940 -0.070980 0.819000 10189627
0.211640 -0.065895 0.814000 7231830
0.211640 -0.061244 0.814000 8858665
0.211120 -0.056453 0.812000 7630238
0.210080 -0.051558 0.808000 7570593
0.210080 -0.046941 0.808000 8553373
0.208520 -0.042010 0.802000 9272715
0.208000 -0.037333 0.800000 9333350
0.207480 -0.032680 0.798000 7491920
0.213976 -0.089481 0.817000 9268624
0.214500 -0.085020 0.819000 6708781
0.214500 -0.080340 0.819000 10644758
0.214500 -0.075660 0.819000 11436581
0.213190 -0.070547 0.814000 10577470
0.212667 -0.065733 0.812000 8410187
0.212667 -0.061093 0.812000 7492196
0.212143 -0.056314 0.810000 7307683
0.211095 -0.051430 0.806000 8029347
0.210571 -0.046709 0.804000 8684702
0.210048 -0.042010 0.802000 9530998
0.208738 -0.037193 0.797000 9793147
0.208738 -0.032639 0.797000 7294289
0.215532 -0.089481 0.817000 10706053
0.215532 -0.084812 0.817000 8682328
0.215005 -0.079948 0.815000 8200449
0.214741 -0.075198 0.814000 11237649
0.214213 -0.070373 0.812000 8267330
0.213686 -0.065571 0.810000 7821120
0.213158 -0.060792 0.808000 7961247
0.212630 -0.056036 0.806000 8029352
0.212103 -0.051303 0.804000 8487845
0.212103 -0.046709 0.804000 8943262
0.210520 -0.041800 0.798000 9988194
0.209729 -0.037100 0.795000 9205648
0.209729 -0.032557 0.795000 5779283
0.208146 -0.027803 0.789000 6967884
0.217089 -0.089481 0.817000 12081553
0.217089 -0.084812 0.817000 10722976
0.216291 -0.079850 0.814000 5725780
0.215760 -0.075013 0.812000 11037236
0.215229 -0.070200 0.810000 5915223
0.214697 -0.065410 0.808000 7300723
0.214166 -0.060642 0.806000 8421789
0.213634 -0.055897 0.804000 8817827
0.213103 -0.051175 0.802000 8881310
0.213103 -0.046592 0.802000 9270649
0.212040 -0.041800 0.798000 10383734
0.211243 -0.037100 0.795000 8684656
0.210711 -0.032475 0.793000 4270145
0.209649 -0.027803 0.789000 6771527
0.208851 -0.023206 0.786000 7426390
0.218110 -0.089262 0.815000 13242013
0.218110 -0.084605 0.815000 12962279
0.216771 -0.079457 0.810000 8093863
0.216771 -0.074829 0.810000 7682646
0.215701 -0.069853 0.806000 6314605
0.215166 -0.065086 0.804000 7371174
0.215166 -0.060491 0.804000 8355995
0.214095 -0.055619 0.800000 8946845
0.214095 -0.051048 0.800000 9208728
0.213560 -0.046360 0.798000 9401427
0.213292 -0.041748 0.797000 10192779
0.212222 -0.037007 0.793000 9263439
0.211151 -0.032311 0.789000 4464944
0.210884 -0.027768 0.788000 5847874
0.210349 -0.023206 0.786000 6574688
0.209278 -0.018619 0.782000 8020606
0.219662 -0.089262 0.815000 14382241
0.219392 -0.084501 0.814000 15260872
0.217775 -0.079261 0.808000 10466258
0.217236 -0.074459 0.806000 4344967
0.216697 -0.069680 0.804000 6711428
0.216158 -0.064924 0.802000 7438759
0.215619 -0.060190 0.800000 8224926
0.215080 -0.055480 0.798000 9076644
0.215080 -0.050920 0.798000 9534336
0.214810 -0.046302 0.797000 9532524
0.213193 -0.041433 0.791000 9927027
0.212385 -0.036773 0.788000 9845581
0.211846 -0.032189 0.786000 4600387
0.211307 -0.027627 0.784000 4994400
0.211307 -0.023147 0.784000 5720952
0.210229 -0.018571 0.780000 9346457
0.221214 -0.089262 0.815000 14440612
0.220400 -0.084293 0.812000 15124393
0.218771 -0.079065 0.806000 13628156
0.218229 -0.074274 0.804000 7571128
0.217143 -0.069333 0.800000 6320796
0.217143 -0.064762 0.800000 7503783
0.216600 -0.060040 0.798000 8553377
0.216329 -0.055410 0.797000 9208491
0.216329 -0.050856 0.797000 9990761
0.214157 -0.045837 0.789000 9535364
0.214157 -0.041329 0.789000 9721948
0.213343 -0.036680 0.786000 9251914
0.212800 -0.032107 0.784000 6575447
0.212257 -0.027556 0.782000 7233662
0.212257 -0.023088 0.782000 7758225
0.211443 -0.018548 0.779000 10787764
0.210357 -0.014024 0.775000 7758216
0.222767 -0.089262 0.815000 14452652
0.221947 -0.084293 0.812000 14986942
0.220307 -0.079065 0.806000 16707320
0.219213 -0.074090 0.802000 10796251
0.218120 -0.069160 0.798000 5930427
0.217847 -0.064519 0.797000 7634329
0.217300 -0.059814 0.795000 8814739
0.216753 -0.055132 0.793000 9405065
0.216207 -0.050473 0.791000 10384754
0.214840 -0.045663 0.786000 9603438
0.214840 -0.041171 0.786000 9453127
0.214293 -0.036587 0.784000 8727622
0.213747 -0.032025 0.782000 8546414
0.213200 -0.027486 0.780000 9470329
0.213200 -0.023029 0.780000 9801878
0.212380 -0.018500 0.777000 12163491
0.211287 -0.013988 0.773000 9013397
0.209920 -0.009509 0.768000 8149835
0.225420 -0.094380 0.819000 14660287
0.224044 -0.089152 0.814000 15177908
0.223493 -0.084293 0.812000 15057618
0.221291 -0.078869 0.804000 16047091
0.220190 -0.073905 0.800000 13755134
0.219365 -0.069073 0.797000 9604825
0.218264 -0.064195 0.793000 7895947
0.217713 -0.059513 0.791000 9008006
0.217163 -0.054854 0.789000 9336167
0.217163 -0.050346 0.789000 9337724
0.216337 -0.045663 0.786000 9325399
0.215787 -0.041067 0.784000 9314609
0.215236 -0.036493 0.782000 8738625
0.214686 -0.031943 0.780000 8091014
0.213860 -0.027380 0.777000 9469811
0.213860 -0.022940 0.777000 10525595
0.213310 -0.018452 0.775000 12163985
0.212759 -0.013988 0.773000 10661283
0.211383 -0.009509 0.768000 7952211
0.226426 -0.094150 0.817000 14595509
0.225871 -0.089262 0.815000 15903929
0.224486 -0.084086 0.810000 15185614
0.222823 -0.078869 0.804000 15322093
0.221160 -0.073720 0.798000 16711163
0.220329 -0.068900 0.795000 13291756
0.219774 -0.064195 0.793000 8157375
0.218666 -0.059363 0.789000 9203851
0.218389 -0.054785 0.788000 9204077
0.218389 -0.050282 0.788000 8278625
0.217280 -0.045547 0.784000 9049156
0.216726 -0.040962 0.782000 9118511
0.216171 -0.036400 0.780000 8744800
0.215894 -0.031902 0.779000 7633805
0.214786 -0.027310 0.775000 9469320
0.214786 -0.022881 0.775000 11243677
0.214231 -0.018405 0.773000 12231323
0.212846 -0.013897 0.768000 12224377
0.212569 -0.009496 0.767000 7757408
0.209520 0.003600 0.756000 7293754
0.227982 -0.094150 0.817000 14394794
0.227145 -0.089152 0.814000 15976894
0.226029 -0.084086 0.810000 15188425
0.223796 -0.078672 0.802000 14990312
0.222401 -0.073628 0.797000 16510968
0.221843 -0.068900 0.795000 15007486
0.220727 -0.064033 0.791000 11647731
0.219890 -0.059288 0.788000 8679569
0.219890 -0.054785 0.788000 9072243
0.219331 -0.050154 0.786000 7405894
0.218215 -0.045430 0.782000 9051440
0.217657 -0.040857 0.780000 8724014
0.216820 -0.036260 0.777000 8219775
0.216262 -0.031738 0.775000 9407892
0.215704 -0.027239 0.773000 10853021
0.214867 -0.022733 0.770000 11242911
0.214867 -0.018333 0.770000 10847652
0.214309 -0.013897 0.768000 8606032
0.214030 -0.009496 0.767000 7956333
0.210123 -0.000717 0.753000 7426391
0.210681 0.003595 0.755000 7424310
0.210123 0.007889 0.753000 7491134
0.229538 -0.094150 0.817000 14195113
0.228695 -0.089152 0.814000 15971779
0.227571 -0.084086 0.810000 15199195
0.225324 -0.078672 0.802000 14665962
0.223919 -0.073628 0.797000 16245493
0.223357 -0.068900 0.795000 16710908
0.221671 -0.063871 0.789000 15132627
0.220829 -0.059137 0.786000 8165313
0.220829 -0.054646 0.786000 8874630
0.219705 -0.049899 0.782000 6506609
0.218862 -0.045256 0.779000 9054301
0.218300 -0.040700 0.777000 8336453
0.217738 -0.036167 0.775000 7762314
0.215771 -0.031451 0.768000 11176335
0.215771 -0.027063 0.768000 12231582
0.215490 -0.022645 0.767000 11174533
0.215490 -0.018262 0.767000 9526382
0.215490 -0.013879 0.767000 4924230
0.214929 -0.009471 0.765000 8153432
0.212400 -0.005040 0.756000 7887471
0.211557 -0.000717 0.753000 7756390
0.211557 0.003586 0.753000 7491916
0.211557 0.007889 0.753000 7163715
0.231094 -0.094150 0.817000 14322600
0.230246 -0.089152 0.814000 16045257
0.228549 -0.083878 0.808000 15127533
0.226851 -0.078672 0.802000 14993389
0.225437 -0.073628 0.797000 15918066
0.224306 -0.068727 0.793000 16711418
0.222891 -0.063790 0.788000 14466227
0.221760 -0.058987 0.784000 11912433
0.220629 -0.054229 0.780000 9536920
0.220629 -0.049771 0.780000 7896476
0.218649 -0.044908 0.773000 8937098
0.218366 -0.040438 0.772000 8082781
0.217800 -0.035933 0.770000 7957653
0.216951 -0.031410 0.767000 10652810
0.216951 -0.027028 0.767000 11178142
0.216386 -0.022586 0.765000 10116970
0.216386 -0.018214 0.765000 9592119
0.215820 -0.013807 0.763000 4590908
0.215254 -0.009422 0.761000 7159875
0.213840 -0.005040 0.756000 8283509
0.212991 -0.000717 0.753000 7561589
0.212709 0.003581 0.752000 7955299
0.212709 0.007878 0.752000 7294792
0.232650 -0.094150 0.817000 14507929
0.231796 -0.089152 0.814000 16109005
0.229518 -0.083670 0.806000 15135222
0.228379 -0.078672 0.802000 15324908
0.226955 -0.073628 0.797000 15524081
0.225247 -0.068553 0.791000 16704502
0.224392 -0.063790 0.788000 13789811
0.222684 -0.058836 0.782000 15590376
0.221830 -0.054159 0.779000 10202058
0.220121 -0.049325 0.773000 9210031
0.219836 -0.044850 0.772000 8814714
0.219267 -0.040333 0.770000 7822963
0.217843 -0.035700 0.765000 8218513
0.217273 -0.031247 0.763000 10126478
0.217843 -0.026957 0.765000 10188921
0.217273 -0.022527 0.763000 9067876
0.217273 -0.018167 0.763000 9594180
0.216704 -0.013770 0.761000 4273997
0.215850 -0.009385 0.758000 6235476
0.214995 -0.005033 0.755000 8612472
0.214141 -0.000716 0.752000 7362675
0.213571 0.003571 0.750000 8414827
0.213571 0.007857 0.750000 7428194
0.233633 -0.093919 0.815000 14580106
0.233347 -0.089152 0.814000 16186577
0.230480 -0.083463 0.804000 15394814
0.229907 -0.078672 0.802000 15788523
0.228473 -0.073628 0.797000 15194352
0.226753 -0.068553 0.791000 15987443
0.224747 -0.063467 0.784000 13064243
0.223600 -0.058686 0.780000 16186848
0.222167 -0.053881 0.775000 13293308
0.221307 -0.049261 0.772000 10326211
0.220160 -0.044617 0.768000 7431786
0.219873 -0.040176 0.767000 7627914
0.218727 -0.035607 0.763000 8813197
0.218727 -0.031247 0.763000 9793938
0.218727 -0.026887 0.763000 9267283
0.218153 -0.022468 0.761000 8938079
0.218153 -0.018119 0.761000 8609872
0.217867 -0.013752 0.760000 5459295
0.216720 -0.009360 0.756000 6898788
0.215860 -0.005020 0.753000 9205372
0.215000 -0.000714 0.750000 7754096
0.215000 0.003571 0.750000 8677747
0.214140 0.007826 0.747000 8742012
0.235186 -0.093919 0.815000 14715558
0.234897 -0.089152 0.814000 16241101
0.232011 -0.083463 0.804000 15721980
0.230857 -0.078476 0.800000 16177382
0.229991 -0.073628 0.797000 14934005
0.228260 -0.068553 0.791000 15254244
0.226240 -0.063467 0.784000 12408400
0.224797 -0.058610 0.779000 16696997
0.223066 -0.053742 0.773000 16317949
0.221623 -0.049006 0.768000 11451871
0.221334 -0.044559 0.767000 6053020
0.220180 -0.039967 0.763000 7369101
0.219603 -0.035513 0.761000 9406617
0.219603 -0.031165 0.761000 9405594
0.219603 -0.026816 0.761000 8352090
0.219314 -0.022438 0.760000 8740704
0.219314 -0.018095 0.760000 7691594
0.218160 -0.013680 0.756000 6575964
0.217871 -0.009348 0.755000 7557733
0.216429 -0.005000 0.750000 9727868
0.215851 -0.000712 0.748000 8078711
0.215563 0.003557 0.747000 8869226
0.214986 0.007805 0.745000 10051969
0.213543 0.011981 0.740000 8808035
0.236738 -0.093919 0.815000 15046850
0.235867 -0.088933 0.812000 15580106
0.233543 -0.083463 0.804000 15786490
0.232381 -0.078476 0.800000 15650785
0.230929 -0.073443 0.795000 15658234
0.229186 -0.068380 0.789000 14598869
0.227152 -0.063305 0.782000 11950957
0.226281 -0.058610 0.779000 13864555
0.224248 -0.053672 0.772000 16514302
0.223086 -0.049006 0.768000 14019835
0.222214 -0.044443 0.765000 9014477
0.221052 -0.039862 0.761000 8749969
0.220762 -0.035467 0.760000 9734820
0.220762 -0.031124 0.760000 10266018
0.220762 -0.026781 0.760000 8218209
0.220181 -0.022379 0.758000 8477794
0.220181 -0.018048 0.758000 7691075
0.218438 -0.013608 0.752000 6973017
0.217857 -0.009286 0.750000 7625317
0.217276 -0.004987 0.748000 10058363
0.216986 -0.000711 0.747000 9395837
0.216405 0.003548 0.745000 8469858
0.215824 0.007784 0.743000 9463429
0.214952 0.011981 0.740000 9927533
0.214662 0.016188 0.739000 8349311
0.238290 -0.093919 0.815000 15374721
0.237413 -0.088933 0.812000 14921420
0.235074 -0.083463 0.804000 15793146
0.233905 -0.078476 0.800000 15123425
0.232443 -0.073443 0.795000 16449276
0.230689 -0.068380 0.789000 13931976
0.228642 -0.063305 0.782000 11496035
0.227765 -0.058610 0.779000 10965859
0.225718 -0.053672 0.772000 16709876
0.224549 -0.049006 0.768000 16577019
0.223087 -0.044327 0.763000 12044006
0.222210 -0.039810 0.760000 10066875
0.221625 -0.035373 0.758000 10061467
0.221625 -0.031042 0.758000 11113367
0.221040 -0.026640 0.756000 8146775
0.219870 -0.022202 0.752000 8216681
0.219870 -0.017905 0.752000 7753814
0.218701 -0.013535 0.748000 7299678
0.218701 -0.009261 0.748000 7691881
0.217824 -0.004967 0.745000 10319982
0.217239 -0.000708 0.743000 10649465
0.216947 0.003533 0.742000 8081511
0.216362 0.007752 0.740000 8876921
0.216070 0.011965 0.739000 10974829
0.216070 0.016188 0.739000 9277316
0.239549 -0.093804 0.814000 15170880
0.238960 -0.088933 0.812000 14848975
0.236606 -0.083463 0.804000 15722489
0.234840 -0.078280 0.798000 14924257
0.233957 -0.073443 0.795000 16118269
0.232191 -0.068380 0.789000 13007034
0.230131 -0.063305 0.782000 10835288
0.228660 -0.058460 0.777000 11144795
0.227189 -0.053672 0.772000 15851497
0.226011 -0.049006 0.768000 16643835
0.224540 -0.044327 0.763000 14345982
0.223657 -0.039810 0.760000 12763108
0.223069 -0.035373 0.758000 10062737
0.222186 -0.030919 0.755000 10259597
0.221303 -0.026499 0.752000 6961485
0.220126 -0.022084 0.748000 8414832
0.220126 -0.017810 0.748000 8284009
0.219831 -0.013517 0.747000 7362148
0.219243 -0.009224 0.745000 7822956
0.218654 -0.004953 0.743000 11111776
0.218360 -0.000707 0.742000 10914421
0.217771 0.003524 0.740000 9068140
0.217477 0.007742 0.739000 9070188
0.216889 0.011932 0.737000 10910830
0.216889 0.016144 0.737000 9866888
0.217771 0.020438 0.740000 7949909
0.241099 -0.093804 0.814000 14897999
0.240507 -0.088933 0.812000 14728678
0.238730 -0.083670 0.806000 15650040
0.236952 -0.078476 0.800000 14730725
0.235471 -0.073443 0.795000 15854334
0.233694 -0.068380 0.789000 12089523
0.231621 -0.063305 0.782000 10178133
0.230140 -0.058460 0.777000 11361918
0.228659 -0.053672 0.772000 15002606
0.227474 -0.049006 0.768000 16708854
0.225401 -0.044210 0.761000 16642806
0.223920 -0.039600 0.756000 15393265
0.223624 -0.035233 0.755000 10132165
0.222735 -0.030796 0.752000 9394027
0.221550 -0.026358 0.748000 5844564
0.221550 -0.022084 0.748000 8545650
0.221254 -0.017786 0.747000 8748144
0.220662 -0.013481 0.745000 7357771
0.219773 -0.009187 0.742000 8019025
0.219773 -0.004947 0.742000 11826525
0.219181 -0.000705 0.740000 11178352
0.218885 0.003519 0.739000 9989984
0.218292 0.007721 0.737000 9264991
0.217996 0.011916 0.736000 10847349
0.218292 0.016144 0.737000 10456193
0.219181 0.020438 0.740000 8937565
0.242053 -0.093573 0.812000 14971485
0.242053 -0.088933 0.812000 15657725
0.240265 -0.083670 0.806000 15718646
0.237880 -0.078280 0.798000 14931945
0.236390 -0.073258 0.793000 16053246
0.234899 -0.068293 0.788000 12147116
0.233110 -0.063305 0.782000 10309714
0.231024 -0.058310 0.775000 11760546
0.229533 -0.053533 0.770000 15128563
0.228639 -0.048942 0.767000 16577777
0.226552 -0.044152 0.760000 16048621
0.225062 -0.039548 0.755000 16055038
0.224466 -0.035140 0.753000 12568312
0.223571 -0.030714 0.750000 5505354
0.222975 -0.026358 0.748000 6111322
0.222677 -0.022054 0.747000 8216436
0.222081 -0.017738 0.745000 8149879
0.221485 -0.013445 0.743000 6825267
0.220590 -0.009162 0.740000 7810357
0.220590 -0.004933 0.740000 9328730
0.220292 -0.000704 0.739000 10253163
0.219696 0.003510 0.737000 10913108
0.219398 0.007710 0.736000 9923921
0.219398 0.011916 0.736000 11243132
0.219696 0.016144 0.737000 9927033
0.220590 0.020438 0.740000 8744549
0.243600 -0.093573 0.812000 15104136
0.243000 -0.088714 0.810000 16507630
0.241200 -0.083463 0.804000 15848431
0.239100 -0.078182 0.797000 15128554
0.237900 -0.073258 0.793000 16252158
0.236400 -0.068293 0.788000 12150171
0.234600 -0.063305 0.782000 10439779
0.232500 -0.058310 0.775000 12094116
0.231000 -0.053533 0.770000 15258609
0.230100 -0.048942 0.767000 16442090
0.228000 -0.044152 0.760000 15385574
0.226500 -0.039548 0.755000 16643835
0.225600 -0.035093 0.752000 15004155
0.224400 -0.030632 0.748000 1660830
0.223500 -0.026252 0.745000 6376826
0.222900 -0.021936 0.743000 7888238
0.222900 -0.017690 0.743000 7553143
0.222000 -0.013390 0.740000 6236464
0.221700 -0.009150 0.739000 7674947
0.221100 -0.004913 0.737000 6837074
0.221100 -0.000702 0.737000 9330019
0.220800 0.003505 0.736000 11762521
0.220800 0.007710 0.736000 10579304
0.220800 0.011916 0.736000 11636348
0.221100 0.016144 0.737000 9400420
0.222000 0.020438 0.740000 8545885
0.245147 -0.093573 0.812000 15179955
0.244543 -0.088714 0.810000 15184095
0.242731 -0.083463 0.804000 15783655
0.240618 -0.078182 0.797000 15193579
0.238807 -0.073073 0.791000 15789566
0.237901 -0.068293 0.788000 12347530
0.235486 -0.063143 0.780000 10971252
0.233976 -0.058310 0.775000 12221862
0.232467 -0.053533 0.770000 15456238
0.231561 -0.048942 0.767000 15916003
0.228844 -0.044036 0.758000 15323102
0.227334 -0.039443 0.753000 16445176
0.226429 -0.035000 0.750000 15792126
0.225523 -0.030591 0.747000 8828658
0.224315 -0.026182 0.743000 8418202
0.224013 -0.021907 0.742000 7166057
0.223410 -0.017619 0.740000 7358071
0.222504 -0.013336 0.737000 7220269
0.222202 -0.009112 0.736000 8471632
0.222202 -0.004907 0.736000 8017226
0.221598 -0.000699 0.734000 9728090
0.221598 0.003495 0.734000 10972510
0.221598 0.007690 0.734000 10714750
0.221598 0.011884 0.734000 11505020
0.222504 0.016144 0.737000 8741710
0.246693 -0.093573 0.812000 15237290
0.246086 -0.088714 0.810000 13812965
0.244263 -0.083463 0.804000 15785960
0.242136 -0.078182 0.797000 15193835
0.240313 -0.073073 0.791000 15334140
0.239402 -0.068293 0.788000 12537722
0.236971 -0.063143 0.780000 11564645
0.235452 -0.058310 0.775000 12296369
0.233933 -0.053533 0.770000 15718894
0.233022 -0.048942 0.767000 15322850
0.230288 -0.044036 0.758000 15262433
0.228769 -0.039443 0.753000 16183031
0.227857 -0.035000 0.750000 16577529
0.226946 -0.030591 0.747000 15983862
0.225427 -0.026147 0.742000 10396618
0.224819 -0.021848 0.740000 6380431
0.222996 -0.017476 0.734000 7233924
0.222389 -0.013246 0.732000 8139593
0.222389 -0.009063 0.732000 9265245
0.222085 -0.004873 0.731000 9136455
0.222085 -0.000696 0.731000 10125663
0.222085 0.003481 0.731000 10122850
0.222389 0.007669 0.732000 10847864
0.222389 0.011851 0.732000 11373184
0.223604 0.016122 0.736000 8082007
0.224515 0.020410 0.739000 8480088
0.248240 -0.093573 0.812000 15181472
0.247629 -0.088714 0.810000 14401515
0.245794 -0.083463 0.804000 15718376
0.243654 -0.078182 0.797000 15453163
0.241820 -0.073073 0.791000 14732537
0.240903 -0.068293 0.788000 12675947
0.238457 -0.063143 0.780000 11500630
0.236929 -0.058310 0.775000 13610429
0.234483 -0.053325 0.767000 15522285
0.233871 -0.048814 0.765000 15320545
0.230814 -0.043862 0.755000 15390692
0.229897 -0.039390 0.752000 16381175
0.228674 -0.034907 0.748000 16247028
0.227146 -0.030428 0.743000 16250874
0.225923 -0.026041 0.739000 13095674
0.224394 -0.021670 0.734000 8874933
0.223783 -0.017429 0.732000 8943761
0.222866 -0.013191 0.729000 7752806
0.223477 -0.009050 0.731000 9330282
0.222866 -0.004860 0.729000 10520899
0.222866 -0.000694 0.729000 9661540
0.222866 0.003471 0.729000 10519142
0.223477 0.007658 0.731000 10979697
0.223783 0.011851 0.732000 11241348
0.224394 0.016078 0.734000 8018015
0.249787 -0.093573 0.812000 15114925
0.248556 -0.088495 0.808000 14993642
0.245480 -0.082840 0.798000 15649255
0.244557 -0.077986 0.795000 15655916
0.243327 -0.073073 0.791000 14077932
0.241789 -0.068120 0.786000 12733284
0.239635 -0.063062 0.779000 11501659
0.237482 -0.058084 0.772000 14861245
0.235944 -0.053325 0.767000 15393512
0.234713 -0.048687 0.763000 15322855
0.232252 -0.043862 0.755000 15522792
0.231330 -0.039390 0.752000 16509684
0.229791 -0.034860 0.747000 15916524
0.228253 -0.030387 0.742000 16444919
0.226715 -0.025970 0.737000 15793404
0.225792 -0.021670 0.734000 11317465
0.224870 -0.017405 0.731000 10655664
0.223947 -0.013173 0.728000 7364468
0.223947 -0.009013 0.728000 9329252
0.223947 -0.004853 0.728000 11893570
0.223947 -0.000693 0.728000 9264490
0.224254 0.003471 0.729000 10912878
0.224870 0.007658 0.731000 11045745
0.225177 0.011851 0.732000 11043961
0.225792 0.016078 0.734000 7953515
0.251333 -0.093573 0.812000 15185849
0.249476 -0.088276 0.806000 15256553
0.246690 -0.082736 0.797000 15652326
0.246071 -0.077986 0.795000 15985133
0.244214 -0.072889 0.789000 13474782
0.243286 -0.068120 0.786000 10237790
0.240500 -0.062900 0.777000 10975584
0.238952 -0.058084 0.772000 15454654
0.237405 -0.053325 0.767000 15455459
0.235548 -0.048559 0.761000 15590126
0.233690 -0.043862 0.755000 15654380
0.232762 -0.039390 0.752000 16245233
0.231214 -0.034860 0.747000 15719140
0.229667 -0.030387 0.742000 16049396
0.227810 -0.025935 0.736000 16185342
0.226571 -0.021611 0.732000 14019580
0.225643 -0.017357 0.729000 12498383
0.224714 -0.013137 0.726000 9333891
0.224714 -0.008989 0.726000 10321245
0.224714 -0.004840 0.726000 10313282
0.224714 -0.000691 0.726000 10057327
0.225333 0.003467 0.728000 10979703
0.226262 0.007658 0.731000 10583665
0.226571 0.011851 0.732000 10650479
0.227190 0.016078 0.734000 8809334
0.250389 -0.088057 0.804000 15521242
0.248209 -0.082736 0.797000 15718635
0.246963 -0.077790 0.793000 16314099
0.245717 -0.072889 0.789000 12871110
0.244160 -0.067947 0.784000 7684698
0.241357 -0.062738 0.775000 10515844
0.240423 -0.058084 0.772000 16043982
0.238866 -0.053325 0.767000 15513568
0.236997 -0.048559 0.761000 15852525
0.235129 -0.043862 0.755000 15719147
0.234194 -0.039390 0.752000 15918066
0.232637 -0.034860 0.747000 15455458
0.230457 -0.030305 0.740000 15657718
0.229211 -0.025935 0.736000 16511479
0.227966 -0.021611 0.732000 16709115
0.226720 -0.017333 0.728000 14344167
0.226097 -0.013137 0.726000 11245736
0.225786 -0.008976 0.725000 11308384
0.225786 -0.004833 0.725000 8677978
0.225786 -0.000690 0.725000 10849143
0.226720 0.003467 0.728000 11044984
0.227654 0.007658 0.731000 10055025
0.227966 0.011851 0.732000 10255987
0.228589 0.016078 0.734000 9664373
0.251920 -0.088057 0.804000 15450827
0.249727 -0.082736 0.797000 15719663
0.248473 -0.077790 0.793000 16513529
0.246907 -0.072796 0.788000 11948462
0.245653 -0.067947 0.784000 7680599
0.242833 -0.062738 0.775000 10646695
0.241893 -0.058084 0.772000 16382942
0.240327 -0.053325 0.767000 15450333
0.238447 -0.048559 0.761000 15787244
0.236567 -0.043862 0.755000 15454442
0.235000 -0.039286 0.750000 15852787
0.234060 -0.034860 0.747000 15783648
0.231867 -0.030305 0.740000 15922681
0.230927 -0.025970 0.737000 16247280
0.229047 -0.021582 0.731000 16446714
0.228107 -0.017333 0.728000 15462142
0.227167 -0.013119 0.725000 12959437
0.226540 -0.008951 0.723000 10385762
0.226540 -0.004820 0.723000 9730162
0.227167 -0.000690 0.725000 10848639
0.227480 0.003457 0.726000 10717305
0.228420 0.007637 0.729000 9661553
0.229360 0.011851 0.732000 10056312
0.229987 0.016078 0.734000 9729651
0.253451 -0.088057 0.804000 15383486
0.251245 -0.082736 0.797000 15783644
0.249984 -0.077790 0.793000 16707826
0.248408 -0.072796 0.788000 11075984
0.247147 -0.067947 0.784000 7685461
0.244310 -0.062738 0.775000 10854304
0.242733 -0.057933 0.770000 16706528
0.241157 -0.053186 0.765000 15443175
0.239896 -0.048559 0.761000 15654373
0.238005 -0.043862 0.755000 15258092
0.236429 -0.039286 0.750000 15720429
0.234852 -0.034767 0.745000 16044005
0.232961 -0.030264 0.739000 16183286
0.232015 -0.025935 0.736000 16046831
0.229809 -0.021523 0.729000 16184316
0.228863 -0.017286 0.726000 16643579
0.227917 -0.013083 0.723000 14603995
0.227602 -0.008939 0.722000 9530214
0.227602 -0.004813 0.722000 10781305
0.227917 -0.000689 0.723000 10847870
0.228863 0.003457 0.726000 10321003
0.229809 0.007637 0.729000 9333614
0.230754 0.011851 0.732000 9860469
0.231385 0.016078 0.734000 9728362
0.254983 -0.088057 0.804000 14987698
0.252763 -0.082736 0.797000 15256009
0.251494 -0.077790 0.793000 16053482
0.249909 -0.072796 0.788000 11027826
0.248006 -0.067773 0.782000 8729683
0.245786 -0.062738 0.775000 11768216
0.244200 -0.057933 0.770000 16252129
0.242614 -0.053186 0.765000 15452913
0.241346 -0.048559 0.761000 15519967
0.239443 -0.043862 0.755000 15390957
0.237223 -0.039181 0.748000 15588584
0.236271 -0.034767 0.745000 15982314
0.234369 -0.030264 0.739000 15916531
0.232783 -0.025865 0.734000 15983085
0.231831 -0.021582 0.731000 16381181
0.230246 -0.017286 0.726000 16577528
0.228977 -0.013065 0.722000 15069160
0.228343 -0.008914 0.720000 9729129
0.228977 -0.004813 0.722000 10981504
0.229294 -0.000689 0.723000 11044989
0.230246 0.003457 0.726000 9466206
0.230880 0.007627 0.728000 9466986
0.231831 0.011835 0.731000 9861234
0.232783 0.016078 0.734000 9795168
0.254281 -0.082736 0.797000 14792640
0.253005 -0.077790 0.793000 15388882
0.251410 -0.072796 0.788000 10968224
0.248857 -0.067600 0.780000 9726080
0.247900 -0.062900 0.777000 12748173
0.245029 -0.057783 0.768000 15786462
0.244071 -0.053186 0.765000 15396595
0.242476 -0.048495 0.760000 15321572
0.240881 -0.043862 0.755000 15590124
0.238648 -0.039181 0.748000 15391461
0.237690 -0.034767 0.745000 15851246
0.235776 -0.030264 0.739000 15589616
0.234181 -0.025865 0.734000 15984367
0.232586 -0.021523 0.729000 16509410
0.231629 -0.017286 0.726000 16444920
0.230352 -0.013065 0.722000 15521253
0.229714 -0.008914 0.720000 9926262
0.230352 -0.004813 0.722000 11112321
0.230671 -0.000689 0.723000 11241858
0.231629 0.003457 0.726000 8549480
0.232586 0.007637 0.729000 9664876
0.233543 0.011851 0.732000 9795700
0.234181 0.016078 0.734000 9860711
0.254515 -0.077790 0.793000 14791865
0.252910 -0.072796 0.788000 12823501
0.250343 -0.067600 0.780000 11569837
0.249380 -0.062900 0.777000 12552578
0.246491 -0.057783 0.768000 15654107
0.244887 -0.053047 0.763000 15392756
0.243924 -0.048495 0.760000 15255786
0.242319 -0.043862 0.755000 15523051
0.239751 -0.039129 0.747000 15259363
0.238468 -0.034673 0.743000 15720178
0.237184 -0.030264 0.739000 15653102
0.235579 -0.025865 0.734000 15984112
0.233974 -0.021523 0.729000 14993607
0.233011 -0.017286 0.726000 16116471
0.231086 -0.013029 0.720000 14470882
0.230765 -0.008902 0.719000 10190466
0.231086 -0.004800 0.720000 11112066
0.231728 -0.000688 0.722000 10516870
0.233011 0.003457 0.726000 9073522
0.233974 0.007637 0.729000 9795950
0.234937 0.011851 0.732000 9729910
0.235579 0.016078 0.734000 9795437
0.254411 -0.072796 0.788000 14668494
0.251829 -0.067600 0.780000 13350856
0.250860 -0.062900 0.777000 12423091
0.247954 -0.057783 0.768000 15520716
0.246340 -0.053047 0.763000 15391466
0.245371 -0.048495 0.760000 15190761
0.243757 -0.043862 0.755000 15457005
0.241174 -0.039129 0.747000 15061739
0.239883 -0.034673 0.743000 15590131
0.237946 -0.030182 0.737000 15654122
0.236331 -0.025794 0.732000 15982324
0.235363 -0.021523 0.729000 13419219
0.234071 -0.017262 0.725000 15726837
0.232457 -0.013029 0.720000 13351117
0.232134 -0.008902 0.719000 10454664
0.232457 -0.004800 0.720000 11046532
0.233426 -0.000689 0.723000 9791880
0.234394 0.003457 0.726000 9598062
0.235363 0.007637 0.729000 9927537
0.236331 0.011851 0.732000 9664887
0.237623 0.016122 0.736000 9729393
0.255263 -0.072611 0.786000 14598862
0.253314 -0.067600 0.780000 14542563
0.252340 -0.062900 0.777000 13484772
0.249417 -0.057783 0.768000 14468029
0.247793 -0.053047 0.763000 15452384
0.246170 -0.048368 0.758000 15386088
0.244546 -0.043746 0.753000 15719918
0.242597 -0.039129 0.747000 15390195
0.240973 -0.034627 0.742000 15721204
0.239350 -0.030182 0.737000 15458279
0.237726 -0.025794 0.732000 15985400
0.236427 -0.021493 0.728000 13617119
0.235452 -0.017262 0.725000 15656691
0.233829 -0.013029 0.720000 12694969
0.233504 -0.008902 0.719000 10454926
0.233829 -0.004800 0.720000 11177861
0.234803 -0.000689 0.723000 9927561
0.236427 0.003467 0.728000 9796202
0.236751 0.007637 0.729000 9993332
0.237726 0.011851 0.732000 9927800
0.239025 0.016122 0.736000 9992564
0.256760 -0.072611 0.786000 14531521
0.254800 -0.067600 0.780000 15713993
0.253820 -0.062900 0.777000 14538167
0.250553 -0.057708 0.767000 13419450
0.248593 -0.052908 0.761000 15445742
0.247613 -0.048368 0.758000 15522025
0.245653 -0.043688 0.752000 15981807
0.244020 -0.039129 0.747000 15654895
0.242387 -0.034627 0.742000 15852279
0.240753 -0.030182 0.737000 15193318
0.239120 -0.025794 0.732000 15990267
0.237813 -0.021493 0.728000 13747171
0.236180 -0.017214 0.723000 15592429
0.235200 -0.013029 0.720000 11966138
0.234873 -0.008902 0.719000 10522256
0.235200 -0.004800 0.720000 11240317
0.236180 -0.000689 0.723000 10129295
0.237813 0.003467 0.728000 9926260
0.238793 0.007658 0.731000 10059126
0.239120 0.011851 0.732000 10124412
0.240753 0.016144 0.737000 10255478
0.258257 -0.072611 0.786000 14465716
0.256286 -0.067600 0.780000 14523312
0.255957 -0.063062 0.779000 13939338
0.252014 -0.057708 0.767000 13350071
0.249714 -0.052838 0.760000 15653627
0.249057 -0.048368 0.758000 15457002
0.247086 -0.043688 0.752000 15719152
0.244786 -0.039024 0.745000 15587820
0.243800 -0.034627 0.742000 15853306
0.241829 -0.030141 0.736000 15193829
0.240514 -0.025794 0.732000 15922430
0.239200 -0.021493 0.728000 14203624
0.237557 -0.017214 0.723000 15392230
0.236571 -0.013029 0.720000 10782907
0.236243 -0.008902 0.719000 10520209
0.236571 -0.004800 0.720000 9987701
0.237557 -0.000689 0.723000 10784660
0.239200 0.003467 0.728000 9729150
0.240186 0.007658 0.731000 9928056
0.240514 0.011851 0.732000 10124416
0.242157 0.016144 0.737000 10189688
0.257771 -0.067600 0.780000 13283001
0.257441 -0.063062 0.779000 13344153
0.253475 -0.057708 0.767000 13221029
0.251162 -0.052838 0.760000 15855612
0.250501 -0.048368 0.758000 15390183
0.247857 -0.043571 0.750000 15457522
0.246205 -0.039024 0.745000 15521767
0.245213 -0.034627 0.742000 15920373
0.242570 -0.030059 0.734000 15193064
0.241578 -0.025759 0.731000 15793662
0.239926 -0.021434 0.726000 14600420
0.238604 -0.017190 0.722000 15196394
0.237943 -0.013029 0.720000 9601706
0.237612 -0.008902 0.719000 10459022
0.237943 -0.004800 0.720000 8746624
0.238604 -0.000688 0.722000 11373441
0.240587 0.003467 0.728000 9533563
0.241578 0.007658 0.731000 9796470
0.241909 0.011851 0.732000 10058876
0.243561 0.016144 0.737000 10123896
0.258260 -0.062900 0.777000 13477543
0.254936 -0.057708 0.767000 13022868
0.252610 -0.052838 0.760000 15722749
0.251945 -0.048368 0.758000 15390181
0.249950 -0.043688 0.752000 15852276
0.247624 -0.039024 0.745000 15521251
0.246627 -0.034627 0.742000 15786479
0.244632 -0.030141 0.736000 15192300
0.242970 -0.025759 0.731000 15527422
0.241309 -0.021434 0.726000 15391968
0.239979 -0.017190 0.722000 15327469
0.239314 -0.013029 0.720000 9134233
0.238982 -0.008902 0.719000 11113610
0.239314 -0.004800 0.720000 10259851
0.240311 -0.000689 0.723000 11109486
0.241973 0.003467 0.728000 9399929
0.242970 0.007658 0.731000 9730163
0.243968 0.011884 0.734000 10058616
0.244965 0.016144 0.737000 10058616
0.259740 -0.062900 0.777000 13612728
0.256397 -0.057708 0.767000 12758946
0.254057 -0.052838 0.760000 15593682
0.252720 -0.048240 0.756000 15391971
0.250714 -0.043571 0.750000 16252665
0.249043 -0.039024 0.745000 15454697
0.248040 -0.034627 0.742000 15657458
0.246034 -0.030141 0.736000 15194093
0.243694 -0.025689 0.729000 15330798
0.242691 -0.021434 0.726000 16175581
0.241354 -0.017190 0.722000 15528433
0.240686 -0.013029 0.720000 8682403
0.240351 -0.008902 0.719000 11703180
0.241354 -0.004813 0.722000 11768209
0.241689 -0.000689 0.723000 10847356
0.243360 0.003467 0.728000 9207164
0.244363 0.007658 0.731000 9730678
0.244697 0.011851 0.732000 10058875
0.246034 0.016122 0.736000 10059129
0.255505 -0.052838 0.760000 14733735
0.254160 -0.048240 0.756000 15656930
0.252143 -0.043571 0.750000 16448254
0.251134 -0.039129 0.747000 15256303
0.248781 -0.034533 0.740000 15655669
0.247436 -0.030141 0.736000 15324399
0.245755 -0.025759 0.731000 14668254
0.244074 -0.021434 0.726000 15587035
0.242730 -0.017190 0.722000 15197940
0.242057 -0.013029 0.720000 9268653
0.242057 -0.008914 0.720000 11637645
0.242730 -0.004813 0.722000 11703703
0.243066 -0.000689 0.723000 11176842
0.244747 0.003467 0.728000 10258560
0.245755 0.007658 0.731000 9992569
0.246091 0.011851 0.732000 10059389
0.247436 0.016122 0.736000 10124409
0.256952 -0.052838 0.760000 13941940
0.255600 -0.048240 0.756000 15917264
0.253571 -0.043571 0.750000 16644094
0.252557 -0.039129 0.747000 15063024
0.250190 -0.034533 0.740000 15653876
0.248162 -0.030059 0.734000 15391214
0.246471 -0.025689 0.729000 14075873
0.245119 -0.021405 0.725000 14994140
0.244105 -0.017190 0.722000 14936307
0.243090 -0.013010 0.719000 9863334
0.243429 -0.008914 0.720000 11637133
0.244105 -0.004813 0.722000 11572114
0.244443 -0.000689 0.723000 11571079
0.246133 0.003467 0.728000 11240064
0.247148 0.007658 0.731000 10254456
0.247486 0.011851 0.732000 10059131
0.249176 0.016144 0.737000 10254969
0.258400 -0.052838 0.760000 13742784
0.257040 -0.048240 0.756000 14995903
0.255000 -0.043571 0.750000 16381182
0.253980 -0.039129 0.747000 15587569
0.251600 -0.034533 0.740000 15786738
0.249560 -0.030059 0.734000 15457261
0.247860 -0.025689 0.729000 14139619
0.246500 -0.021405 0.725000 15255773
0.245480 -0.017190 0.722000 14736626
0.244800 -0.013029 0.720000 10124703
0.244800 -0.008914 0.720000 11637132
0.245480 -0.004813 0.722000 11702926
0.245820 -0.000689 0.723000 11504004
0.247520 0.003467 0.728000 11238017
0.248540 0.007658 0.731000 10517879
0.249560 0.011884 0.734000 10124665
0.250580 0.016144 0.737000 10058360
0.258138 -0.048176 0.755000 14006199
0.256429 -0.043571 0.750000 16186601
0.255403 -0.039129 0.747000 16052215
0.253010 -0.034533 0.740000 15985137
0.250958 -0.030059 0.734000 15456749
0.249249 -0.025689 0.729000 14273757
0.247881 -0.021405 0.725000 15457247
0.246855 -0.017190 0.722000 14540017
0.245830 -0.013010 0.719000 10387092
0.246171 -0.008914 0.720000 11637130
0.246855 -0.004813 0.722000 11768205
0.247197 -0.000689 0.723000 11373445
0.248907 0.003467 0.728000 11237754
0.249932 0.007658 0.731000 10780024
0.250958 0.011884 0.734000 10189943
0.259576 -0.048176 0.755000 14130095
0.257170 -0.043455 0.748000 15721427
0.256826 -0.039129 0.747000 16383486
0.254075 -0.034487 0.739000 15984879
0.251669 -0.029977 0.732000 15456493
0.250293 -0.025653 0.728000 13809878
0.248574 -0.021346 0.723000 16053728
0.248230 -0.017190 0.722000 14145263
0.247199 -0.013010 0.719000 10650250
0.247543 -0.008914 0.720000 11571335
0.248230 -0.004813 0.722000 11702669
0.248574 -0.000689 0.723000 11372934
0.250293 0.003467 0.728000 11106676
0.251325 0.007658 0.731000 10910584
0.252356 0.011884 0.734000 10320501
0.258594 -0.043455 0.748000 15253960
0.258249 -0.039129 0.747000 16708331
0.255829 -0.034533 0.740000 16049394
0.253063 -0.029977 0.732000 15455212
0.252026 -0.025689 0.729000 13418210
0.250643 -0.021405 0.725000 16574183
0.248914 -0.017143 0.720000 13821935
0.248569 -0.013010 0.719000 10845319
0.248914 -0.008914 0.720000 11571077
0.249606 -0.004813 0.722000 11571596
0.249951 -0.000689 0.723000 11374225
0.251680 0.003467 0.728000 10975615
0.252717 0.007658 0.731000 11106681
0.253754 0.011884 0.734000 10451315
0.259671 -0.039129 0.747000 15588312
0.256890 -0.034487 0.739000 16115445
0.254457 -0.029977 0.732000 15257067
0.253414 -0.025689 0.729000 14204397
0.252024 -0.021405 0.725000 16446189
0.250286 -0.017143 0.720000 13552878
0.249938 -0.013010 0.719000 11176324
0.250286 -0.008914 0.720000 11636355
0.250981 -0.004813 0.722000 11636876
0.251329 -0.000689 0.723000 11571867
0.253067 0.003467 0.728000 11171722
0.254457 0.007669 0.732000 11172474
0.255848 0.011916 0.736000 10582385
0.261094 -0.039129 0.747000 14468300
0.258648 -0.034533 0.740000 16178667
0.255851 -0.029977 0.732000 15059945
0.254803 -0.025689 0.729000 14932214
0.252706 -0.021346 0.723000 16248309
0.251657 -0.017143 0.720000 13291493
0.251308 -0.013010 0.719000 11437696
0.251657 -0.008914 0.720000 11701897
0.252356 -0.004813 0.722000 11637132
0.253405 -0.000690 0.725000 11768967
0.254803 0.003471 0.729000 11306631
0.255851 0.007669 0.732000 11238012
0.257250 0.011916 0.736000 10712938
0.260057 -0.034533 0.740000 15651808
0.256191 -0.029854 0.729000 15053287
0.255840 -0.025653 0.728000 15790590
0.254083 -0.021346 0.723000 16380924
0.253029 -0.017143 0.720000 13154012
0.252677 -0.013010 0.719000 11372924
0.253029 -0.008914 0.720000 11636623
0.253731 -0.004813 0.722000 11637388
0.254786 -0.000690 0.725000 11174771
0.256894 0.003481 0.731000 11704965
0.257246 0.007669 0.732000 11237757
0.259003 0.011932 0.737000 10449763
0.261467 -0.034533 0.740000 15123665
0.257227 -0.029813 0.728000 14996705
0.256520 -0.025583 0.726000 16709886
0.255107 -0.021316 0.722000 16513020
0.254400 -0.017143 0.720000 13016789
0.254047 -0.013010 0.719000 11307392
0.254400 -0.008914 0.720000 11570831
0.255107 -0.004813 0.722000 11637126
0.256167 -0.000690 0.725000 10581112
0.258287 0.003481 0.731000 12030081
0.259347 0.007690 0.734000 11303039
0.260407 0.011932 0.737000 10188911
0.258613 -0.029813 0.728000 15192027
0.257903 -0.025583 0.726000 16710398
0.256482 -0.021316 0.722000 16643835
0.255416 -0.017119 0.719000 12425678
0.255416 -0.013010 0.719000 11373699
0.255771 -0.008914 0.720000 11439503
0.256482 -0.004813 0.722000 11768192
0.257548 -0.000690 0.725000 10254204
0.259679 0.003481 0.731000 11176317
0.260745 0.007690 0.734000 11107968
0.260000 -0.029813 0.728000 15321288
0.259286 -0.025583 0.726000 16710900
0.257857 -0.021316 0.722000 16710397
0.257143 -0.017143 0.720000 11894967
0.256786 -0.013010 0.719000 11373446
0.257143 -0.008914 0.720000 11373198
0.257857 -0.004813 0.722000 11831938
0.258929 -0.000690 0.725000 9994621
0.261429 0.003486 0.732000 10256249
0.262143 0.007690 0.734000 10910846
0.259591 -0.025477 0.723000 15983849
0.258514 -0.021257 0.720000 16711422
0.258155 -0.017119 0.719000 11766176
0.258155 -0.013010 0.719000 11439753
0.258514 -0.008914 0.720000 11242381
0.259591 -0.004820 0.723000 11042181
0.260669 -0.000691 0.726000 10191486
0.262823 0.003486 0.732000 10321269
0.263541 0.007690 0.734000 10321020
0.260969 -0.025477 0.723000 15320527
0.259525 -0.021228 0.719000 16709616
0.258803 -0.017071 0.717000 11561108
0.258803 -0.012974 0.717000 11439755
0.259525 -0.008902 0.719000 11112842
0.260608 -0.004813 0.722000 10190465
0.261690 -0.000690 0.725000 10452862
0.263856 0.003481 0.731000 10388094
0.264217 0.007669 0.732000 9798017
0.266022 0.011932 0.737000 11306119
0.260894 -0.021228 0.719000 16511970
0.260169 -0.017071 0.717000 11436168
0.260169 -0.012974 0.717000 11440269
0.261257 -0.008914 0.720000 11045511
0.261983 -0.004813 0.722000 10256254
0.263071 -0.000690 0.725000 10517886
0.265249 0.003481 0.731000 10915462
0.266337 0.007690 0.734000 10191493
0.267426 0.011932 0.737000 10973314
0.262264 -0.021228 0.719000 16306643
0.261534 -0.017071 0.717000 11371958
0.262264 -0.013010 0.719000 11439249
0.262629 -0.008914 0.720000 11044490
0.263358 -0.004813 0.722000 10321273
0.264452 -0.000690 0.725000 10582653
0.265911 0.003471 0.729000 11440261
0.267006 0.007669 0.732000 10650765
0.268830 0.011932 0.737000 10585988
0.262900 -0.017071 0.717000 13089763
0.263633 -0.013010 0.719000 11109525
0.264000 -0.008914 0.720000 10781837
0.265100 -0.004820 0.723000 10255732
0.265833 -0.000690 0.725000 10451835
0.267300 0.003471 0.729000 11441541
0.268400 0.007669 0.732000 11112085
0.265003 -0.013010 0.719000 10789564
0.266109 -0.008939 0.722000 10586506
0.266477 -0.004820 0.723000 10124157
0.267214 -0.000690 0.725000 10255223
0.269426 0.003481 0.731000 11371646
0.269794 0.007669 0.732000 11571340
0.266743 -0.013029 0.720000 13290723
0.267854 -0.008951 0.723000 11112326
0.268595 -0.004833 0.725000 9927301
