# .PCD v.7 - Point Cloud Data file format
VERSION .7
FIELDS x y z rgb
SIZE 4 4 4 4
TYPE F F F I
COUNT 1 1 1 1
WIDTH 1321
HEIGHT 1
POINTS 1321
DATA ascii
0.226443 -0.008643 0.605000 12828104
0.227191 -0.005203 0.607000 12892113
0.228689 -0.001746 0.611000 13216981
0.229811 0.001754 0.614000 13940430
0.230560 0.005280 0.616000 13482962
0.231683 0.008843 0.619000 13088982
0.232806 0.012440 0.622000 13222605
0.227595 -0.025929 0.605000 15260098
0.226467 -0.022360 0.602000 12102340
0.225714 -0.018857 0.600000 13745361
0.225338 -0.015403 0.599000 13416144
0.227595 -0.012100 0.605000 11373758
0.228724 -0.008686 0.608000 13614034
0.229100 -0.005220 0.609000 13747673
0.230605 -0.001751 0.613000 13939930
0.231357 0.001757 0.615000 14007509
0.232486 0.005297 0.618000 12958169
0.232862 0.008843 0.619000 12758991
0.228748 -0.025929 0.605000 15128787
0.227613 -0.022360 0.602000 12031171
0.227235 -0.018889 0.601000 13679823
0.226857 -0.015429 0.600000 13417937
0.229126 -0.012120 0.606000 12431051
0.229882 -0.008686 0.608000 13351132
0.231016 -0.005237 0.611000 13944544
0.231772 -0.001751 0.613000 14010336
0.232907 0.001760 0.616000 13744347
0.234041 0.005306 0.619000 13353440
0.234419 0.008857 0.620000 12561352
0.229900 -0.025929 0.605000 14933727
0.229140 -0.022397 0.603000 11905479
0.228760 -0.018920 0.602000 13679827
0.229900 -0.015557 0.605000 13352402
0.230660 -0.012140 0.607000 13552074
0.231040 -0.008686 0.608000 13024478
0.232560 -0.005246 0.612000 14207970
0.233320 -0.001754 0.614000 14076387
0.234840 0.001766 0.618000 13483742
0.235600 0.005314 0.620000 13679577
0.236360 0.008886 0.622000 12365513
0.231052 -0.025929 0.605000 14800362
0.230670 -0.022434 0.604000 12761035
0.230289 -0.018951 0.603000 13745622
0.231434 -0.015583 0.606000 13221843
0.231816 -0.012140 0.607000 13482953
0.232198 -0.008686 0.608000 13683169
0.234108 -0.005254 0.613000 14273252
0.234871 -0.001757 0.615000 14076391
0.236399 0.001769 0.619000 13484769
0.237545 0.005331 0.622000 13283283
0.238309 0.008914 0.624000 12759497
0.232205 -0.025929 0.605000 14673888
0.231821 -0.022434 0.604000 13613520
0.231821 -0.018983 0.604000 13876956
0.232589 -0.015583 0.606000 13021648
0.233356 -0.012160 0.608000 13416152
0.235275 -0.008757 0.613000 14339041
0.235659 -0.005263 0.614000 14338532
0.236427 -0.001760 0.616000 14075621
0.237962 0.001771 0.620000 13550816
0.239497 0.005349 0.624000 12824524
0.239881 0.008929 0.625000 13219525
0.233357 -0.025929 0.605000 14075605
0.233357 -0.022471 0.605000 13679829
0.233357 -0.019014 0.605000 13944290
0.234129 -0.015609 0.607000 13150669
0.235671 -0.012220 0.611000 13878246
0.236829 -0.008771 0.614000 14272994
0.237600 -0.005280 0.616000 14273251
0.238371 -0.001766 0.618000 14007523
0.239914 0.001777 0.622000 13483999
0.240686 0.005349 0.624000 13153222
0.241457 0.008943 0.626000 13547456
0.234510 -0.025929 0.605000 13545929
0.234510 -0.022471 0.605000 13745353
0.234897 -0.019046 0.606000 14011858
0.235672 -0.015634 0.608000 13286098
0.236835 -0.012220 0.611000 14339301
0.238386 -0.008786 0.615000 14141924
0.239161 -0.005289 0.617000 14273249
0.239936 -0.001769 0.619000 13944290
0.241487 0.001780 0.623000 13419742
0.242262 0.005357 0.625000 13415359
0.242650 0.008943 0.626000 13940670
0.235662 -0.025929 0.605000 13743036
0.235662 -0.022471 0.605000 13743293
0.236441 -0.019077 0.607000 14073537
0.236830 -0.015634 0.608000 13617368
0.238389 -0.012240 0.612000 14339555
0.239947 -0.008800 0.616000 14141926
0.241115 -0.005306 0.619000 14273246
0.241505 -0.001771 0.620000 14208737
0.242673 0.001780 0.623000 13615068
0.243452 0.005357 0.625000 13611704
0.243842 0.008943 0.626000 14005436
0.237206 -0.022509 0.606000 13743036
0.237989 -0.019109 0.608000 14135486
0.237989 -0.015634 0.608000 13942473
0.239554 -0.012240 0.612000 14339277
0.241511 -0.008814 0.617000 14141659
0.242294 -0.005306 0.619000 14338268
0.243469 -0.001777 0.622000 14469331
0.244643 0.001786 0.625000 13876423
0.245034 0.005366 0.626000 13742002
0.238753 -0.022546 0.607000 13677500
0.239147 -0.019109 0.608000 14004923
0.239147 -0.015634 0.608000 13938361
0.240720 -0.012240 0.612000 14137783
0.242687 -0.008814 0.617000 14074065
0.243867 -0.005314 0.620000 14141146
0.245047 -0.001780 0.623000 14204356
0.245833 0.001786 0.625000 13872561
0.246227 0.005366 0.626000 13807021
0.239910 -0.022546 0.607000 13611964
0.240305 -0.019109 0.608000 13874103
0.242676 -0.012280 0.614000 14003380
0.243862 -0.008814 0.617000 14006212
0.244652 -0.005306 0.619000 13943494
0.246233 -0.001780 0.623000 13873850
0.246629 0.001783 0.624000 13871539
0.247419 0.005366 0.626000 13873073
0.243846 -0.012280 0.614000 13938096
0.245434 -0.008829 0.618000 14003896
0.245831 -0.005306 0.619000 13939377
0.247023 -0.001777 0.622000 13872304
0.247817 0.001783 0.624000 13806516
0.248611 0.005366 0.626000 13939126
0.246611 -0.008829 0.618000 13938616
0.247010 -0.005306 0.619000 13937843
0.248190 -0.005306 0.619000 13873077
0.113027 -0.035933 0.686000 9464381
0.113027 -0.032013 0.686000 8088640
0.113027 -0.028093 0.686000 8867122
0.114000 -0.035829 0.684000 8285794
0.114000 -0.031920 0.684000 8616523
0.114000 -0.028011 0.684000 6312755
0.115134 -0.035776 0.683000 6910855
0.115303 -0.031920 0.684000 6907222
0.115303 -0.028011 0.684000 6373940
0.115303 -0.024103 0.684000 9266188
0.116265 -0.043518 0.682000 3627921
0.116435 -0.039679 0.683000 5402781
0.116435 -0.035776 0.683000 5534094
0.116435 -0.031873 0.683000 5200754
0.116435 -0.027970 0.683000 6379595
0.116947 -0.024173 0.686000 8743974
0.117219 -0.043390 0.680000 5011345
0.117219 -0.039505 0.680000 5863070
0.117219 -0.035619 0.680000 5993622
0.117219 -0.031733 0.680000 5860493
0.117564 -0.027930 0.682000 6907747
0.117909 -0.024103 0.684000 8086080
0.118943 -0.020371 0.690000 8807731
0.118340 -0.047207 0.679000 5993075
0.118514 -0.043390 0.680000 6322574
0.118514 -0.039505 0.680000 6388129
0.118514 -0.035619 0.680000 6387614
0.118514 -0.031733 0.680000 6518162
0.118863 -0.027930 0.682000 7433593
0.119211 -0.024103 0.684000 7494971
0.120083 -0.020342 0.689000 8808244
0.119810 -0.051162 0.680000 5864354
0.119633 -0.047207 0.679000 6847079
0.119810 -0.043390 0.680000 6650508
0.119633 -0.039447 0.679000 6782115
0.119633 -0.035567 0.679000 6585254
0.119457 -0.031640 0.678000 6781078
0.119633 -0.027807 0.679000 7631759
0.120338 -0.024068 0.683000 7823413
0.121395 -0.020342 0.689000 8810548
0.121105 -0.055048 0.680000 5536158
0.120927 -0.051087 0.679000 6980006
0.120927 -0.047207 0.679000 7765895
0.120927 -0.043327 0.679000 6978446
0.120927 -0.039447 0.679000 7110560
0.120749 -0.035514 0.678000 6782353
0.120749 -0.031640 0.678000 7043963
0.120749 -0.027766 0.678000 7764116
0.121461 -0.024032 0.682000 8153950
0.122173 -0.020253 0.686000 8807988
0.122220 -0.054967 0.679000 6323873
0.122220 -0.051087 0.679000 6719146
0.122040 -0.047137 0.678000 7438502
0.122220 -0.043327 0.679000 7110033
0.122040 -0.039389 0.678000 7241372
0.121680 -0.035410 0.676000 6978685
0.121500 -0.031500 0.675000 7240800
0.121500 -0.027643 0.675000 7699098
0.122040 -0.023891 0.678000 8219526
0.123120 -0.020194 0.684000 8741684
0.124241 -0.063096 0.683000 10200492
0.124059 -0.059107 0.682000 6849701
0.123513 -0.054967 0.679000 7175569
0.123331 -0.051011 0.678000 6456697
0.123331 -0.047137 0.678000 7110820
0.122968 -0.043135 0.676000 7175323
0.122968 -0.039272 0.676000 7306654
0.122786 -0.035357 0.675000 7109728
0.122604 -0.031453 0.674000 7371608
0.122786 -0.027643 0.675000 7568279
0.122968 -0.023821 0.676000 8287879
0.124423 -0.020194 0.684000 8608571
0.124807 -0.062727 0.679000 9871533
0.124807 -0.058847 0.679000 6914193
0.124807 -0.054967 0.679000 8160640
0.124623 -0.051011 0.678000 8292169
0.124255 -0.046998 0.676000 7307425
0.124255 -0.043135 0.676000 7109541
0.124071 -0.039214 0.675000 7634847
0.124071 -0.035357 0.675000 8027716
0.123888 -0.031453 0.674000 7567952
0.123888 -0.027602 0.674000 7371669
0.123888 -0.023750 0.674000 8483976
0.125542 -0.020165 0.683000 8409666
0.126100 -0.062727 0.679000 9480362
0.126100 -0.058847 0.679000 6977896
0.125914 -0.054886 0.678000 9209947
0.125543 -0.050861 0.676000 10062658
0.125543 -0.046998 0.676000 7503726
0.125357 -0.043071 0.675000 7044258
0.125171 -0.039156 0.674000 7961759
0.125171 -0.035305 0.674000 8944980
0.125171 -0.031453 0.674000 7763266
0.125171 -0.027602 0.674000 7174289
0.125171 -0.023750 0.674000 8681361
0.125171 -0.019899 0.674000 8212033
0.127393 -0.062727 0.679000 9675687
0.127393 -0.058847 0.679000 6580032
0.127206 -0.054886 0.678000 7895093
0.126830 -0.050861 0.676000 10062906
0.126643 -0.046929 0.675000 7962683
0.126643 -0.043071 0.675000 6520223
0.126455 -0.039156 0.674000 7175327
0.126455 -0.035305 0.674000 9073764
0.126455 -0.031453 0.674000 7697203
0.126080 -0.027520 0.672000 7040397
0.126080 -0.023680 0.672000 8419482
0.126455 -0.019899 0.674000 8078144
0.128687 -0.062727 0.679000 9940156
0.128497 -0.058760 0.678000 6186559
0.128497 -0.054886 0.678000 6581810
0.127929 -0.050786 0.675000 9993509
0.127929 -0.046929 0.675000 8486443
0.127739 -0.043008 0.674000 5929335
0.127739 -0.039156 0.674000 6389408
0.127360 -0.035200 0.672000 9137474
0.127360 -0.031360 0.672000 7629623
0.127360 -0.027520 0.672000 6845256
0.127360 -0.023680 0.672000 8223123
0.127360 -0.019840 0.672000 7884872
0.127360 -0.016000 0.672000 8734740
0.129980 -0.062727 0.679000 10400465
0.129789 -0.058760 0.678000 5396799
0.129406 -0.054724 0.676000 6119983
0.129023 -0.050710 0.674000 7696401
0.129023 -0.046859 0.674000 8416026
0.129023 -0.043008 0.674000 7565648
0.128640 -0.039040 0.672000 5468320
0.128449 -0.035148 0.671000 9329185
0.128449 -0.031313 0.671000 7425594
0.128449 -0.027479 0.671000 9735683
0.128257 -0.023610 0.670000 8222860
0.128449 -0.019810 0.671000 8015951
0.128640 -0.016000 0.672000 7875340
0.131273 -0.062727 0.679000 10863824
0.131080 -0.058760 0.678000 4548445
0.130500 -0.054643 0.675000 5660501
0.129920 -0.050560 0.672000 5331772
0.129920 -0.046720 0.672000 8349479
0.129920 -0.042880 0.672000 9139779
0.129920 -0.039040 0.672000 4617594
0.129533 -0.035095 0.670000 9455654
0.129533 -0.031267 0.670000 7291970
0.129533 -0.027438 0.670000 12551429
0.129340 -0.023574 0.669000 8289169
0.129340 -0.019751 0.669000 8086380
0.129920 -0.016000 0.672000 7083287
0.131981 -0.066312 0.676000 11245736
0.132371 -0.062634 0.678000 11715023
0.131981 -0.058587 0.676000 6643834
0.131590 -0.054562 0.674000 5598074
0.131200 -0.050560 0.672000 4346727
0.131005 -0.046650 0.671000 9730867
0.131200 -0.042880 0.672000 10524214
0.131005 -0.038982 0.671000 6120531
0.130614 -0.035043 0.669000 8074028
0.130614 -0.031220 0.669000 8871242
0.130614 -0.027397 0.669000 12225031
0.130224 -0.023504 0.667000 7566229
0.130614 -0.019751 0.669000 8945033
0.131005 -0.015976 0.671000 7090209
0.130810 -0.012124 0.670000 7283004
0.133269 -0.066312 0.676000 11251357
0.133663 -0.062634 0.678000 12629970
0.133269 -0.058587 0.676000 8751729
0.132874 -0.054562 0.674000 5533048
0.132086 -0.050410 0.670000 3294563
0.131889 -0.046511 0.669000 11179061
0.132086 -0.042752 0.670000 11826463
0.131889 -0.038866 0.669000 7630907
0.131889 -0.035043 0.669000 6636345
0.131494 -0.031127 0.667000 10452022
0.131494 -0.027315 0.667000 11830549
0.131297 -0.023469 0.666000 6909846
0.131297 -0.019663 0.666000 9730952
0.131889 -0.015929 0.669000 7090727
0.132086 -0.012124 0.670000 6501695
0.134556 -0.062450 0.676000 11514836
0.134357 -0.058500 0.675000 11514217
0.133561 -0.054319 0.671000 6449782
0.133163 -0.050334 0.669000 3803487
0.133163 -0.046511 0.669000 9993015
0.132765 -0.042561 0.667000 9851656
0.132765 -0.038750 0.667000 8353570
0.132765 -0.034938 0.667000 3355207
0.132765 -0.031127 0.667000 10582305
0.132566 -0.027274 0.666000 11568164
0.132367 -0.023433 0.665000 6581911
0.132367 -0.019633 0.665000 9009800
0.132765 -0.015881 0.667000 7356204
0.133362 -0.012124 0.670000 7559489
0.136246 -0.062634 0.678000 10465503
0.135442 -0.058413 0.674000 14198143
0.134638 -0.054238 0.670000 7365474
0.134035 -0.050184 0.667000 4274760
0.134035 -0.046372 0.667000 8882739
0.133834 -0.042497 0.666000 7879447
0.133633 -0.038633 0.665000 9011734
0.133834 -0.034886 0.666000 80720
0.133633 -0.031033 0.665000 10776353
0.133633 -0.027233 0.665000 11234841
0.133231 -0.023363 0.663000 6256281
0.133231 -0.019574 0.663000 8223371
0.133834 -0.015857 0.666000 7553627
0.134437 -0.012106 0.669000 8535601
0.137740 -0.062727 0.679000 9479401
0.136726 -0.058413 0.674000 13871509
0.135914 -0.054238 0.670000 8418381
0.135306 -0.050184 0.667000 3604786
0.135306 -0.046372 0.667000 9339950
0.134900 -0.042433 0.665000 7477543
0.134900 -0.038633 0.665000 9073417
0.134900 -0.034833 0.665000 3952730
0.134494 -0.030940 0.663000 10510880
0.134494 -0.027151 0.663000 10706446
0.134291 -0.023328 0.662000 6321563
0.134291 -0.019545 0.662000 8157838
0.134900 -0.015833 0.665000 8019594
0.135711 -0.012106 0.669000 6684961
0.138829 -0.062634 0.678000 8494241
0.137600 -0.058240 0.672000 13475203
0.136986 -0.054157 0.669000 9402958
0.136371 -0.050109 0.666000 2960942
0.136167 -0.046233 0.665000 9733426
0.135757 -0.042306 0.663000 7089698
0.135552 -0.038459 0.662000 9135403
0.135757 -0.034729 0.663000 7754308
0.135552 -0.030893 0.662000 10310417
0.135348 -0.027070 0.661000 10110239
0.135348 -0.023292 0.661000 6454941
0.135348 -0.019515 0.661000 8092305
0.135552 -0.015762 0.662000 8550784
0.136371 -0.012051 0.666000 4797502
0.140120 -0.062634 0.678000 10857560
0.138880 -0.058240 0.672000 13343345
0.138260 -0.054157 0.669000 10848334
0.137433 -0.050033 0.665000 2883881
0.137020 -0.046094 0.663000 10251829
0.136813 -0.042242 0.662000 8599326
0.136813 -0.038459 0.662000 8470092
0.136813 -0.034676 0.662000 9258798
0.136813 -0.030893 0.662000 8462849
0.136607 -0.027070 0.661000 9645616
0.135987 -0.023187 0.658000 6716319
0.136400 -0.019486 0.660000 8027029
0.136607 -0.015738 0.661000 9074550
0.137433 -0.012033 0.665000 7297114
0.141411 -0.062634 0.678000 13154147
0.140160 -0.058240 0.672000 13147505
0.139117 -0.053995 0.667000 12282711
0.138283 -0.049883 0.663000 2823702
0.138074 -0.046025 0.662000 10704431
0.137866 -0.042178 0.661000 10107682
0.137866 -0.038401 0.661000 7803724
0.138074 -0.034676 0.662000 10698811
0.137866 -0.030847 0.661000 6619412
0.137240 -0.026947 0.658000 9190216
0.137031 -0.023151 0.657000 6979483
0.137031 -0.019397 0.657000 7961753
0.137240 -0.015667 0.658000 9597820
0.138700 -0.012033 0.665000 9791843
0.143124 -0.066705 0.680000 11715232
0.142703 -0.062634 0.678000 12624237
0.141440 -0.058240 0.672000 12226674
0.140177 -0.053914 0.666000 11689055
0.139335 -0.049808 0.662000 3277058
0.139125 -0.045955 0.661000 8332073
0.138914 -0.042114 0.660000 8986663
0.139125 -0.038401 0.661000 6957900
0.138914 -0.034571 0.660000 8669512
0.138493 -0.030707 0.658000 5841191
0.138283 -0.026906 0.657000 8213088
0.138283 -0.023151 0.657000 7372438
0.138283 -0.019397 0.657000 8028061
0.138283 -0.015643 0.657000 9401985
0.139335 -0.011979 0.662000 9663853
0.144419 -0.066705 0.680000 14010007
0.143994 -0.062634 0.678000 12156471
0.142720 -0.058240 0.672000 11243884
0.140809 -0.053671 0.663000 11087452
0.140596 -0.049808 0.662000 3746364
0.140171 -0.045886 0.660000 5964619
0.140171 -0.042114 0.660000 7813973
0.140171 -0.038343 0.660000 6184055
0.139747 -0.034467 0.658000 6579320
0.139534 -0.030660 0.657000 5064039
0.139322 -0.026865 0.656000 7171968
0.139322 -0.023116 0.656000 7831192
0.139322 -0.019368 0.656000 8091539
0.139322 -0.015619 0.656000 9205890
0.140171 -0.011943 0.660000 9532269
0.141233 -0.008233 0.665000 8483173
0.145714 -0.066705 0.680000 13815437
0.145286 -0.062634 0.678000 11632641
0.144000 -0.058240 0.672000 11501414
0.141857 -0.053590 0.662000 9317977
0.141429 -0.049657 0.660000 5336438
0.141429 -0.045886 0.660000 5914221
0.141000 -0.041987 0.658000 7627907
0.140786 -0.038169 0.657000 6911905
0.140786 -0.034414 0.657000 7176360
0.140357 -0.030567 0.655000 6714022
0.140357 -0.026824 0.655000 7637665
0.140357 -0.023081 0.655000 7962265
0.140357 -0.019338 0.655000 8216970
0.140357 -0.015595 0.655000 9075587
0.140786 -0.011889 0.657000 9794414
0.141857 -0.008196 0.662000 8875611
0.150036 -0.072044 0.694000 10655106
0.147442 -0.066901 0.682000 13616257
0.146577 -0.062634 0.678000 11096655
0.145280 -0.058240 0.672000 11698276
0.142902 -0.053510 0.661000 7553678
0.142253 -0.049507 0.658000 6911377
0.142037 -0.045677 0.657000 5924489
0.142037 -0.041923 0.657000 7371155
0.142037 -0.038169 0.657000 7570082
0.141821 -0.034362 0.656000 7700391
0.141172 -0.030473 0.653000 8356513
0.141172 -0.026742 0.653000 8093070
0.141605 -0.023081 0.655000 8157301
0.141605 -0.019338 0.655000 8345945
0.141172 -0.015548 0.653000 8945551
0.141605 -0.011852 0.655000 10056560
0.142686 -0.008171 0.660000 9333083
0.151140 -0.071940 0.693000 11183503
0.148741 -0.066901 0.682000 13418614
0.147869 -0.062634 0.678000 9730972
0.146560 -0.058240 0.672000 11561570
0.144161 -0.053510 0.661000 8027586
0.143507 -0.049507 0.658000 7044780
0.143289 -0.045677 0.657000 6452900
0.143289 -0.041923 0.657000 7570850
0.143070 -0.038110 0.656000 7766435
0.142852 -0.034310 0.655000 7896999
0.142416 -0.030473 0.653000 8291227
0.142198 -0.026701 0.652000 8216955
0.142416 -0.023010 0.653000 8277840
0.142198 -0.019250 0.652000 9130791
0.142198 -0.015524 0.652000 9011099
0.142416 -0.011816 0.653000 9794674
0.143943 -0.008171 0.660000 9135194
0.152460 -0.071940 0.693000 11713659
0.150040 -0.066901 0.682000 13218665
0.149160 -0.062634 0.678000 8361905
0.147840 -0.058240 0.672000 11362927
0.145420 -0.053510 0.661000 8560864
0.144540 -0.049431 0.657000 7110836
0.144320 -0.045608 0.656000 7042977
0.144320 -0.041859 0.656000 7701409
0.144320 -0.038110 0.656000 7963046
0.143660 -0.034205 0.653000 8028838
0.143440 -0.030427 0.652000 8291222
0.143440 -0.026701 0.652000 8345962
0.143440 -0.022975 0.652000 8472655
0.143440 -0.019250 0.652000 9852981
0.143220 -0.015500 0.651000 9012091
0.143440 -0.011798 0.652000 9467256
0.144760 -0.008147 0.658000 8999504
0.153336 -0.071732 0.691000 11970407
0.151339 -0.066901 0.682000 14137692
0.150451 -0.062634 0.678000 9344710
0.149120 -0.058240 0.672000 11692924
0.146679 -0.053510 0.661000 9087742
0.145791 -0.049431 0.657000 7372989
0.145570 -0.045608 0.656000 7503774
0.145348 -0.041795 0.655000 8029089
0.145348 -0.038052 0.655000 8291753
0.144904 -0.034205 0.653000 8161445
0.144682 -0.030427 0.652000 8415889
0.144682 -0.026701 0.652000 8477017
0.144682 -0.022975 0.652000 8608589
0.144460 -0.019220 0.651000 9329987
0.144238 -0.015476 0.650000 8875610
0.144682 -0.011798 0.652000 9598078
0.145791 -0.008134 0.657000 8737349
0.154652 -0.071732 0.691000 12234844
0.152638 -0.066901 0.682000 14988896
0.151743 -0.062634 0.678000 10397605
0.150400 -0.058240 0.672000 11956101
0.147267 -0.053267 0.658000 9618684
0.146819 -0.049356 0.656000 7636925
0.146595 -0.045538 0.655000 8029600
0.146148 -0.041668 0.653000 8291742
0.146148 -0.037936 0.653000 8685219
0.145924 -0.034152 0.652000 8287874
0.145700 -0.030380 0.651000 8604001
0.145700 -0.026660 0.651000 8608852
0.145700 -0.022940 0.651000 8808502
0.145029 -0.019131 0.648000 8808294
0.145029 -0.015429 0.648000 8673377
0.145029 -0.011726 0.648000 9664386
0.146819 -0.008122 0.656000 8540757
0.155969 -0.071732 0.691000 10914641
0.154163 -0.066999 0.683000 14727268
0.152583 -0.062450 0.676000 11376259
0.151680 -0.058240 0.672000 10509199
0.148520 -0.053267 0.658000 9943289
0.148069 -0.049356 0.656000 7965373
0.147843 -0.045538 0.655000 8159393
0.147391 -0.041668 0.653000 8291996
0.147166 -0.037878 0.652000 8615836
0.147166 -0.034152 0.652000 7620703
0.146714 -0.030333 0.650000 9000497
0.146714 -0.026619 0.650000 8871247
0.146714 -0.022905 0.650000 9069855
0.146037 -0.019102 0.647000 8679049
0.146037 -0.015405 0.647000 8546151
0.146263 -0.011726 0.648000 9402759
0.147391 -0.008085 0.653000 8412005
0.148294 -0.004380 0.657000 7681570
0.155464 -0.066999 0.683000 14462825
0.153870 -0.062450 0.676000 12419460
0.152732 -0.058153 0.671000 9004959
0.150229 -0.053429 0.660000 10268409
0.149318 -0.049356 0.656000 8228814
0.148408 -0.045330 0.652000 8290209
0.148180 -0.041540 0.651000 8282487
0.148180 -0.037820 0.651000 8544857
0.147952 -0.034048 0.650000 6965058
0.147497 -0.030240 0.648000 9464155
0.147497 -0.026537 0.648000 9069406
0.147497 -0.022834 0.648000 9329235
0.147270 -0.019102 0.647000 8485265
0.147270 -0.015405 0.647000 8416383
0.147270 -0.011708 0.647000 9075847
0.148180 -0.008060 0.651000 8284777
0.149318 -0.004373 0.656000 7356212
0.156994 -0.067097 0.684000 14331246
0.155617 -0.062634 0.678000 11953540
0.154010 -0.058153 0.671000 9209008
0.151486 -0.053429 0.660000 10269177
0.150568 -0.049356 0.656000 10528479
0.149650 -0.045330 0.652000 8422561
0.149420 -0.041540 0.651000 8464209
0.149190 -0.037762 0.650000 8867862
0.148731 -0.033943 0.648000 8676901
0.148731 -0.030240 0.648000 9203077
0.148502 -0.026496 0.647000 8805997
0.148731 -0.022834 0.648000 8942214
0.148502 -0.019102 0.647000 8554393
0.148272 -0.015381 0.646000 8154519
0.148272 -0.011690 0.646000 9076616
0.148731 -0.008023 0.648000 8809836
0.150338 -0.004367 0.655000 8084038
0.158066 -0.066999 0.683000 14133624
0.156909 -0.062634 0.678000 11552835
0.155289 -0.058153 0.671000 9411539
0.152743 -0.053429 0.660000 10268923
0.151586 -0.049281 0.655000 12760299
0.150891 -0.045330 0.652000 8551810
0.150660 -0.041540 0.651000 8669248
0.149966 -0.037646 0.648000 9203245
0.149734 -0.033890 0.647000 10316616
0.149734 -0.030193 0.647000 8944774
0.149503 -0.026455 0.646000 8548231
0.149503 -0.022764 0.646000 8488571
0.149503 -0.019072 0.646000 8542039
0.149271 -0.015357 0.645000 7881036
0.149271 -0.011671 0.645000 9077386
0.149503 -0.007998 0.646000 9401458
0.150891 -0.004347 0.652000 8741194
0.159367 -0.066999 0.683000 13345923
0.157733 -0.062450 0.676000 9850881
0.156333 -0.058067 0.670000 9549815
0.154467 -0.053590 0.662000 10335485
0.152833 -0.049281 0.655000 12436216
0.152133 -0.045330 0.652000 8731235
0.151667 -0.041476 0.650000 8871983
0.150967 -0.037588 0.647000 9205059
0.150967 -0.033890 0.647000 9332843
0.150733 -0.030147 0.646000 9012615
0.150733 -0.026455 0.646000 8751265
0.150500 -0.022729 0.645000 8738927
0.150500 -0.019043 0.645000 7471638
0.150267 -0.015333 0.644000 7415553
0.150267 -0.011653 0.644000 9078668
0.150500 -0.007986 0.645000 9467255
0.151900 -0.004340 0.651000 7425870
0.159021 -0.062450 0.676000 8153169
0.157610 -0.058067 0.670000 9679866
0.154787 -0.053267 0.658000 10466814
0.153610 -0.049130 0.653000 12107243
0.153140 -0.045260 0.651000 8978790
0.152905 -0.041476 0.650000 9005638
0.151964 -0.037530 0.646000 9207396
0.151964 -0.033838 0.646000 8353932
0.151964 -0.030147 0.646000 9145735
0.151729 -0.026414 0.645000 8871264
0.151493 -0.022693 0.644000 8989757
0.151493 -0.019013 0.644000 6423834
0.151023 -0.015286 0.642000 7013379
0.151493 -0.011653 0.644000 9077367
0.151493 -0.007973 0.644000 9597561
0.152434 -0.004320 0.648000 6043201
0.160783 -0.062634 0.678000 8813217
0.158649 -0.057980 0.669000 9614846
0.156040 -0.053267 0.658000 10663934
0.154854 -0.049130 0.653000 11847903
0.154380 -0.045260 0.651000 9454440
0.153669 -0.041349 0.648000 9207133
0.153194 -0.037530 0.646000 8945540
0.152957 -0.033786 0.645000 9081518
0.152957 -0.030100 0.645000 8874631
0.152720 -0.026373 0.644000 8786208
0.152246 -0.022623 0.642000 8917770
0.152246 -0.018954 0.642000 7342623
0.152246 -0.015286 0.642000 7669508
0.152246 -0.011617 0.642000 8947810
0.152246 -0.007949 0.642000 9335930
0.153431 -0.004313 0.647000 5308724
0.154617 -0.000621 0.652000 6630159
0.161357 -0.062357 0.675000 9404844
0.159923 -0.057980 0.669000 9549310
0.157293 -0.053267 0.658000 10925822
0.155859 -0.049055 0.652000 11572684
0.155620 -0.045260 0.651000 9992562
0.154664 -0.041285 0.647000 9401942
0.154425 -0.037530 0.646000 8749967
0.154186 -0.033786 0.645000 9733762
0.153947 -0.030053 0.644000 8600388
0.153469 -0.026291 0.642000 8718365
0.153469 -0.022623 0.642000 8915981
0.153230 -0.018925 0.641000 8260378
0.152990 -0.015238 0.640000 8389635
0.152990 -0.011581 0.640000 8748136
0.152990 -0.007924 0.640000 9073533
0.154186 -0.004300 0.645000 4534083
0.155620 -0.000620 0.651000 6097673
0.162884 -0.062450 0.676000 9009590
0.161438 -0.058067 0.670000 11122686
0.158306 -0.053186 0.657000 11121918
0.157101 -0.049055 0.652000 11563962
0.156619 -0.045190 0.650000 8283516
0.155655 -0.041221 0.646000 7496271
0.155414 -0.037471 0.645000 8880794
0.155173 -0.033733 0.644000 7630165
0.154691 -0.029960 0.642000 8262913
0.154691 -0.026291 0.642000 8849691
0.154450 -0.022588 0.641000 9048079
0.154450 -0.018925 0.641000 8128532
0.153969 -0.015214 0.639000 8324866
0.153969 -0.011563 0.639000 8684911
0.154210 -0.007924 0.640000 8745600
0.154691 -0.004280 0.642000 6835538
0.156137 -0.000617 0.648000 6295298
0.163929 -0.062357 0.675000 8627418
0.162714 -0.058067 0.670000 12630525
0.159557 -0.053186 0.657000 11386877
0.158586 -0.049130 0.653000 11498938
0.158100 -0.045260 0.651000 6578563
0.156886 -0.041221 0.646000 5516877
0.156400 -0.037413 0.644000 9006670
0.155914 -0.033629 0.642000 5453885
0.155671 -0.029913 0.641000 7868179
0.155671 -0.026250 0.641000 8917020
0.155671 -0.022588 0.641000 9179657
0.155429 -0.018895 0.640000 7998223
0.155186 -0.015214 0.639000 8259338
0.154943 -0.011545 0.638000 8550252
0.154943 -0.007899 0.638000 8480868
0.155671 -0.004273 0.641000 9066328
0.156886 -0.000615 0.646000 6426630
0.164970 -0.062265 0.674000 9088766
0.164235 -0.058153 0.671000 11253757
0.161788 -0.053510 0.661000 11581948
0.159830 -0.049130 0.653000 11758266
0.159095 -0.045190 0.650000 7426698
0.158116 -0.041221 0.646000 5376844
0.157137 -0.037297 0.642000 5709569
0.157137 -0.033629 0.642000 5054501
0.156892 -0.029913 0.641000 8131108
0.156892 -0.026250 0.641000 8720926
0.156648 -0.022552 0.640000 8587778
0.156648 -0.018895 0.640000 7604491
0.156158 -0.015190 0.638000 8262929
0.156158 -0.011545 0.638000 7432809
0.155669 -0.007874 0.636000 7165768
0.156158 -0.004253 0.638000 9531230
0.157871 -0.000614 0.645000 6491658
0.166500 -0.062357 0.675000 9614078
0.165513 -0.058153 0.671000 9876216
0.162800 -0.053429 0.660000 11844087
0.161073 -0.049130 0.653000 12030896
0.159840 -0.045051 0.648000 8200841
0.159100 -0.041157 0.645000 5262175
0.158360 -0.037297 0.642000 2426659
0.158113 -0.033576 0.641000 4594726
0.158113 -0.029913 0.641000 8459542
0.157867 -0.026210 0.640000 8457501
0.157867 -0.022552 0.640000 7932988
0.157867 -0.018895 0.640000 7148326
0.157373 -0.015190 0.638000 8326177
0.157373 -0.011545 0.638000 6314842
0.156880 -0.007874 0.636000 5852235
0.157373 -0.004253 0.638000 9920864
0.158113 -0.000610 0.641000 6623262
0.167537 -0.062265 0.674000 9943038
0.166791 -0.058153 0.671000 9809395
0.164306 -0.053510 0.661000 11777010
0.162317 -0.049130 0.653000 12492198
0.161571 -0.045190 0.650000 8738439
0.160080 -0.041093 0.644000 5796466
0.159334 -0.037239 0.641000 3086405
0.159086 -0.033524 0.640000 3541799
0.159086 -0.029867 0.640000 7997960
0.159086 -0.026210 0.640000 8586012
0.158837 -0.022517 0.639000 8411254
0.158837 -0.018866 0.639000 7740226
0.158091 -0.015143 0.636000 8074032
0.158091 -0.011509 0.636000 5784395
0.157843 -0.007862 0.635000 5655629
0.158091 -0.004240 0.636000 9332834
0.159086 -0.000610 0.640000 7220018
0.168821 -0.062265 0.674000 10271996
0.167819 -0.058067 0.670000 9744120
0.165815 -0.053590 0.662000 11778546
0.163561 -0.049130 0.653000 12951971
0.162810 -0.045190 0.650000 9259398
0.160806 -0.040966 0.642000 6313577
0.160305 -0.037181 0.640000 3677771
0.160054 -0.033471 0.639000 2500406
0.160054 -0.029820 0.639000 7539265
0.160054 -0.026169 0.639000 8669273
0.160054 -0.022517 0.639000 8814715
0.159804 -0.018836 0.638000 8343900
0.159303 -0.015143 0.636000 7886687
0.159303 -0.011509 0.636000 5196101
0.159052 -0.007862 0.635000 5525074
0.159303 -0.004240 0.636000 8675931
0.159804 -0.000608 0.638000 7810375
0.170105 -0.062265 0.674000 10795513
0.169095 -0.058067 0.670000 10008062
0.166824 -0.053510 0.661000 11643890
0.164805 -0.049130 0.653000 12625825
0.163543 -0.045051 0.648000 8609925
0.161524 -0.040838 0.640000 5779297
0.160514 -0.036949 0.636000 4799057
0.160514 -0.033314 0.636000 5265476
0.160514 -0.029680 0.636000 8412025
0.160514 -0.026046 0.636000 8753302
0.160514 -0.022411 0.636000 7958911
0.160262 -0.018748 0.635000 7172469
0.160010 -0.015095 0.634000 7104653
0.160010 -0.011472 0.634000 4800064
0.159757 -0.007837 0.633000 5326679
0.160010 -0.004227 0.634000 8218197
0.160262 -0.000605 0.635000 7946844
0.170626 -0.061988 0.671000 11320801
0.169609 -0.057807 0.667000 10270718
0.167829 -0.053429 0.660000 11516141
0.166049 -0.049130 0.653000 12233141
0.164777 -0.045051 0.648000 8011651
0.162743 -0.040838 0.640000 5258860
0.161726 -0.036949 0.636000 5917781
0.161471 -0.033262 0.635000 8019283
0.161471 -0.029633 0.635000 9279352
0.161726 -0.026046 0.636000 8814212
0.161471 -0.022376 0.635000 7037786
0.160963 -0.018689 0.633000 5985870
0.160709 -0.015048 0.632000 6384496
0.160709 -0.011436 0.632000 4408392
0.160709 -0.007825 0.632000 5198952
0.160709 -0.004213 0.632000 7758178
0.160963 -0.000603 0.633000 8087396
0.161471 0.003024 0.635000 5770269
0.171904 -0.061988 0.671000 11712200
0.170879 -0.057807 0.667000 10664702
0.168573 -0.053267 0.658000 11775208
0.167292 -0.049130 0.653000 12368842
0.166011 -0.045051 0.648000 7948929
0.163706 -0.040774 0.639000 5521015
0.162937 -0.036949 0.636000 6446425
0.162681 -0.033262 0.635000 8875361
0.162681 -0.029633 0.635000 9012086
0.162681 -0.026005 0.635000 7171954
0.162169 -0.022306 0.633000 6309685
0.161656 -0.018630 0.631000 5915432
0.161656 -0.015024 0.631000 6051923
0.161656 -0.011418 0.631000 4932945
0.161656 -0.007812 0.631000 5857656
0.161144 -0.004193 0.629000 7826031
0.161912 -0.000602 0.632000 8480363
0.162681 0.003024 0.635000 5899031
0.171891 -0.057720 0.666000 11058685
0.169569 -0.053186 0.657000 12034523
0.168536 -0.049130 0.653000 12433610
0.167246 -0.045051 0.648000 7930212
0.164923 -0.040774 0.639000 5722747
0.163890 -0.036890 0.635000 6972996
0.163890 -0.033262 0.635000 9661786
0.163632 -0.029587 0.634000 8812918
0.163374 -0.025923 0.633000 5462625
0.163116 -0.022270 0.632000 5584413
0.162858 -0.018630 0.631000 5784625
0.162342 -0.014976 0.629000 5723479
0.162342 -0.011382 0.629000 5396073
0.162342 -0.007788 0.629000 6516350
0.162084 -0.004187 0.628000 7893376
0.162342 -0.000599 0.629000 8941421
0.163632 0.003019 0.634000 5970734
0.164665 0.006684 0.638000 6697755
0.173160 -0.057720 0.666000 11189245
0.170820 -0.053186 0.657000 12100557
0.169520 -0.049055 0.652000 12632778
0.168480 -0.045051 0.648000 8004167
0.165880 -0.040710 0.638000 6708096
0.165100 -0.036890 0.635000 6047278
0.164840 -0.033210 0.634000 9528147
0.164580 -0.029540 0.633000 8943478
0.164580 -0.025923 0.633000 4999761
0.164320 -0.022270 0.632000 4268292
0.164060 -0.018630 0.631000 6309946
0.163540 -0.014976 0.629000 5789787
0.163280 -0.011364 0.628000 6385538
0.163280 -0.007775 0.628000 7042180
0.163020 -0.004180 0.627000 7960978
0.163280 -0.000598 0.628000 9072750
0.164580 0.003014 0.633000 6363717
0.165880 0.006684 0.638000 7158811
0.174429 -0.057720 0.666000 11255539
0.171810 -0.053105 0.656000 12229297
0.170762 -0.049055 0.652000 12827593
0.169714 -0.045051 0.648000 8126801
0.167095 -0.040710 0.638000 7631493
0.166310 -0.036890 0.635000 5112655
0.166048 -0.033210 0.634000 9400437
0.165786 -0.029540 0.633000 9139819
0.165524 -0.025882 0.632000 4541527
0.165262 -0.022235 0.631000 3020064
0.164738 -0.018570 0.629000 6767406
0.164476 -0.014952 0.628000 5921869
0.164476 -0.011364 0.628000 7369861
0.164214 -0.007763 0.627000 7501960
0.164214 -0.004180 0.627000 8025740
0.164476 -0.000598 0.628000 9202031
0.165786 0.003014 0.633000 6769233
0.166571 0.006663 0.636000 7681571
0.175697 -0.057720 0.666000 11714538
0.173059 -0.053105 0.656000 12098196
0.172004 -0.049055 0.652000 12701640
0.170685 -0.044982 0.647000 8531802
0.168310 -0.040710 0.638000 8355721
0.167255 -0.036832 0.634000 7825008
0.166991 -0.033157 0.633000 10123926
0.166728 -0.029493 0.632000 8218208
0.166464 -0.025841 0.631000 5000797
0.166464 -0.022235 0.631000 3544892
0.165672 -0.018541 0.628000 7556642
0.165672 -0.014952 0.628000 6905406
0.165409 -0.011346 0.627000 7633800
0.165409 -0.007763 0.627000 7764363
0.165409 -0.004180 0.627000 8023687
0.165409 -0.000597 0.627000 8808816
0.166728 0.003010 0.632000 7765085
0.167519 0.006652 0.635000 7877163
0.176966 -0.057720 0.666000 12104400
0.174309 -0.053105 0.656000 11966599
0.173246 -0.049055 0.652000 12493764
0.171917 -0.044982 0.647000 8928851
0.169526 -0.040710 0.638000 9004668
0.168197 -0.036774 0.633000 10527099
0.167931 -0.033105 0.632000 10777475
0.167666 -0.029447 0.631000 7294552
0.167666 -0.025841 0.631000 5461102
0.167134 -0.022165 0.629000 4135486
0.166603 -0.018511 0.627000 8334894
0.166603 -0.014929 0.627000 7886389
0.166337 -0.011328 0.626000 7895147
0.166337 -0.007750 0.626000 8026501
0.166337 -0.004173 0.626000 8024709
0.166603 -0.000597 0.627000 8414835
0.167931 0.003010 0.632000 8741951
0.168463 0.006642 0.634000 8007461
0.178234 -0.057720 0.666000 12166582
0.175558 -0.053105 0.656000 11967609
0.174488 -0.049055 0.652000 12755137
0.173417 -0.045051 0.648000 8798027
0.170741 -0.040710 0.638000 7353198
0.169403 -0.036774 0.633000 9862534
0.168868 -0.033052 0.631000 9333871
0.168332 -0.029353 0.629000 6442320
0.168332 -0.025759 0.629000 5923711
0.168065 -0.022130 0.628000 4732479
0.167797 -0.018511 0.627000 6030394
0.167530 -0.014905 0.626000 8739883
0.167530 -0.011328 0.626000 7959631
0.167530 -0.007750 0.626000 8947070
0.167262 -0.004167 0.625000 8550020
0.167530 -0.000596 0.626000 8086902
0.168332 0.002995 0.629000 8409120
0.169135 0.006621 0.632000 8140831
0.179503 -0.057720 0.666000 12231613
0.176808 -0.053105 0.656000 11968386
0.175460 -0.048980 0.651000 12940199
0.174112 -0.044912 0.646000 8669266
0.171956 -0.040710 0.638000 5654649
0.170339 -0.036716 0.632000 9203630
0.169530 -0.032948 0.629000 7893381
0.169530 -0.029353 0.629000 5522282
0.169261 -0.025718 0.628000 6384776
0.168991 -0.022094 0.627000 5323596
0.168991 -0.018511 0.627000 3749203
0.168722 -0.014905 0.626000 9595176
0.168183 -0.011291 0.624000 8018480
0.168183 -0.007726 0.624000 9866868
0.168183 -0.004160 0.624000 9012109
0.168183 -0.000594 0.624000 7759988
0.169261 0.002990 0.628000 8014640
0.170339 0.006621 0.632000 8338976
0.178057 -0.053105 0.656000 11966859
0.176700 -0.048980 0.651000 12279438
0.175343 -0.044912 0.646000 8332632
0.172629 -0.040583 0.636000 5920131
0.171543 -0.036716 0.632000 10656982
0.170729 -0.032948 0.629000 7502235
0.170457 -0.029307 0.628000 5921156
0.170457 -0.025718 0.628000 6782098
0.170186 -0.022094 0.627000 5985369
0.169643 -0.018452 0.625000 5399404
0.169371 -0.014857 0.624000 8735524
0.169100 -0.011273 0.623000 8270866
0.169100 -0.007713 0.623000 9337706
0.169100 -0.004153 0.623000 9211542
0.169100 -0.000593 0.623000 7891570
0.169914 0.002981 0.626000 8079935
0.171271 0.006610 0.631000 8602656
0.179307 -0.053105 0.656000 11959709
0.177940 -0.048980 0.651000 11555198
0.176027 -0.044773 0.644000 7934300
0.173840 -0.040583 0.636000 6192553
0.172473 -0.036658 0.631000 12115417
0.171653 -0.032895 0.628000 7109533
0.171380 -0.029260 0.627000 6251656
0.171380 -0.025677 0.627000 7176084
0.170833 -0.022024 0.625000 6637657
0.170560 -0.018423 0.624000 6978432
0.170560 -0.014857 0.624000 7877910
0.170287 -0.011273 0.623000 8539403
0.170013 -0.007701 0.622000 8871482
0.170013 -0.004147 0.622000 9340538
0.170013 -0.000592 0.622000 8089968
0.170560 0.002971 0.624000 8081477
0.171653 0.006579 0.628000 8929312
0.180556 -0.053105 0.656000 11899567
0.179455 -0.049055 0.652000 11611758
0.177253 -0.044773 0.644000 9918559
0.175051 -0.040583 0.636000 8362447
0.173950 -0.036716 0.632000 12304604
0.172574 -0.032843 0.627000 8357535
0.172299 -0.029213 0.626000 6648203
0.172024 -0.025595 0.625000 7569815
0.172024 -0.022024 0.625000 6708313
0.171749 -0.018423 0.624000 8295316
0.171473 -0.014833 0.623000 6501383
0.171473 -0.011273 0.623000 9330949
0.171198 -0.007701 0.622000 8342282
0.171198 -0.004147 0.622000 8945759
0.171198 -0.000592 0.622000 6709358
0.171198 0.002962 0.622000 8082251
0.172850 0.006579 0.628000 8537119
0.173125 0.010184 0.629000 7679507
0.181529 -0.053024 0.655000 11840711
0.180697 -0.049055 0.652000 11610722
0.177926 -0.044634 0.642000 11887230
0.176263 -0.040583 0.636000 10525139
0.174877 -0.036658 0.631000 12500971
0.173769 -0.032843 0.627000 9533590
0.173491 -0.029213 0.626000 7108494
0.173214 -0.025595 0.625000 7898520
0.172937 -0.021989 0.624000 6771561
0.172660 -0.018393 0.623000 9604494
0.172660 -0.014833 0.623000 5190744
0.172383 -0.011255 0.622000 10045961
0.171829 -0.007676 0.620000 7819275
0.171829 -0.004133 0.620000 8474687
0.171829 -0.000590 0.620000 5393741
0.171551 0.002948 0.619000 8016448
0.173491 0.006558 0.626000 8144159
0.174046 0.010168 0.628000 7152148
0.182776 -0.053024 0.655000 11183070
0.181939 -0.049055 0.652000 11218262
0.179149 -0.044634 0.642000 11564700
0.178311 -0.040774 0.639000 11641047
0.176079 -0.036658 0.631000 12500730
0.174963 -0.032843 0.627000 7623309
0.174405 -0.029167 0.625000 7369872
0.174126 -0.025554 0.624000 8161945
0.173847 -0.021953 0.623000 7893369
0.173847 -0.018393 0.623000 9670024
0.173568 -0.014810 0.622000 6907817
0.173568 -0.011255 0.622000 8011277
0.173010 -0.007676 0.620000 8672267
0.172730 -0.004127 0.619000 8728863
0.172730 -0.000590 0.619000 5652012
0.172451 0.002943 0.618000 7755573
0.172451 0.006474 0.618000 8010526
0.175242 0.010168 0.628000 6758164
0.184024 -0.053024 0.655000 10534120
0.181776 -0.048679 0.647000 10821207
0.180371 -0.044634 0.642000 11251895
0.179248 -0.040710 0.638000 12694747
0.177562 -0.036716 0.632000 12575480
0.175876 -0.032790 0.626000 5661350
0.175314 -0.029120 0.624000 7629972
0.175033 -0.025513 0.623000 8424085
0.175033 -0.021953 0.623000 9077129
0.174752 -0.018364 0.622000 9669521
0.174752 -0.014810 0.622000 8690596
0.174190 -0.011219 0.620000 5975087
0.173910 -0.007664 0.619000 9590035
0.173629 -0.004120 0.618000 8934698
0.173629 -0.000589 0.618000 5846311
0.173629 0.002943 0.618000 7426597
0.173629 0.006474 0.618000 7881760
0.175033 0.010087 0.623000 6301223
0.185271 -0.053024 0.655000 11121137
0.183009 -0.048679 0.647000 10886231
0.181594 -0.044634 0.642000 10986706
0.180463 -0.040710 0.638000 12694239
0.178483 -0.036658 0.631000 13556213
0.176786 -0.032738 0.625000 9215166
0.176220 -0.029073 0.623000 8354455
0.175937 -0.025472 0.622000 9540753
0.175937 -0.021918 0.622000 9603992
0.175371 -0.018305 0.620000 9866138
0.175371 -0.014762 0.620000 9148063
0.175089 -0.011201 0.619000 5833297
0.174806 -0.007651 0.618000 8666906
0.174806 -0.004120 0.618000 10122036
0.174523 -0.000588 0.617000 7157794
0.174523 0.002938 0.617000 7490837
0.174523 0.006464 0.617000 7488546
0.176220 0.010087 0.623000 6107193
0.186519 -0.053024 0.655000 11715814
0.184241 -0.048679 0.647000 10952812
0.182817 -0.044634 0.642000 10791618
0.181678 -0.040710 0.638000 12626395
0.179970 -0.036716 0.632000 14609390
0.177976 -0.032738 0.625000 12695237
0.177122 -0.029027 0.622000 9147025
0.176552 -0.025390 0.620000 10654096
0.176552 -0.021848 0.620000 10196129
0.176552 -0.018305 0.620000 9997469
0.176268 -0.014738 0.619000 9668214
0.175983 -0.011183 0.618000 5707072
0.175983 -0.007651 0.618000 7807522
0.175698 -0.004113 0.617000 11227437
0.175413 -0.000587 0.616000 8470301
0.175129 0.002929 0.615000 7491626
0.175413 0.006453 0.616000 7165229
0.177407 0.010087 0.623000 5912123
0.187767 -0.053024 0.655000 12301531
0.186333 -0.048905 0.650000 11284353
0.183753 -0.044565 0.641000 10196146
0.183180 -0.040774 0.639000 11764952
0.180887 -0.036658 0.631000 13681127
0.178880 -0.032686 0.624000 13358284
0.178307 -0.029027 0.622000 9471114
0.177733 -0.025390 0.620000 9864848
0.177447 -0.021812 0.619000 10458281
0.177447 -0.018275 0.619000 9210783
0.177160 -0.014714 0.618000 7297100
0.177160 -0.011183 0.618000 7606064
0.176873 -0.007639 0.617000 8724522
0.176587 -0.004107 0.616000 8656934
0.176300 -0.000586 0.615000 8135960
0.176300 0.002929 0.615000 9070655
0.176300 0.006443 0.615000 7886648
0.176300 0.009957 0.615000 5781820
0.189014 -0.053024 0.655000 12958150
0.187571 -0.048905 0.650000 11557532
0.185263 -0.044634 0.642000 9667997
0.184109 -0.040710 0.638000 10856929
0.182089 -0.036658 0.631000 12760532
0.180069 -0.032686 0.624000 14008787
0.179491 -0.029027 0.622000 9852039
0.178626 -0.025350 0.619000 9071722
0.178337 -0.021777 0.618000 10655639
0.178337 -0.018246 0.618000 8351874
0.178049 -0.014690 0.617000 4994904
0.178049 -0.011165 0.617000 9448770
0.177760 -0.007627 0.616000 9644352
0.177471 -0.004100 0.615000 6039103
0.177183 -0.000585 0.614000 7734822
0.177183 0.002924 0.614000 10574644
0.177471 0.006443 0.615000 8673340
0.177471 0.009957 0.615000 5654599
0.178914 0.013581 0.620000 4339773
0.190262 -0.053024 0.655000 13088176
0.188810 -0.048905 0.650000 11498679
0.187067 -0.044773 0.644000 10187911
0.185324 -0.040710 0.638000 12761834
0.183290 -0.036658 0.631000 13219520
0.181257 -0.032686 0.624000 13547226
0.180095 -0.028933 0.620000 8210308
0.179514 -0.025309 0.618000 8606787
0.179224 -0.021742 0.617000 8617348
0.179224 -0.018216 0.617000 5983590
0.178933 -0.014667 0.616000 5455715
0.178933 -0.011147 0.616000 8608340
0.178643 -0.007614 0.615000 8009557
0.178352 -0.004093 0.614000 6047319
0.178062 -0.000584 0.613000 7680819
0.178062 0.002919 0.613000 9915946
0.178352 0.006432 0.614000 9133119
0.178352 0.009941 0.614000 6179154
0.179805 0.013559 0.619000 4799800
0.190048 -0.048905 0.650000 11379159
0.188586 -0.044843 0.645000 10778785
0.185954 -0.040583 0.636000 14602217
0.183908 -0.036542 0.629000 13677785
0.182446 -0.032686 0.624000 13087956
0.180984 -0.028887 0.619000 6555203
0.180691 -0.025309 0.618000 8145978
0.180399 -0.021742 0.617000 6642292
0.180107 -0.018187 0.616000 3622510
0.179814 -0.014643 0.615000 5982824
0.179522 -0.011110 0.614000 7755618
0.179522 -0.007602 0.614000 6309719
0.179230 -0.004087 0.613000 6050162
0.178937 -0.000583 0.612000 7685170
0.179230 0.002919 0.613000 9260591
0.179230 0.006422 0.613000 9657919
0.179230 0.009925 0.613000 6638663
0.180984 0.013559 0.619000 5259065
0.192757 -0.053024 0.655000 13283246
0.191286 -0.048905 0.650000 11852791
0.188637 -0.044565 0.641000 10520762
0.187166 -0.040583 0.636000 14868712
0.185106 -0.036542 0.629000 14274033
0.183340 -0.032633 0.623000 11971279
0.181869 -0.028840 0.618000 5181953
0.181574 -0.025268 0.617000 6764848
0.181280 -0.021707 0.616000 5788772
0.180986 -0.018157 0.615000 4477302
0.180691 -0.014619 0.614000 5984365
0.180691 -0.011110 0.614000 7033967
0.180397 -0.007590 0.613000 6901849
0.180103 -0.004080 0.612000 6512526
0.179809 -0.000582 0.611000 7619376
0.179809 0.002910 0.611000 9195060
0.180103 0.006411 0.612000 9856062
0.180397 0.009925 0.613000 6963516
0.181869 0.013537 0.618000 4795194
0.194005 -0.053024 0.655000 13347245
0.192820 -0.048980 0.651000 12305128
0.190154 -0.044634 0.642000 10256824
0.188377 -0.040583 0.636000 15062506
0.186008 -0.036484 0.628000 14870262
0.184527 -0.032633 0.623000 10788559
0.183046 -0.028840 0.618000 3867403
0.182750 -0.025268 0.617000 5324092
0.182157 -0.021671 0.615000 4938614
0.182157 -0.018157 0.615000 5264757
0.181861 -0.014619 0.614000 5982555
0.181565 -0.011092 0.613000 6312042
0.181269 -0.007577 0.612000 7492706
0.180972 -0.004073 0.611000 6905476
0.180380 -0.000580 0.609000 7554133
0.180380 0.002900 0.609000 9130325
0.180972 0.006401 0.611000 10119244
0.181269 0.009909 0.612000 7230021
0.182157 0.013471 0.615000 4397342
0.195252 -0.053024 0.655000 13478316
0.194060 -0.048980 0.651000 11451097
0.191079 -0.044565 0.641000 9667509
0.189290 -0.040519 0.635000 15065068
0.187204 -0.036484 0.628000 15198459
0.185415 -0.032581 0.622000 10853072
0.183925 -0.028793 0.617000 6043925
0.183030 -0.025145 0.614000 5850184
0.182732 -0.021601 0.613000 5202055
0.182732 -0.018098 0.613000 5331828
0.182732 -0.014595 0.613000 5981257
0.182434 -0.011074 0.612000 5589606
0.182136 -0.007565 0.611000 7167338
0.181540 -0.004060 0.609000 6379130
0.181242 -0.000579 0.608000 7625593
0.181242 0.002895 0.608000 7885687
0.181242 0.006370 0.608000 8542809
0.181242 0.009844 0.608000 8152142
0.182732 0.013428 0.613000 3542529
0.184223 0.017069 0.618000 3939626
0.195900 -0.052862 0.653000 13607852
0.194400 -0.048754 0.648000 10594255
0.190500 -0.044148 0.635000 9080253
0.190200 -0.040455 0.634000 15064045
0.187800 -0.036368 0.626000 15528189
0.186600 -0.032581 0.622000 10917559
0.184800 -0.028747 0.616000 8212287
0.183900 -0.025104 0.613000 6378059
0.183900 -0.021601 0.613000 5529963
0.183600 -0.018069 0.612000 5393249
0.183600 -0.014571 0.612000 6045536
0.183300 -0.011056 0.611000 4868716
0.182700 -0.007540 0.609000 6906461
0.182400 -0.004053 0.608000 5790844
0.182100 -0.000578 0.607000 7694454
0.182100 0.002890 0.607000 6642038
0.182100 0.006359 0.607000 6901599
0.182100 0.009828 0.607000 9002564
0.183300 0.013384 0.611000 2753339
0.185400 0.017069 0.618000 3478050
0.197144 -0.052862 0.653000 13476779
0.195634 -0.048754 0.648000 10858180
0.192011 -0.044217 0.636000 9344453
0.191408 -0.040455 0.634000 15261423
0.188992 -0.036368 0.626000 13551870
0.187785 -0.032581 0.622000 11578014
0.185671 -0.028700 0.615000 8282216
0.185068 -0.025104 0.613000 5986125
0.184766 -0.021566 0.612000 5393742
0.184766 -0.018069 0.612000 5251918
0.184464 -0.014548 0.611000 6314870
0.183860 -0.011020 0.609000 5459059
0.183558 -0.007528 0.608000 6904143
0.183256 -0.004047 0.607000 6183805
0.182954 -0.000577 0.606000 7165555
0.182954 0.002886 0.606000 6315893
0.182954 0.006349 0.606000 6637925
0.182652 0.009795 0.605000 9329979
0.183256 0.013296 0.607000 5719412
0.186577 0.017069 0.618000 2952985
0.196869 -0.048754 0.648000 11052743
0.193223 -0.044217 0.636000 9541848
0.192615 -0.040455 0.634000 15457774
0.190185 -0.036368 0.626000 11514076
0.189273 -0.032633 0.623000 12219794
0.186843 -0.028700 0.615000 8354700
0.185931 -0.025063 0.612000 5592642
0.185628 -0.021530 0.611000 5325394
0.185628 -0.018039 0.611000 5127772
0.184716 -0.014476 0.608000 6646395
0.184716 -0.011002 0.608000 6052479
0.184412 -0.007515 0.607000 6905190
0.184109 -0.004040 0.606000 6578306
0.183805 -0.000576 0.605000 6704268
0.183501 0.002876 0.604000 5915746
0.183501 0.006328 0.604000 6437428
0.183501 0.009779 0.604000 9588021
0.184109 0.013274 0.606000 8682873
0.185628 0.016875 0.611000 2438962
0.198103 -0.048754 0.648000 11907018
0.194434 -0.044217 0.636000 10595819
0.193823 -0.040455 0.634000 14539502
0.191377 -0.036368 0.626000 11177914
0.190460 -0.032633 0.623000 10389127
0.187709 -0.028653 0.614000 7234736
0.187097 -0.025063 0.612000 5463607
0.186180 -0.021460 0.609000 5258838
0.185874 -0.017950 0.608000 5461866
0.185874 -0.014476 0.608000 6645119
0.185569 -0.010984 0.607000 6186380
0.185263 -0.007503 0.606000 6839677
0.184957 -0.004033 0.605000 6643591
0.184651 -0.000575 0.604000 9403300
0.184651 0.002876 0.604000 5112655
0.184346 0.006317 0.603000 5969922
0.184651 0.009779 0.604000 8009263
0.184957 0.013252 0.605000 8877694
0.186791 0.016875 0.611000 4808778
0.199337 -0.048754 0.648000 12692159
0.196569 -0.044426 0.639000 11714029
0.195338 -0.040519 0.635000 13544403
0.192570 -0.036368 0.626000 10842246
0.191647 -0.032633 0.623000 8478072
0.188570 -0.028607 0.613000 6183579
0.187955 -0.025022 0.611000 5332306
0.187032 -0.021425 0.608000 5189736
0.186725 -0.017921 0.607000 5790838
0.186725 -0.014452 0.607000 6709118
0.186417 -0.010966 0.606000 6250374
0.186110 -0.007490 0.605000 6838657
0.186110 -0.004033 0.605000 6710659
0.185802 -0.000575 0.604000 12148129
0.185494 0.002871 0.603000 4272206
0.185494 0.006317 0.603000 5506096
0.185494 0.009763 0.603000 6434855
0.185802 0.013230 0.604000 9010791
0.187340 0.016820 0.609000 7097924
0.200571 -0.048754 0.648000 13215925
0.197786 -0.044426 0.639000 11581422
0.196548 -0.040519 0.635000 10639800
0.193762 -0.036368 0.626000 10843218
0.192524 -0.032581 0.622000 5570922
0.189738 -0.028607 0.613000 6771845
0.188500 -0.024940 0.609000 5333612
0.187881 -0.021390 0.607000 6052217
0.187571 -0.017891 0.606000 5922690
0.187571 -0.014429 0.606000 8025213
