# .PCD v.7 - Point Cloud Data file format
VERSION .7
FIELDS x y z rgb
SIZE 4 4 4 4
TYPE F F F I
COUNT 1 1 1 1
WIDTH 1343
HEIGHT 1
POINTS 1343
DATA ascii
0.077331 0.168543 0.694000 9071948
0.077666 0.173254 0.697000 9727852
0.077777 0.177491 0.698000 9006425
0.078000 0.182000 0.700000 11108427
0.078334 0.186797 0.703000 12433873
0.078334 0.190814 0.703000 6241388
0.080467 0.131857 0.710000 15526390
0.080127 0.135340 0.707000 15394547
0.079787 0.138789 0.704000 15460597
0.079673 0.142609 0.703000 16051192
0.079447 0.146209 0.701000 14335938
0.078993 0.149357 0.697000 11627126
0.078540 0.152460 0.693000 12494212
0.078313 0.155969 0.691000 12691359
0.078313 0.159917 0.691000 9469023
0.078540 0.164340 0.693000 10456678
0.078653 0.168543 0.694000 10054517
0.078767 0.172757 0.695000 9798541
0.078993 0.177237 0.697000 8092265
0.079333 0.182000 0.700000 10180419
0.079673 0.186797 0.703000 13091017
0.079673 0.190814 0.703000 5920886
0.081589 0.131486 0.708000 15329270
0.081473 0.135340 0.707000 15722996
0.081128 0.138789 0.704000 15592440
0.081012 0.142609 0.703000 14606841
0.080667 0.146000 0.700000 13206661
0.080321 0.149357 0.697000 12097098
0.079860 0.152460 0.693000 12560512
0.079630 0.155969 0.691000 12630452
0.079630 0.159917 0.691000 10194779
0.079630 0.163866 0.691000 11316860
0.079860 0.168300 0.693000 11377566
0.080090 0.172757 0.695000 10984366
0.080321 0.177237 0.697000 7427704
0.080667 0.182000 0.700000 7477051
0.080782 0.186266 0.701000 11707841
0.081012 0.190814 0.703000 7165569
0.082937 0.131486 0.708000 15200759
0.082820 0.135340 0.707000 15984875
0.082469 0.138789 0.704000 15788775
0.082351 0.142609 0.703000 13086633
0.082000 0.146000 0.700000 12084866
0.081649 0.149357 0.697000 12493139
0.081180 0.152460 0.693000 12558711
0.080946 0.155969 0.691000 12501951
0.080829 0.159686 0.690000 10850905
0.080829 0.163629 0.690000 12167786
0.081180 0.168300 0.693000 12693129
0.081297 0.172509 0.694000 12102052
0.081649 0.177237 0.697000 6774909
0.081766 0.181480 0.698000 4791643
0.082000 0.186000 0.700000 10391706
0.082117 0.190271 0.701000 8352653
0.084167 0.135340 0.707000 14670306
0.083810 0.138789 0.704000 14270934
0.083690 0.142609 0.703000 12680793
0.083333 0.146000 0.700000 12228479
0.082976 0.149357 0.697000 12425564
0.082500 0.152460 0.693000 12695661
0.082262 0.155969 0.691000 12837322
0.082024 0.159454 0.689000 10390614
0.082024 0.163391 0.689000 11183192
0.082262 0.167814 0.691000 11640180
0.082619 0.172509 0.694000 10724250
0.082738 0.176729 0.695000 7761537
0.083095 0.181480 0.698000 6110842
0.083333 0.186000 0.700000 10387314
0.083452 0.190271 0.701000 9273498
0.085271 0.134957 0.705000 13351117
0.085150 0.138789 0.704000 12822956
0.085030 0.142609 0.703000 12228190
0.084667 0.146000 0.700000 12428883
0.084304 0.149357 0.697000 12300884
0.083820 0.152460 0.693000 12766590
0.083578 0.155969 0.691000 13153193
0.083336 0.159454 0.689000 9859165
0.083336 0.163391 0.689000 10122577
0.083578 0.167814 0.691000 10579775
0.083820 0.172260 0.693000 9272150
0.083820 0.176220 0.693000 8740700
0.084304 0.181220 0.697000 7431042
0.084425 0.185469 0.698000 10464655
0.084667 0.190000 0.700000 10195114
0.086614 0.134957 0.705000 13542841
0.086491 0.138789 0.704000 12558977
0.086369 0.142609 0.703000 11966819
0.086000 0.146000 0.700000 11436070
0.085631 0.149357 0.697000 13491021
0.085140 0.152460 0.693000 12367758
0.084894 0.155969 0.691000 11953289
0.084649 0.159454 0.689000 10179939
0.084403 0.162917 0.687000 9907018
0.084894 0.167814 0.691000 9842954
0.085140 0.172260 0.693000 8537107
0.085140 0.176220 0.693000 8151095
0.085386 0.180700 0.695000 8028554
0.085631 0.185203 0.697000 10658732
0.086000 0.190000 0.700000 11512250
0.087957 0.134957 0.705000 13746634
0.087832 0.138789 0.704000 12296836
0.087458 0.142203 0.701000 11702415
0.087084 0.145583 0.698000 10388564
0.086710 0.148929 0.695000 14598761
0.086460 0.152460 0.693000 11967862
0.086210 0.155969 0.691000 10772627
0.085961 0.159454 0.689000 10517643
0.085711 0.162917 0.687000 9649502
0.086086 0.167571 0.690000 9064775
0.086210 0.171763 0.691000 7811128
0.086460 0.176220 0.693000 7559243
0.086585 0.180440 0.694000 8613241
0.086959 0.185203 0.697000 10789781
0.086959 0.189186 0.697000 12824759
0.089173 0.134766 0.704000 14141915
0.089047 0.138591 0.703000 12093062
0.088667 0.142000 0.700000 12890555
0.088287 0.145374 0.697000 11908738
0.087907 0.148714 0.694000 12620421
0.087527 0.152020 0.691000 12020830
0.087273 0.155517 0.689000 11832476
0.086893 0.158760 0.686000 10845106
0.086893 0.162680 0.686000 9850995
0.087020 0.166843 0.687000 9920644
0.087400 0.171514 0.690000 8395357
0.087527 0.175711 0.691000 7165790
0.087780 0.180180 0.693000 7100776
0.087907 0.184406 0.694000 8942206
0.088033 0.188643 0.695000 13158324
0.088033 0.192614 0.695000 7359562
0.090643 0.134957 0.705000 14471395
0.090386 0.138591 0.703000 11893945
0.090000 0.142000 0.700000 14078675
0.089614 0.145374 0.697000 13419922
0.089229 0.148714 0.694000 10578559
0.088843 0.152020 0.691000 12023185
0.088586 0.155517 0.689000 12874636
0.088200 0.158760 0.686000 11166624
0.088200 0.162680 0.686000 9979247
0.088329 0.166843 0.687000 10766701
0.088586 0.171266 0.689000 8926040
0.088714 0.175457 0.690000 6838356
0.089100 0.180180 0.693000 5584964
0.089229 0.184406 0.694000 7098973
0.089357 0.188643 0.695000 13413544
0.089357 0.192614 0.695000 7684438
0.091855 0.134766 0.704000 14933227
0.091464 0.138197 0.701000 13549804
0.091333 0.142000 0.700000 14343659
0.090942 0.145374 0.697000 12491681
0.090550 0.148714 0.694000 11754874
0.090159 0.152020 0.691000 12682691
0.089898 0.155517 0.689000 12790907
0.089507 0.158760 0.686000 11892621
0.089507 0.162680 0.686000 10118763
0.089637 0.166843 0.687000 10440277
0.089898 0.171266 0.689000 9317971
0.090029 0.175457 0.690000 7356490
0.090159 0.179660 0.691000 6162721
0.090550 0.184406 0.694000 7885884
0.090681 0.188643 0.695000 12496540
0.090681 0.192614 0.695000 8019297
0.093196 0.134766 0.704000 15327729
0.092799 0.138197 0.701000 15202034
0.092667 0.142000 0.700000 14602169
0.092270 0.145374 0.697000 11564134
0.091872 0.148714 0.694000 12876688
0.091475 0.152020 0.691000 13335182
0.091210 0.155517 0.689000 12738448
0.090813 0.158760 0.686000 12622738
0.090549 0.162206 0.684000 10247780
0.090946 0.166843 0.687000 10180945
0.091210 0.171266 0.689000 9720933
0.091343 0.175457 0.690000 7951217
0.091475 0.179660 0.691000 6688298
0.091740 0.184140 0.693000 8675624
0.092005 0.188643 0.695000 11576961
0.092005 0.192614 0.695000 8413534
0.094537 0.134766 0.704000 15790072
0.094134 0.138197 0.701000 14275832
0.093731 0.141594 0.698000 12953992
0.093597 0.145374 0.697000 12217387
0.093194 0.148714 0.694000 12950951
0.092791 0.152020 0.691000 12539992
0.092523 0.155517 0.689000 13012133
0.092120 0.158760 0.686000 12220567
0.091851 0.162206 0.684000 10039901
0.092120 0.166600 0.686000 9914956
0.092254 0.170769 0.687000 9988728
0.092523 0.175203 0.689000 9137304
0.092791 0.179660 0.691000 6820148
0.093060 0.184140 0.693000 8012564
0.093194 0.188371 0.694000 10458470
0.093194 0.192337 0.694000 8415835
0.095742 0.134574 0.703000 16249078
0.095470 0.138197 0.701000 13352404
0.094925 0.141391 0.697000 11217746
0.094652 0.144957 0.695000 12813419
0.094516 0.148714 0.694000 12941454
0.093971 0.151800 0.690000 11811964
0.093563 0.155066 0.687000 13272963
0.093427 0.158760 0.686000 11756449
0.093154 0.162206 0.684000 9784956
0.093427 0.166600 0.686000 9716065
0.093427 0.170520 0.686000 10249337
0.093835 0.175203 0.689000 10382173
0.094108 0.179660 0.691000 6961744
0.094108 0.183609 0.691000 7418691
0.094516 0.188371 0.694000 9342314
0.094516 0.192337 0.694000 8482392
0.097081 0.134574 0.703000 16183796
0.096805 0.138197 0.701000 11756719
0.096252 0.141391 0.697000 11338012
0.095976 0.144957 0.695000 12546219
0.095838 0.148714 0.694000 12673141
0.095286 0.151800 0.690000 11948703
0.094733 0.154840 0.686000 13471073
0.094457 0.158297 0.684000 12552618
0.094457 0.162206 0.684000 9462427
0.094457 0.166114 0.684000 9919606
0.094733 0.170520 0.686000 10450811
0.094871 0.174694 0.687000 9583906
0.095286 0.179400 0.690000 7498604
0.095424 0.183609 0.691000 8149873
0.095700 0.188100 0.693000 9143151
0.095700 0.192060 0.693000 8286805
0.098420 0.134574 0.703000 16116715
0.098140 0.138197 0.701000 10158480
0.097580 0.141391 0.697000 11475492
0.097300 0.144957 0.695000 12218454
0.097160 0.148714 0.694000 12342914
0.096600 0.151800 0.690000 12088209
0.096040 0.154840 0.686000 13601925
0.095760 0.158297 0.684000 13408138
0.095760 0.162206 0.684000 9135255
0.095760 0.166114 0.684000 10112359
0.096040 0.170520 0.686000 10578796
0.096180 0.174694 0.687000 8854834
0.096460 0.179140 0.689000 7955554
0.096600 0.183343 0.690000 8876669
0.096740 0.187557 0.691000 8951148
0.096740 0.191506 0.691000 8094038
0.099759 0.134574 0.703000 16052194
0.099333 0.138000 0.700000 9707888
0.098908 0.141391 0.697000 11345452
0.098624 0.144957 0.695000 12144897
0.098482 0.148714 0.694000 12474766
0.097914 0.151800 0.690000 12287363
0.097347 0.154840 0.686000 12880298
0.097063 0.158297 0.684000 12546665
0.097063 0.162206 0.684000 10645140
0.097063 0.166114 0.684000 9390424
0.097347 0.170520 0.686000 8993629
0.097347 0.174440 0.686000 8331329
0.097772 0.179140 0.689000 7815512
0.097914 0.183343 0.690000 10591368
0.098056 0.187557 0.691000 8955753
0.098056 0.191506 0.691000 8028246
0.100667 0.138000 0.700000 9240971
0.100235 0.141391 0.697000 11146816
0.099948 0.144957 0.695000 12152151
0.099804 0.148714 0.694000 12613011
0.099229 0.151800 0.690000 12561563
0.098653 0.154840 0.686000 12091544
0.098366 0.158297 0.684000 11698800
0.098222 0.161969 0.683000 12168372
0.098222 0.165871 0.683000 8688022
0.098653 0.170520 0.686000 7425128
0.098653 0.174440 0.686000 7803722
0.098797 0.178620 0.687000 7614785
0.099085 0.183077 0.689000 12367735
0.099229 0.187286 0.690000 8946265
0.099372 0.191506 0.691000 8033426
0.101709 0.137606 0.698000 10700453
0.101563 0.141391 0.697000 11212884
0.101271 0.144957 0.695000 12616109
0.101126 0.148714 0.694000 13015192
0.100397 0.151580 0.689000 12356786
0.099960 0.154840 0.686000 13144197
0.099669 0.158297 0.684000 13610615
0.099523 0.161969 0.683000 13555413
0.099523 0.165871 0.683000 10596051
0.099669 0.170023 0.684000 8020338
0.099960 0.174440 0.686000 8533842
0.100106 0.178620 0.687000 7930153
0.100397 0.183077 0.689000 11902309
0.100543 0.187286 0.690000 8015689
0.100689 0.191506 0.691000 9609677
0.103038 0.137606 0.698000 12219084
0.102890 0.141391 0.697000 11292255
0.102448 0.144749 0.694000 13079169
0.102300 0.148500 0.693000 13405335
0.101710 0.151580 0.689000 12155000
0.101267 0.154840 0.686000 14204313
0.100971 0.158297 0.684000 15577966
0.100676 0.161731 0.682000 14864086
0.100676 0.165629 0.682000 12499665
0.100971 0.170023 0.684000 8547694
0.101267 0.174440 0.686000 9264453
0.101267 0.178360 0.686000 8266040
0.101414 0.182546 0.687000 11445132
0.101857 0.187286 0.690000 7103597
0.102005 0.191506 0.691000 11191233
0.102005 0.195454 0.691000 7167077
0.104368 0.137606 0.698000 13145586
0.104218 0.141391 0.697000 12097642
0.103919 0.144957 0.695000 12481108
0.103620 0.148500 0.693000 12155286
0.103022 0.151580 0.689000 12285502
0.102573 0.154840 0.686000 14669228
0.102274 0.158297 0.684000 14724964
0.101975 0.161731 0.682000 15130839
0.101975 0.165629 0.682000 12169679
0.102125 0.169774 0.683000 8743786
0.102274 0.173931 0.684000 9328439
0.102573 0.178360 0.686000 7931719
0.102723 0.182546 0.687000 11970994
0.103022 0.187014 0.689000 8610962
0.103171 0.191229 0.690000 11908789
0.103171 0.195171 0.690000 7165562
0.105697 0.137606 0.698000 14076407
0.105546 0.141391 0.697000 12868196
0.105091 0.144749 0.694000 11878454
0.104940 0.148500 0.693000 10829939
0.104334 0.151580 0.689000 12361347
0.103880 0.154840 0.686000 15055513
0.103577 0.158297 0.684000 13868401
0.103426 0.161969 0.683000 15386552
0.102971 0.165143 0.680000 11841699
0.103426 0.169774 0.683000 8939114
0.103577 0.173931 0.684000 9459262
0.103880 0.178360 0.686000 7550284
0.103880 0.182280 0.686000 12432050
0.104334 0.187014 0.689000 10130074
0.104486 0.191229 0.690000 12628928
0.104486 0.195171 0.690000 7107463
0.107027 0.137606 0.698000 14338812
0.106873 0.141391 0.697000 12270687
0.106413 0.144749 0.694000 10686999
0.105953 0.148071 0.691000 11075919
0.105647 0.151580 0.689000 12493511
0.105187 0.154840 0.686000 14923397
0.104880 0.158297 0.684000 13145982
0.104267 0.161257 0.680000 13484185
0.104113 0.164900 0.679000 10192502
0.104267 0.169029 0.680000 8408426
0.104727 0.173677 0.683000 9523013
0.104880 0.177840 0.684000 8268625
0.105187 0.182280 0.686000 12495794
0.105340 0.186471 0.687000 11378593
0.105800 0.191229 0.690000 12761035
0.105800 0.195171 0.690000 8748692
0.108356 0.137606 0.698000 14611197
0.108201 0.141391 0.697000 11678321
0.107735 0.144749 0.694000 9568812
0.107270 0.148071 0.691000 11301734
0.106649 0.151140 0.687000 12699305
0.106493 0.154840 0.686000 14782073
0.106183 0.158297 0.684000 12424258
0.105562 0.161257 0.680000 11496579
0.105407 0.164900 0.679000 8605784
0.105562 0.169029 0.680000 7883857
0.105872 0.173423 0.682000 9590616
0.106183 0.177840 0.684000 8940116
0.106493 0.182280 0.686000 12560305
0.106649 0.186471 0.687000 12558983
0.107114 0.191229 0.690000 12892574
0.107114 0.195171 0.690000 10324101
0.109529 0.137409 0.697000 15002110
0.109529 0.141391 0.697000 11149698
0.109057 0.144749 0.694000 10626368
0.108586 0.148071 0.691000 13552252
0.107957 0.151140 0.687000 12821643
0.107486 0.154389 0.684000 12673644
0.107486 0.158297 0.684000 9982213
0.106857 0.161257 0.680000 8192364
0.106700 0.164900 0.679000 6957626
0.106857 0.169029 0.680000 7228729
0.106857 0.172914 0.680000 8936555
0.107329 0.177580 0.683000 10194008
0.107486 0.181749 0.684000 12428719
0.107800 0.186200 0.686000 11573101
0.108271 0.190951 0.689000 11641456
0.108429 0.195171 0.690000 10522229
0.110856 0.137409 0.697000 15396849
0.110856 0.141391 0.697000 10643110
0.110220 0.144540 0.693000 11740231
0.109743 0.147857 0.690000 15707504
0.109266 0.151140 0.687000 12952698
0.109107 0.154840 0.686000 10584171
0.108789 0.158297 0.684000 7536930
0.107993 0.161020 0.679000 4872603
0.107993 0.164900 0.679000 5330037
0.107993 0.168780 0.679000 6510419
0.108152 0.172914 0.680000 8217704
0.108630 0.177580 0.683000 11369554
0.108789 0.181749 0.684000 12298401
0.109107 0.186200 0.686000 10515289
0.109266 0.190397 0.687000 10390852
0.109584 0.194889 0.689000 10655364
0.112184 0.137409 0.697000 14867427
0.111862 0.140986 0.695000 12360393
0.111540 0.144540 0.693000 11742029
0.111057 0.147857 0.690000 14517348
0.110574 0.151140 0.687000 13605993
0.110413 0.154840 0.686000 12093802
0.109930 0.158066 0.683000 7285823
0.109287 0.161020 0.679000 8104906
0.109126 0.164657 0.678000 7239856
0.109287 0.168780 0.679000 6574700
0.109448 0.172914 0.680000 8018276
0.109770 0.177320 0.682000 11301709
0.110091 0.181749 0.684000 10915986
0.110413 0.186200 0.686000 5845829
0.110413 0.190120 0.686000 8874008
0.110896 0.194889 0.689000 11122836
0.113511 0.137409 0.697000 14408161
0.113186 0.140986 0.695000 14006496
0.112860 0.144540 0.693000 11732263
0.112371 0.147857 0.690000 13263713
0.111883 0.151140 0.687000 14325110
0.111720 0.154840 0.686000 13541764
0.111231 0.158066 0.683000 7036543
0.110580 0.161020 0.679000 11315135
0.110417 0.164657 0.678000 9079472
0.110417 0.168531 0.678000 6575729
0.110743 0.172914 0.680000 7818837
0.111069 0.177320 0.682000 11236171
0.111231 0.181483 0.683000 9600627
0.111394 0.185657 0.684000 1121842
0.111720 0.190120 0.686000 7354679
0.111883 0.194323 0.687000 11512956
0.114839 0.137409 0.697000 14077663
0.114510 0.140986 0.695000 14736375
0.113850 0.144123 0.691000 10955009
0.113686 0.147857 0.690000 13122398
0.113191 0.151140 0.687000 14587522
0.112697 0.154389 0.684000 14403742
0.112368 0.157834 0.682000 9080767
0.111873 0.161020 0.679000 10983349
0.111709 0.164657 0.678000 8288944
0.111709 0.168531 0.678000 6703222
0.111873 0.172660 0.679000 8345925
0.112038 0.176800 0.680000 10904649
0.112532 0.181483 0.683000 8017492
0.112697 0.185657 0.684000 1116447
0.113027 0.190120 0.686000 6308950
0.113027 0.194040 0.686000 10924133
0.115833 0.140986 0.695000 15393273
0.115167 0.144123 0.691000 10102382
0.115000 0.147857 0.690000 12941168
0.114500 0.151140 0.687000 14856084
0.114333 0.154840 0.686000 15248263
0.113667 0.157834 0.682000 11049920
0.113167 0.161020 0.679000 10591677
0.112667 0.164171 0.676000 7499949
0.113000 0.168531 0.678000 6832231
0.113167 0.172660 0.679000 8874339
0.113333 0.176800 0.680000 10514011
0.113667 0.181217 0.682000 6442078
0.113833 0.185386 0.683000 1052467
0.114000 0.189566 0.684000 5268565
0.114333 0.194040 0.686000 10311758
0.114333 0.197960 0.686000 8543577
0.116989 0.140783 0.694000 15591675
0.116483 0.144123 0.691000 12689371
0.116314 0.147857 0.690000 13799299
0.115809 0.151140 0.687000 14723494
0.115303 0.154389 0.684000 13932401
0.114629 0.157371 0.680000 10586816
0.114460 0.161020 0.679000 10331077
0.113954 0.164171 0.676000 8222121
0.113954 0.168034 0.676000 6957912
0.114460 0.172660 0.679000 9138816
0.114460 0.176540 0.679000 10386028
0.114629 0.180686 0.680000 6442087
0.115134 0.185386 0.683000 3217224
0.115303 0.189566 0.684000 5844051
0.115640 0.194040 0.686000 7668023
0.115640 0.197960 0.686000 8415841
0.118310 0.140783 0.694000 15723768
0.117799 0.144123 0.691000 15257003
0.117629 0.147857 0.690000 14656361
0.117117 0.151140 0.687000 14590354
0.116606 0.154389 0.684000 12542314
0.115924 0.157371 0.680000 10058915
0.115753 0.161020 0.679000 10063284
0.115071 0.163929 0.675000 8952511
0.115242 0.168034 0.676000 7091800
0.115583 0.172406 0.678000 9403257
0.115753 0.176540 0.679000 10187117
0.115924 0.180686 0.680000 6502772
0.116265 0.185114 0.682000 5322335
0.116606 0.189566 0.684000 6438773
0.116606 0.193474 0.684000 5057122
0.116947 0.197960 0.686000 8288643
0.119632 0.136817 0.694000 13352131
0.119632 0.140783 0.694000 15789046
0.119115 0.144123 0.691000 14523514
0.118943 0.147857 0.690000 14857039
0.118426 0.151140 0.687000 14323838
0.117909 0.154389 0.684000 10305635
0.117219 0.157371 0.680000 9650821
0.117047 0.161020 0.679000 10195619
0.116530 0.164171 0.676000 9806292
0.116357 0.167786 0.675000 7223384
0.116874 0.172406 0.678000 9139058
0.117047 0.176540 0.679000 8939374
0.117219 0.180686 0.680000 7494017
0.117564 0.185114 0.682000 5327991
0.117736 0.189289 0.683000 6840982
0.117909 0.193474 0.684000 6050958
0.117909 0.197383 0.684000 8746148
0.120954 0.136817 0.694000 13415093
0.120954 0.140783 0.694000 15785131
0.120431 0.144123 0.691000 13784665
0.120257 0.147857 0.690000 14988382
0.119734 0.151140 0.687000 14058327
0.119211 0.154389 0.684000 8084092
0.118514 0.157371 0.680000 9320344
0.118340 0.161020 0.679000 10327980
0.117643 0.163929 0.675000 10729387
0.117643 0.167786 0.675000 7293024
0.117817 0.171897 0.676000 8940170
0.118166 0.176280 0.678000 7694972
0.118514 0.180686 0.680000 8485738
0.118514 0.184571 0.680000 5332616
0.119037 0.189289 0.683000 7302004
0.119211 0.193474 0.684000 6972315
0.119211 0.197383 0.684000 9207705
0.122276 0.136817 0.694000 12889510
0.122100 0.140580 0.693000 14140257
0.121748 0.144123 0.691000 13596215
0.121571 0.147857 0.690000 14529389
0.120867 0.150920 0.686000 13534511
0.120338 0.154163 0.683000 8347285
0.119810 0.157371 0.680000 10521002
0.119457 0.160783 0.678000 9407670
0.118929 0.163929 0.675000 9339521
0.118929 0.167786 0.675000 7419239
0.118929 0.171643 0.675000 10192545
0.119457 0.176280 0.678000 9534346
0.119633 0.180420 0.679000 7951955
0.119810 0.184571 0.680000 6908057
0.120162 0.189011 0.682000 7365713
0.120338 0.193191 0.683000 7234984
0.120338 0.197094 0.683000 8550542
0.123420 0.140580 0.693000 12429918
0.123064 0.144123 0.691000 13466701
0.122708 0.147643 0.689000 14062700
0.121817 0.150480 0.684000 13063751
0.121461 0.153937 0.682000 8617881
0.120927 0.157140 0.679000 11711149
0.120392 0.160309 0.676000 8413074
0.120036 0.163686 0.674000 8017790
0.119680 0.167040 0.672000 7551608
0.120036 0.171389 0.674000 11443350
0.120214 0.175500 0.675000 11378088
0.120749 0.180154 0.678000 7415383
0.120927 0.184300 0.679000 8482705
0.120927 0.188180 0.679000 7432305
0.121461 0.192909 0.682000 7431840
0.121461 0.196806 0.682000 7962756
0.124380 0.140174 0.691000 12363611
0.124020 0.143706 0.689000 13733731
0.123660 0.147214 0.687000 12737131
0.122940 0.150260 0.683000 11161439
0.122400 0.153486 0.680000 8748189
0.122220 0.157140 0.679000 10257071
0.121680 0.160309 0.676000 7281263
0.121320 0.163686 0.674000 7229818
0.120960 0.167040 0.672000 5970569
0.120960 0.170880 0.672000 10646666
0.121500 0.175500 0.675000 12370118
0.122040 0.180154 0.678000 8661851
0.122040 0.184029 0.678000 8088970
0.122220 0.188180 0.679000 7432848
0.122760 0.192909 0.682000 7628697
0.122760 0.196806 0.682000 9604474
0.125696 0.140174 0.691000 12294258
0.125332 0.143706 0.689000 13998674
0.124969 0.147214 0.687000 11418723
0.124241 0.150260 0.683000 9339045
0.123695 0.153486 0.680000 8816296
0.123331 0.156909 0.678000 8868785
0.122786 0.160071 0.675000 6177156
0.122240 0.163200 0.672000 6441317
0.122058 0.166791 0.671000 4402575
0.122240 0.170880 0.672000 9788559
0.122604 0.175240 0.674000 13351885
0.122968 0.179623 0.676000 9901956
0.123331 0.184029 0.678000 7617892
0.123513 0.188180 0.679000 7498128
0.124059 0.192909 0.682000 7754370
0.124059 0.196806 0.682000 11180384
0.126829 0.139971 0.690000 12425098
0.126645 0.143706 0.689000 13340480
0.126093 0.147000 0.686000 11607131
0.125542 0.150260 0.683000 9606379
0.124807 0.153260 0.679000 9149107
0.124623 0.156909 0.678000 8939955
0.124071 0.160071 0.675000 7169690
0.123520 0.163200 0.672000 7160399
0.123336 0.166791 0.671000 6247317
0.123336 0.170626 0.671000 9730708
0.123520 0.174720 0.672000 13351124
0.124071 0.179357 0.675000 10376108
0.124255 0.183486 0.676000 7078206
0.124623 0.187903 0.678000 7626128
0.124990 0.192343 0.680000 8199788
0.124990 0.196229 0.680000 10708293
0.124990 0.200114 0.680000 8807517
0.128143 0.139971 0.690000 12491419
0.127957 0.143706 0.689000 12753999
0.127400 0.147000 0.686000 11745641
0.126843 0.150260 0.683000 9876197
0.126100 0.153260 0.679000 9399707
0.125914 0.156909 0.678000 9013670
0.125171 0.159834 0.674000 8152985
0.124800 0.163200 0.672000 7956076
0.124614 0.166791 0.671000 8093866
0.124614 0.170626 0.671000 9733003
0.124800 0.174720 0.672000 13350845
0.125357 0.179357 0.675000 10853310
0.125543 0.183486 0.676000 6501994
0.125914 0.187903 0.678000 7821706
0.126100 0.192060 0.679000 8659299
0.126100 0.195940 0.679000 10171727
0.126286 0.200114 0.680000 9071717
0.129457 0.139971 0.690000 12757163
0.129270 0.143706 0.689000 12680030
0.128707 0.147000 0.686000 10438775
0.128144 0.150260 0.683000 9739230
0.127393 0.153260 0.679000 6957700
0.126830 0.156446 0.676000 9075609
0.126455 0.159834 0.674000 8553369
0.126080 0.163200 0.672000 10328968
0.125892 0.166791 0.671000 9348031
0.125892 0.170626 0.671000 7360641
0.126080 0.174720 0.672000 13088165
0.126455 0.179091 0.674000 11709135
0.126643 0.183214 0.675000 9337751
0.127206 0.187903 0.678000 8406404
0.127393 0.192060 0.679000 9114203
0.127393 0.195940 0.679000 9445977
0.127393 0.199820 0.679000 9531245
0.130582 0.139769 0.689000 12952744
0.130203 0.143289 0.687000 12678218
0.130013 0.147000 0.686000 9066375
0.129445 0.150260 0.683000 9676237
0.128687 0.153260 0.679000 4547215
0.128118 0.156446 0.676000 9141662
0.127739 0.159834 0.674000 8875384
0.127360 0.163200 0.672000 12692890
0.126981 0.166543 0.670000 10595793
0.127170 0.170626 0.671000 5068185
0.127360 0.174720 0.672000 12824762
0.127739 0.179091 0.674000 12558261
0.127929 0.183214 0.675000 12164521
0.128497 0.187903 0.678000 9058929
0.128687 0.192060 0.679000 9513552
0.128687 0.195940 0.679000 8786777
0.128687 0.199820 0.679000 9992812
0.131894 0.139769 0.689000 12697254
0.131511 0.143289 0.687000 11490101
0.130937 0.146571 0.684000 9136024
0.130554 0.150040 0.682000 8685756
0.129980 0.153260 0.679000 5666458
0.129214 0.156214 0.675000 8875682
0.129023 0.159834 0.674000 9000023
0.128640 0.163200 0.672000 11768235
0.128257 0.166543 0.670000 13095908
0.128257 0.170371 0.670000 8488369
0.128449 0.174460 0.671000 12893902
0.128640 0.178560 0.672000 12360091
0.129023 0.182943 0.674000 12368316
0.129406 0.187349 0.676000 9393502
0.129789 0.191777 0.678000 10116677
0.129789 0.195651 0.678000 9051481
0.129980 0.199820 0.679000 10719595
0.132820 0.139363 0.687000 12362919
0.132820 0.143289 0.687000 10314869
0.132240 0.146571 0.684000 9209521
0.131853 0.150040 0.682000 7767241
0.131273 0.153260 0.679000 6776731
0.130500 0.156214 0.675000 8680093
0.130307 0.159834 0.674000 9123909
0.129920 0.163200 0.672000 10840969
0.129533 0.166543 0.670000 15588829
0.129533 0.170371 0.670000 11906232
0.129727 0.174460 0.671000 12892353
0.129920 0.178560 0.672000 12161947
0.130307 0.182943 0.674000 12494008
0.130693 0.187349 0.676000 9722250
0.131080 0.191777 0.678000 10639698
0.131273 0.195940 0.679000 9383776
0.131273 0.199820 0.679000 11373919
0.134129 0.139363 0.687000 11704488
0.133543 0.142663 0.684000 11176884
0.133543 0.146571 0.684000 9211850
0.133348 0.150260 0.683000 8823510
0.132567 0.153260 0.679000 7949469
0.131786 0.156214 0.675000 7890072
0.131590 0.159834 0.674000 6891572
0.131200 0.163200 0.672000 11302759
0.130810 0.166543 0.670000 14474966
0.130614 0.170117 0.669000 11643071
0.130810 0.174200 0.670000 12692916
0.131005 0.178294 0.671000 11437722
0.131200 0.182400 0.672000 12689843
0.131786 0.187071 0.675000 8744118
0.131981 0.191211 0.676000 8729952
0.132371 0.195651 0.678000 9452135
0.132371 0.199526 0.678000 11903060
0.134846 0.142663 0.684000 12100268
0.134846 0.146571 0.684000 9212860
0.134451 0.150040 0.682000 9937337
0.133663 0.153034 0.678000 9074338
0.133071 0.156214 0.675000 7172510
0.132874 0.159834 0.674000 4664902
0.132480 0.163200 0.672000 11839111
0.132086 0.166543 0.670000 13285585
0.131889 0.170117 0.669000 11443115
0.131889 0.173940 0.669000 12497340
0.132086 0.178029 0.670000 10713492
0.132480 0.182400 0.672000 12821642
0.133071 0.187071 0.675000 7764400
0.133269 0.191211 0.676000 6759006
0.133269 0.195074 0.676000 9516638
0.133663 0.199526 0.678000 12356933
0.136149 0.142663 0.684000 12826020
0.136149 0.146571 0.684000 9343149
0.135750 0.150040 0.682000 9210779
0.135153 0.153260 0.679000 8422567
0.134357 0.156214 0.675000 7500196
0.134158 0.159834 0.674000 5325912
0.133561 0.162957 0.671000 11510694
0.133163 0.166294 0.669000 10784205
0.133163 0.170117 0.669000 10588054
0.133163 0.173940 0.669000 12696004
0.133362 0.178029 0.670000 10126221
0.133561 0.182129 0.671000 11182434
0.134158 0.186794 0.674000 7500458
0.134357 0.190929 0.675000 7346013
0.134556 0.195074 0.676000 8857941
0.134556 0.198937 0.676000 11831350
0.137451 0.142663 0.684000 13488552
0.137250 0.146357 0.683000 9406115
0.136648 0.149600 0.680000 8491414
0.136246 0.153034 0.678000 7760525
0.135643 0.156214 0.675000 7823227
0.135442 0.159834 0.674000 5914191
0.134839 0.162957 0.671000 11245490
0.134437 0.166294 0.669000 8295375
0.134035 0.169609 0.667000 9733274
0.134035 0.173420 0.667000 12891569
0.134437 0.177763 0.669000 9545391
0.134839 0.182129 0.671000 9469296
0.135040 0.186240 0.672000 7304078
0.135442 0.190646 0.674000 7883095
0.135643 0.194786 0.675000 8208005
0.135844 0.198937 0.676000 11303256
0.138754 0.142663 0.684000 13618092
0.138551 0.146357 0.683000 9461401
0.137943 0.149600 0.680000 7434128
0.137537 0.153034 0.678000 6571635
0.136929 0.156214 0.675000 6113361
0.136726 0.159834 0.674000 6105926
0.136117 0.162957 0.671000 10785470
0.135711 0.166294 0.669000 8820178
0.135306 0.169609 0.667000 9470109
0.135306 0.173420 0.667000 11383455
0.135711 0.177763 0.669000 10662097
0.135914 0.181857 0.670000 8480382
0.136320 0.186240 0.672000 7561586
0.136726 0.190646 0.674000 8481873
0.136726 0.194497 0.674000 8285109
0.137131 0.198937 0.676000 11105914
0.140057 0.142663 0.684000 13681833
0.139852 0.146357 0.683000 9458313
0.139238 0.149600 0.680000 6444906
0.138829 0.153034 0.678000 5325407
0.138214 0.156214 0.675000 4405067
0.137600 0.159360 0.672000 6305354
0.137190 0.162714 0.670000 10333892
0.136986 0.166294 0.669000 9279438
0.136576 0.169609 0.667000 9209267
0.136576 0.173420 0.667000 9865351
0.136986 0.177763 0.669000 11771244
0.137190 0.181857 0.670000 7495776
0.137395 0.185963 0.671000 7888211
0.138010 0.190646 0.674000 9067077
0.138010 0.194497 0.674000 8357549
0.138419 0.198937 0.676000 10845054
0.138010 0.202200 0.674000 10651008
0.141153 0.142454 0.683000 13217957
0.141153 0.146357 0.683000 8202361
0.140327 0.149380 0.679000 4664131
0.140120 0.153034 0.678000 4930124
0.139500 0.156214 0.675000 6041157
0.138880 0.159360 0.672000 8469839
0.138467 0.162714 0.670000 10130377
0.138260 0.166294 0.669000 10982347
0.137847 0.169609 0.667000 10918089
0.137640 0.173160 0.666000 9327983
0.137847 0.177231 0.667000 7363079
0.138260 0.181586 0.669000 6765379
0.138467 0.185686 0.670000 7689524
0.138880 0.190080 0.672000 8340537
0.139293 0.194497 0.674000 8091044
0.139500 0.198643 0.675000 9862786
0.139500 0.202500 0.675000 10652824
0.142663 0.142663 0.684000 12758197
0.142454 0.146357 0.683000 6960761
0.141620 0.149380 0.679000 2953064
0.141411 0.153034 0.678000 4467560
0.140786 0.156214 0.675000 7743851
0.140160 0.159360 0.672000 10632527
0.139534 0.162471 0.669000 9995114
0.139117 0.165797 0.667000 12686518
0.138909 0.169354 0.666000 12623302
0.138909 0.173160 0.666000 8751252
0.139117 0.177231 0.667000 2979161
0.139117 0.181043 0.667000 5983795
0.139534 0.185409 0.669000 7556923
0.139951 0.189797 0.671000 7619893
0.140160 0.193920 0.672000 7827602
0.140577 0.198349 0.674000 8877186
0.140577 0.202200 0.674000 10722720
0.143966 0.142663 0.684000 12824773
0.143755 0.146357 0.683000 6689400
0.142913 0.149380 0.679000 5848205
0.142703 0.153034 0.678000 5841284
0.142071 0.156214 0.675000 9067153
0.141440 0.159360 0.672000 10566990
0.140809 0.162471 0.669000 9983499
0.140388 0.165797 0.667000 12554402
0.139967 0.169100 0.665000 12820674
0.139967 0.172900 0.665000 10396601
0.140177 0.176966 0.666000 6656938
0.140388 0.181043 0.667000 6641700
0.140388 0.184854 0.667000 7424321
0.140809 0.189231 0.669000 7291953
0.141440 0.193920 0.672000 7362175
0.141861 0.198349 0.674000 8545666
0.141861 0.202200 0.674000 11114663
0.145269 0.142663 0.684000 12892092
0.145056 0.146357 0.683000 6451374
0.144207 0.149380 0.679000 8823197
0.143994 0.153034 0.678000 7170740
0.143145 0.155983 0.674000 10458554
0.142720 0.159360 0.672000 10434653
0.142083 0.162471 0.669000 9994069
0.141446 0.165549 0.666000 12359584
0.141233 0.169100 0.665000 13089234
0.141233 0.172900 0.665000 12036535
0.141233 0.176700 0.665000 10394749
0.141446 0.180771 0.666000 7235628
0.141658 0.184854 0.667000 7356982
0.142083 0.189231 0.669000 6965043
0.142508 0.193631 0.671000 6901882
0.142720 0.197760 0.672000 8221559
0.143145 0.202200 0.674000 11512995
0.146357 0.146357 0.683000 11587045
0.145500 0.149380 0.679000 11719340
0.144857 0.152583 0.676000 8550116
0.144429 0.155983 0.674000 10261986
0.144000 0.159360 0.672000 10303853
0.143357 0.162471 0.669000 11705759
0.142714 0.165549 0.666000 12295583
0.142500 0.169100 0.665000 13881570
0.142071 0.172380 0.663000 11903669
0.142071 0.176169 0.663000 9405519
0.142500 0.180500 0.665000 7567412
0.142714 0.184577 0.666000 7234090
0.142929 0.188666 0.667000 6968117
0.143786 0.193631 0.671000 8220277
0.144000 0.197760 0.672000 9667181
0.144429 0.202200 0.674000 11510431
0.147442 0.146143 0.682000 16704997
0.146793 0.149380 0.679000 14665100
0.146145 0.152583 0.676000 9932995
0.145712 0.155983 0.674000 10068191
0.145064 0.159123 0.671000 10189968
0.144631 0.162471 0.669000 13342586
0.143983 0.165549 0.666000 12156786
0.143767 0.169100 0.665000 14676455
0.143334 0.172380 0.663000 11775174
0.143334 0.176169 0.663000 8491907
0.143767 0.180500 0.665000 7828567
0.143767 0.184300 0.665000 7176282
0.144199 0.188666 0.667000 6975811
0.144848 0.193343 0.670000 9537602
0.145280 0.197760 0.672000 11047559
0.145280 0.201600 0.672000 11576220
0.148305 0.145714 0.680000 16711141
0.148087 0.149380 0.679000 11894124
0.147432 0.152583 0.676000 10263203
0.146996 0.155983 0.674000 9935067
0.146342 0.159123 0.671000 11581108
0.145906 0.162471 0.669000 11032916
0.145251 0.165549 0.666000 10371398
0.145033 0.169100 0.665000 14671083
0.144597 0.172380 0.663000 12234711
0.144597 0.176169 0.663000 9543351
0.144597 0.179957 0.663000 8084347
0.145033 0.184300 0.665000 9215114
0.145251 0.188383 0.666000 6585681
0.146124 0.193343 0.670000 8026895
0.146560 0.197760 0.672000 11445922
0.146560 0.201600 0.672000 12233881
0.149600 0.145714 0.680000 16641241
0.149380 0.149380 0.679000 9113723
0.148500 0.152357 0.675000 10586772
0.148280 0.155983 0.674000 9868257
0.147840 0.159360 0.672000 12885695
0.147180 0.162471 0.669000 8734038
0.146300 0.165300 0.665000 8542549
0.145860 0.168591 0.663000 14675391
0.145640 0.172120 0.662000 12632277
0.145640 0.175903 0.662000 10593206
0.145860 0.179957 0.663000 8296622
0.145860 0.183746 0.663000 11322538
0.146520 0.188383 0.666000 6127691
0.147400 0.193343 0.670000 6581023
0.147840 0.197760 0.672000 11830885
0.147840 0.201600 0.672000 12893333
0.150673 0.145500 0.679000 16513230
0.150673 0.149380 0.679000 9918857
0.149786 0.152357 0.675000 10387589
0.149120 0.155520 0.672000 10002151
0.148898 0.159123 0.671000 10652361
0.148454 0.162471 0.669000 8083032
0.147567 0.165300 0.665000 9070691
0.147123 0.168591 0.663000 14207634
0.146901 0.172120 0.662000 13091538
0.146901 0.175903 0.662000 11710133
0.146901 0.179686 0.662000 11589856
0.147123 0.183746 0.663000 10332618
0.147789 0.188383 0.666000 7110213
0.148676 0.193343 0.670000 5854511
0.149120 0.197760 0.672000 8006697
0.149120 0.201600 0.672000 11639696
0.151967 0.145500 0.679000 16373410
0.151967 0.149380 0.679000 10710147
0.151071 0.152357 0.675000 10187120
0.150400 0.155520 0.672000 10136033
0.150176 0.159123 0.671000 8423601
0.149281 0.161986 0.667000 7498322
0.148833 0.165300 0.665000 9604196
0.148386 0.168591 0.663000 13734521
0.148162 0.172120 0.662000 13548743
0.148162 0.175903 0.662000 12825774
0.148162 0.179686 0.662000 14863828
0.148386 0.183746 0.663000 9341895
0.149057 0.188383 0.666000 8031641
0.149952 0.193343 0.670000 5196941
0.150400 0.197760 0.672000 4224648
0.150400 0.201600 0.672000 10460349
0.153034 0.145286 0.678000 14467702
0.153260 0.149380 0.679000 10449277
0.152357 0.152357 0.675000 9717851
0.151680 0.155520 0.672000 10066651
0.151454 0.159123 0.671000 8555161
0.150551 0.161986 0.667000 8031307
0.150100 0.165300 0.665000 9737830
0.150100 0.169100 0.665000 11962976
0.149423 0.172120 0.662000 12431293
0.149197 0.175637 0.661000 12099750
0.149423 0.179686 0.662000 13607111
0.149649 0.183746 0.663000 11843011
0.150551 0.188666 0.667000 12241901
0.151003 0.193054 0.669000 10465003
0.151680 0.197760 0.672000 9948647
0.151680 0.201600 0.672000 12634858
0.154326 0.145286 0.678000 12497529
0.154326 0.149160 0.678000 10245771
0.153643 0.152357 0.675000 9202274
0.152960 0.155520 0.672000 10000557
0.152732 0.159123 0.671000 8691867
0.151822 0.161986 0.667000 8562780
0.151367 0.165300 0.665000 9872241
0.151367 0.169100 0.665000 10257245
0.150684 0.172120 0.662000 11251145
0.150229 0.175371 0.660000 11444683
0.150456 0.179414 0.661000 12302548
0.150911 0.183746 0.663000 14411223
0.151822 0.188666 0.667000 16378863
0.152505 0.193343 0.670000 15793903
0.152960 0.197760 0.672000 15655395
0.152960 0.201600 0.672000 14805730
0.155617 0.145286 0.678000 12494459
0.155617 0.149160 0.678000 11443865
0.154929 0.152357 0.675000 9081193
0.154240 0.155520 0.672000 10465919
0.154010 0.159123 0.671000 8692894
0.153092 0.161986 0.667000 10667628
0.152863 0.165549 0.666000 9218684
0.152633 0.169100 0.665000 10714201
0.151945 0.172120 0.662000 13618901
0.151486 0.175371 0.660000 13489392
0.151486 0.179143 0.660000 13553377
0.152633 0.184300 0.665000 14605291
0.153551 0.189231 0.669000 15787248
0.153551 0.193054 0.669000 15460594
0.154240 0.197760 0.672000 15062751
0.156909 0.145286 0.678000 12428170
0.156909 0.149160 0.678000 12701833
0.155983 0.152131 0.674000 8954726
0.155289 0.155289 0.671000 10927242
0.154826 0.158649 0.669000 8623257
0.154131 0.161743 0.666000 12766325
0.153900 0.165300 0.665000 8557985
0.153437 0.168591 0.663000 11188136
0.153206 0.172120 0.662000 15983581
0.152049 0.174574 0.657000 15594219
0.152280 0.178600 0.658000 14798045
0.154131 0.184577 0.666000 14866414
0.154826 0.189231 0.669000 15130094
0.154826 0.193054 0.669000 15194599
0.155520 0.197760 0.672000 14405586
0.157500 0.144643 0.675000 11835289
0.157500 0.148500 0.675000 11843960
0.156800 0.151680 0.672000 8430435
0.156333 0.155057 0.670000 9939348
0.155633 0.158174 0.667000 7295636
0.155400 0.161743 0.666000 11902845
0.155167 0.165300 0.665000 11512774
0.154700 0.168591 0.663000 13425911
0.154467 0.172120 0.662000 15193062
0.153300 0.174574 0.657000 15259621
0.153533 0.178600 0.658000 14929625
0.155400 0.184577 0.666000 15195889
0.156333 0.189514 0.670000 15129580
0.156100 0.193054 0.669000 14733020
0.158786 0.144643 0.675000 11248813
0.158786 0.148500 0.675000 11054501
0.158550 0.152131 0.674000 7837563
0.157845 0.155289 0.671000 8945846
0.156904 0.158174 0.667000 6001339
0.156669 0.161743 0.666000 11057592
0.156433 0.165300 0.665000 14472406
0.156433 0.169100 0.665000 15655915
0.154787 0.174840 0.658000 14930149
0.154787 0.178600 0.658000 14995937
0.157610 0.189514 0.670000 15061977
0.160071 0.148500 0.675000 11842769
0.159834 0.152131 0.674000 9931156
0.159123 0.155289 0.671000 11445975
0.158174 0.158174 0.667000 10999522
0.157937 0.161743 0.666000 13030130
0.157937 0.165549 0.666000 14473190
0.156040 0.174840 0.658000 15259364
0.156040 0.178600 0.658000 15194857
0.161357 0.148500 0.675000 12636895
0.161118 0.152131 0.674000 11976123
0.160401 0.155289 0.671000 14018520
0.159445 0.158174 0.667000 15982564
0.159206 0.161743 0.666000 15063273
0.159206 0.165549 0.666000 14471393
0.162643 0.152357 0.675000 12901859
0.161679 0.155289 0.671000 13815768
0.160715 0.158174 0.667000 14796261
0.160474 0.161743 0.666000 14667743
0.163929 0.152357 0.675000 13811415
0.161986 0.161986 0.667000 14339807
0.165214 0.152357 0.675000 13808332
0.166747 0.152583 0.676000 13812684
0.025266 0.150911 0.717000 11242630
0.025336 0.155441 0.719000 11045760
0.025266 0.159106 0.717000 11111293
0.025442 0.168467 0.722000 10782341
0.025442 0.172592 0.722000 11242881
0.026594 0.146610 0.716000 11439480
0.026631 0.150911 0.717000 11044487
0.026631 0.155009 0.717000 10848121
0.026631 0.159106 0.717000 10979455
0.026706 0.163658 0.719000 10979206
0.026817 0.168467 0.722000 10125193
0.026743 0.172114 0.720000 10978683
0.026854 0.176963 0.723000 11572101
0.027958 0.146610 0.716000 10649966
0.027958 0.150701 0.716000 10976647
0.027958 0.154792 0.716000 10781554
0.027880 0.158440 0.714000 11110017
0.027997 0.163203 0.717000 11243915
0.028114 0.168000 0.720000 10779022
0.028192 0.172592 0.722000 11046773
0.028231 0.176963 0.723000 11441282
0.029322 0.142518 0.716000 8219006
0.029322 0.146610 0.716000 9868201
0.029240 0.150280 0.714000 10918045
0.029240 0.154360 0.714000 10723229
0.029322 0.158884 0.716000 11181218
0.029363 0.163203 0.717000 11514288
0.029445 0.167767 0.719000 11382193
0.029568 0.172592 0.722000 11054751
0.029609 0.176963 0.723000 11245952
0.029609 0.181094 0.723000 11441800
0.030729 0.138620 0.717000 9526643
0.030686 0.142518 0.716000 10315388
0.030600 0.146200 0.714000 11977188
0.030557 0.150070 0.713000 11117748
0.030557 0.154144 0.713000 11712967
0.030600 0.158440 0.714000 11907011
0.030729 0.163203 0.717000 12303572
0.030814 0.167767 0.719000 12243157
0.030943 0.172592 0.722000 11842761
0.030986 0.176963 0.723000 10916989
0.030986 0.181094 0.723000 11177610
0.032184 0.134898 0.719000 9925512
0.032094 0.138620 0.717000 7493245
0.032094 0.142717 0.717000 12433309
0.032050 0.146610 0.716000 14019296
0.031915 0.150070 0.713000 11244920
0.031915 0.154144 0.713000 12693164
0.031915 0.158218 0.713000 12624322
0.032050 0.162975 0.716000 13023686
0.032184 0.167767 0.719000 13086668
0.032318 0.172592 0.722000 12632008
0.032363 0.176963 0.723000 10588285
0.032363 0.181094 0.723000 10980220
0.033553 0.134898 0.719000 9980293
0.033460 0.138620 0.717000 10855559
0.033413 0.142518 0.716000 14019006
0.033320 0.146200 0.714000 13817051
0.033180 0.149649 0.711000 8613436
0.033180 0.153711 0.711000 11116689
0.033273 0.158218 0.713000 8555457
0.033413 0.162975 0.716000 9013175
0.033553 0.167767 0.719000 6582723
0.033553 0.171875 0.719000 11973830
0.033693 0.176718 0.722000 8815228
0.033693 0.180844 0.722000 10189934
0.035214 0.131881 0.725000 9458353
0.034971 0.135086 0.720000 10064791
0.034826 0.138620 0.717000 14278500
0.034777 0.142518 0.716000 15588768
0.034631 0.145995 0.713000 13622744
0.034486 0.149438 0.710000 5993797
0.034534 0.153711 0.711000 9609075
0.034631 0.158218 0.713000 4421049
0.034777 0.162975 0.716000 5013176
0.034826 0.167300 0.717000 93636
0.034923 0.171875 0.719000 11255493
0.035069 0.176718 0.722000 6981278
0.035069 0.180844 0.722000 9402479
0.036646 0.127914 0.726000 10448242
0.036595 0.131881 0.725000 11440064
0.036343 0.135086 0.720000 11784874
0.036191 0.138620 0.717000 13946688
0.036141 0.142518 0.716000 14862467
0.035889 0.145586 0.711000 14277589
0.035737 0.149017 0.708000 6581069
0.035838 0.153495 0.710000 8620117
0.035889 0.157774 0.711000 5795250
0.036040 0.162520 0.714000 6850745
0.036191 0.167300 0.717000 4750533
0.036292 0.171875 0.719000 11251907
0.036444 0.176718 0.722000 9868737
0.036444 0.180844 0.722000 9600111
0.038029 0.127914 0.726000 8162462
0.037871 0.131517 0.723000 13427928
0.037714 0.135086 0.720000 13484413
0.037557 0.138620 0.717000 13682270
0.037400 0.142120 0.714000 14076592
0.037243 0.145586 0.711000 14937834
0.037086 0.149017 0.708000 7112556
0.037086 0.153063 0.708000 7697708
0.037243 0.157774 0.711000 7175323
0.037400 0.162520 0.714000 8614065
0.037505 0.167067 0.716000 9340595
0.037557 0.171397 0.717000 11187367
0.037714 0.176229 0.720000 12760515
0.037819 0.180844 0.722000 9863285
0.039411 0.127914 0.726000 11986123
0.039249 0.131517 0.723000 13226479
0.039031 0.134898 0.719000 11771729
0.038869 0.138427 0.716000 13945468
0.038760 0.142120 0.714000 14864861
0.038597 0.145586 0.711000 15133950
0.038380 0.148807 0.707000 9541258
0.038434 0.153063 0.708000 6580995
0.038597 0.157774 0.711000 7829380
0.038706 0.162292 0.713000 9994408
0.038869 0.167067 0.716000 10783905
0.038923 0.171397 0.717000 10656394
0.039031 0.175984 0.719000 12829126
0.039086 0.180343 0.720000 9929082
0.040738 0.127738 0.725000 15717766
0.040626 0.131517 0.723000 12961730
0.040401 0.134898 0.719000 10072962
0.040120 0.138040 0.714000 14215607
0.040064 0.141921 0.713000 15591654
0.039951 0.145586 0.711000 15398142
0.039727 0.148807 0.707000 11906449
0.039727 0.152847 0.707000 5467479
0.039895 0.157552 0.710000 8484986
0.040064 0.162292 0.713000 11306407
0.040120 0.166600 0.714000 12159906
0.040232 0.171158 0.716000 10127760
0.040289 0.175494 0.717000 12890277
0.040401 0.180092 0.719000 9998240
0.042119 0.127738 0.725000 13743425
0.042003 0.131517 0.723000 13156501
0.041829 0.135086 0.720000 11517362
0.041480 0.138040 0.714000 14213874
0.041306 0.141523 0.711000 15462639
0.041248 0.145381 0.710000 15395837
0.041073 0.148807 0.707000 11778968
0.041073 0.152847 0.707000 7768747
0.041248 0.157552 0.710000 7106160
0.041306 0.161837 0.711000 9403045
0.041480 0.166600 0.714000 12161443
0.041596 0.171158 0.716000 9532566
0.041654 0.175494 0.717000 11115909
0.041654 0.179591 0.717000 10854342
0.043500 0.127738 0.725000 11777377
0.043380 0.131517 0.723000 13284467
0.043140 0.134898 0.719000 12897963
0.042840 0.138040 0.714000 14215093
0.042660 0.141523 0.711000 15259350
0.042600 0.145381 0.710000 15463660
0.042420 0.148807 0.707000 11578232
0.042300 0.152414 0.705000 10135962
0.042480 0.157109 0.708000 5734545
0.042660 0.161837 0.711000 7435177
0.042780 0.166367 0.713000 12096430
0.042840 0.170680 0.714000 9001620
0.043020 0.175494 0.717000 9279322
0.043020 0.179591 0.717000 11777975
0.045067 0.124107 0.728000 10205620
0.044757 0.127386 0.723000 12238722
0.044695 0.131335 0.722000 13549905
0.044510 0.134898 0.719000 13882788
0.044138 0.137847 0.713000 14341751
0.044014 0.141523 0.711000 13937598
0.043952 0.145381 0.710000 14342619
0.043767 0.148807 0.707000 11767640
0.043643 0.152414 0.705000 11181704
0.043767 0.156887 0.707000 8427187
0.043952 0.161610 0.710000 6650284
0.044014 0.165900 0.711000 10393786
0.044138 0.170441 0.713000 7754897
0.044324 0.175250 0.716000 9473584
0.044386 0.179591 0.717000 11315112
0.046326 0.123766 0.726000 11575688
0.046134 0.127386 0.723000 12697704
0.046070 0.131335 0.722000 13746748
0.045879 0.134898 0.719000 14800800
0.045496 0.137847 0.713000 14469749
0.045369 0.141523 0.711000 12566164
0.045305 0.145381 0.710000 13224597
0.045113 0.148807 0.707000 11967569
0.044986 0.152414 0.705000 12224850
0.045113 0.156887 0.707000 11051959
0.045305 0.161610 0.710000 5859486
0.045369 0.165900 0.711000 8686246
0.045496 0.170441 0.713000 6509995
0.045688 0.175250 0.716000 9605195
0.045688 0.179341 0.716000 10857078
0.047643 0.123595 0.725000 11312988
0.047511 0.127386 0.723000 12302157
0.047446 0.131335 0.722000 13681703
0.047249 0.134898 0.719000 14864795
0.046854 0.137847 0.713000 12236914
0.046723 0.141523 0.711000 13682026
0.046657 0.145381 0.710000 12629070
0.046460 0.148807 0.707000 12427082
0.046263 0.152198 0.704000 12162587
0.046329 0.156443 0.705000 11517116
0.046526 0.161154 0.708000 7237007
0.046723 0.165900 0.711000 8881555
0.046854 0.170441 0.713000 9476804
0.047051 0.175250 0.716000 9801831
0.047051 0.179341 0.716000 10656835
0.046920 0.182920 0.714000 8278119
0.049024 0.123595 0.725000 11121270
0.048889 0.127386 0.723000 11907645
0.048821 0.131335 0.722000 13549344
0.048618 0.134898 0.719000 14864528
0.048212 0.137847 0.713000 10004344
0.048077 0.141523 0.711000 14721638
0.048010 0.145381 0.710000 12107127
0.047671 0.148386 0.705000 12884817
0.047604 0.152198 0.704000 12159502
0.047671 0.156443 0.705000 11902617
0.047874 0.161154 0.708000 8619375
0.048010 0.165667 0.710000 9082229
0.048212 0.170441 0.713000 12503744
0.048280 0.174760 0.714000 9933913
0.048280 0.178840 0.714000 10525037
0.048212 0.182664 0.713000 8545904
0.050405 0.123595 0.725000 11120271
0.050266 0.127386 0.723000 11379245
0.050196 0.131335 0.722000 13219864
0.049988 0.134898 0.719000 13880196
0.049570 0.137847 0.713000 9407870
0.049431 0.141523 0.711000 13014115
0.049362 0.145381 0.710000 12894112
0.049014 0.148386 0.705000 13081689
0.048945 0.152198 0.704000 11633665
0.048945 0.156221 0.704000 10983286
0.049153 0.160927 0.707000 9867343
0.049362 0.165667 0.710000 10590295
0.049431 0.169963 0.711000 10725819
0.049640 0.174760 0.714000 10784075
0.049640 0.178840 0.714000 10985367
0.049570 0.182664 0.713000 8940152
0.052071 0.124277 0.729000 11121063
0.051571 0.127210 0.722000 10787439
0.051571 0.131335 0.722000 12896567
0.051357 0.134898 0.719000 12888945
0.051000 0.138040 0.714000 8828084
0.050786 0.141523 0.711000 11242327
0.050714 0.145381 0.710000 13617043
0.050357 0.148386 0.705000 13278301
0.050286 0.152198 0.704000 11104559
0.050286 0.156221 0.704000 9992537
0.050500 0.160927 0.707000 11117618
0.050571 0.165200 0.708000 12095792
0.050786 0.169963 0.711000 8954529
0.050786 0.174026 0.711000 11633724
0.050929 0.178590 0.713000 11445380
0.050929 0.182664 0.713000 9339783
0.053460 0.124277 0.729000 11512766
0.053020 0.127386 0.723000 11510193
0.052947 0.131335 0.722000 13944918
0.052580 0.134523 0.717000 11701341
0.052360 0.138040 0.714000 11785449
0.052067 0.141324 0.710000 8407627
0.051920 0.144971 0.708000 13285253
0.051627 0.148175 0.704000 13540705
0.051553 0.151982 0.703000 12227933
0.051553 0.155999 0.703000 9005885
0.051627 0.160244 0.704000 10060308
0.051847 0.164967 0.707000 11108873
0.052067 0.169724 0.710000 8682887
0.052067 0.173781 0.710000 12168237
0.052067 0.177838 0.710000 10257776
0.052067 0.181895 0.710000 10131605
0.054322 0.127210 0.722000 12237244
0.054096 0.130790 0.719000 15059012
