# .PCD v.7 - Point Cloud Data file format
VERSION .7
FIELDS x y z rgb
SIZE 4 4 4 4
TYPE F F F I
COUNT 1 1 1 1
WIDTH 1334
HEIGHT 1
POINTS 1334
DATA ascii
0.224155 0.019831 0.631000 14072270
0.224155 0.023437 0.631000 14208202
0.222734 0.026871 0.627000 11051452
0.223090 0.030503 0.628000 13946076
0.225221 0.034417 0.634000 14209771
0.225931 0.038160 0.636000 14472946
0.231970 0.042911 0.653000 14141154
0.231970 0.046643 0.653000 13548752
0.226071 0.016277 0.633000 14666951
0.225357 0.019831 0.631000 15392993
0.225357 0.023437 0.631000 13026505
0.223929 0.026871 0.627000 13418191
0.224643 0.030551 0.629000 13880285
0.226429 0.034417 0.634000 14668267
0.233929 0.043043 0.655000 13878751
0.233929 0.046786 0.655000 13614027
0.226559 0.019831 0.631000 15727604
0.225841 0.023363 0.629000 13155528
0.225482 0.026914 0.628000 13881569
0.225841 0.030551 0.629000 13879005
0.235176 0.043043 0.655000 13877724
0.235176 0.046786 0.655000 13679302
0.227761 0.019831 0.631000 15982043
0.227761 0.023437 0.631000 13284308
0.226678 0.026914 0.628000 14340329
0.227039 0.030551 0.629000 13942500
0.236424 0.043043 0.655000 13812432
0.228963 0.019831 0.631000 14864065
0.228963 0.023437 0.631000 13748192
0.227874 0.026914 0.628000 14472688
0.228237 0.030551 0.629000 14274539
0.237671 0.043043 0.655000 13810372
0.230165 0.019831 0.631000 13678780
0.229435 0.023363 0.629000 14208459
0.229070 0.026914 0.628000 14536921
0.230633 0.023363 0.629000 13874613
0.231733 0.027086 0.632000 14074818
0.231831 0.023363 0.629000 13609907
0.109132 -0.020755 0.703000 10912369
0.110157 -0.024702 0.701000 10718353
0.110471 -0.020755 0.703000 9464660
0.110471 -0.016738 0.703000 10058348
0.111492 -0.024702 0.701000 9995385
0.111492 -0.020696 0.701000 8024669
0.111492 -0.016690 0.701000 9400662
0.111333 -0.012667 0.700000 10124393
0.112828 -0.024702 0.701000 8090720
0.112828 -0.020696 0.701000 7763046
0.112828 -0.016690 0.701000 7956544
0.112667 -0.012667 0.700000 9730396
0.113674 -0.028585 0.698000 9337999
0.114000 -0.024667 0.700000 6187643
0.114000 -0.020667 0.700000 7434352
0.114163 -0.016690 0.701000 6448466
0.114000 -0.012667 0.700000 9334107
0.115004 -0.032573 0.698000 10721475
0.115004 -0.028585 0.698000 7233933
0.115004 -0.024596 0.698000 6189462
0.115333 -0.020667 0.700000 6644602
0.115333 -0.016667 0.700000 6318179
0.115333 -0.012667 0.700000 8676699
0.116333 -0.032573 0.698000 8353183
0.116167 -0.028544 0.697000 5137043
0.116167 -0.024561 0.697000 6190747
0.116333 -0.020608 0.698000 5795980
0.116333 -0.016619 0.698000 6188923
0.116667 -0.012667 0.700000 7957874
0.117157 -0.036405 0.695000 10853283
0.117494 -0.032527 0.697000 6972283
0.117494 -0.028544 0.697000 5731737
0.117494 -0.024561 0.697000 6256544
0.117663 -0.020608 0.698000 6060190
0.117663 -0.016619 0.698000 6386579
0.117663 -0.012630 0.698000 7698058
0.118310 -0.036352 0.694000 7956116
0.118481 -0.032433 0.695000 5660793
0.118481 -0.028462 0.695000 6256788
0.118822 -0.024561 0.697000 6322080
0.118822 -0.020578 0.697000 6257563
0.118822 -0.016595 0.697000 6583689
0.118822 -0.012612 0.697000 7370895
0.118822 -0.008630 0.697000 7825268
0.119115 -0.044092 0.691000 13480384
0.119115 -0.040144 0.691000 9997240
0.119460 -0.036300 0.693000 6770566
0.119805 -0.032433 0.695000 6452086
0.119805 -0.028462 0.695000 6453647
0.119805 -0.024490 0.695000 6519455
0.119805 -0.020519 0.695000 6651288
0.119805 -0.016548 0.695000 6846590
0.119805 -0.012576 0.695000 7175060
0.119805 -0.008605 0.695000 7827353
0.120431 -0.044092 0.691000 13675189
0.120431 -0.040144 0.691000 7168683
0.120780 -0.036300 0.693000 5533593
0.120954 -0.032387 0.694000 7241105
0.120954 -0.028421 0.694000 6585238
0.121129 -0.024490 0.695000 6716317
0.121129 -0.020519 0.695000 6978958
0.121129 -0.016548 0.695000 7173997
0.121129 -0.012576 0.695000 6912906
0.120954 -0.008592 0.694000 7829657
0.121395 -0.043965 0.689000 10917547
0.121748 -0.040144 0.691000 6583198
0.121748 -0.036195 0.691000 5865901
0.122100 -0.032340 0.693000 6782891
0.122276 -0.028421 0.694000 6651550
0.122452 -0.024490 0.695000 6781851
0.122452 -0.020519 0.695000 7306627
0.122452 -0.016548 0.695000 7436636
0.122276 -0.012558 0.694000 6847360
0.122100 -0.008580 0.693000 7436953
0.121748 -0.004607 0.691000 7363163
0.122708 -0.043965 0.689000 8094386
0.122708 -0.040028 0.689000 5995666
0.122886 -0.036143 0.690000 6193288
0.123064 -0.032247 0.691000 6324109
0.123064 -0.028298 0.691000 6651548
0.123420 -0.024420 0.693000 6913187
0.123598 -0.020490 0.694000 7634314
0.123420 -0.016500 0.693000 7764292
0.123064 -0.012504 0.691000 6780779
0.123064 -0.008555 0.691000 6978175
0.122886 -0.004600 0.690000 7432560
0.124020 -0.043965 0.689000 7307449
0.124020 -0.040028 0.689000 6782597
0.124020 -0.036090 0.689000 7700579
0.124200 -0.032200 0.690000 7241838
0.124380 -0.028298 0.691000 6651546
0.124740 -0.024420 0.693000 6519978
0.124740 -0.020460 0.693000 7371920
0.124740 -0.016500 0.693000 8156972
0.124380 -0.012504 0.691000 6845014
0.124200 -0.008543 0.690000 7303525
0.124200 -0.004600 0.690000 7502212
0.124200 -0.000657 0.690000 6769196
0.125332 -0.043965 0.689000 6456224
0.125332 -0.040028 0.689000 7633792
0.125332 -0.036090 0.689000 9208161
0.125514 -0.032200 0.690000 8159576
0.125514 -0.028257 0.690000 6585984
0.125696 -0.024350 0.691000 6126242
0.125696 -0.020401 0.691000 7044244
0.125514 -0.016429 0.690000 8549187
0.125514 -0.012486 0.690000 6841405
0.125514 -0.008543 0.690000 7695692
0.125514 -0.004600 0.690000 7501438
0.125514 -0.000657 0.690000 6966374
0.126645 -0.047902 0.689000 10396374
0.126645 -0.043965 0.689000 7307144
0.126645 -0.040028 0.689000 7174522
0.126645 -0.036090 0.689000 8420703
0.126645 -0.032153 0.689000 8422465
0.126829 -0.028257 0.690000 7700326
0.126829 -0.024314 0.690000 5928858
0.126829 -0.020371 0.690000 6520215
0.126645 -0.016405 0.689000 7755865
0.126829 -0.012486 0.690000 7361828
0.126829 -0.008543 0.690000 8351539
0.126645 -0.004593 0.689000 7041657
0.126277 -0.000654 0.687000 7300256
0.127957 -0.047902 0.689000 10069458
0.127957 -0.043965 0.689000 8161150
0.127957 -0.040028 0.689000 6779977
0.127957 -0.036090 0.689000 7632189
0.127957 -0.032153 0.689000 8685113
0.127957 -0.028216 0.689000 8812619
0.127957 -0.024279 0.689000 5664608
0.127586 -0.020283 0.687000 5993850
0.127586 -0.016357 0.687000 7022394
0.127586 -0.012431 0.687000 7891477
0.127586 -0.008506 0.687000 9072419
0.127586 -0.004580 0.687000 6516581
0.127400 -0.000653 0.686000 7633558
0.129457 -0.047971 0.690000 9676493
0.128894 -0.043837 0.687000 8752244
0.128894 -0.039911 0.687000 6186519
0.128707 -0.035933 0.686000 6184730
0.128894 -0.032060 0.687000 7040560
0.128894 -0.028134 0.687000 8941871
0.128707 -0.024173 0.686000 7828262
0.128707 -0.020253 0.686000 7368797
0.128707 -0.016333 0.686000 5715483
0.128894 -0.012431 0.687000 9541127
0.128894 -0.008506 0.687000 9925650
0.128707 -0.004573 0.686000 6580049
0.128707 -0.000653 0.686000 7371148
0.130771 -0.047971 0.690000 9287902
0.130203 -0.043837 0.687000 9280408
0.130013 -0.039853 0.686000 5594429
0.129634 -0.035829 0.684000 4678463
0.130013 -0.032013 0.686000 5464925
0.130203 -0.028134 0.687000 9071403
0.130013 -0.024173 0.686000 10057758
0.129634 -0.020194 0.684000 8746820
0.129634 -0.016286 0.684000 4402000
0.129634 -0.012377 0.684000 11168547
0.130013 -0.008493 0.686000 10844430
0.129634 -0.004560 0.684000 6581060
0.129634 -0.000651 0.684000 7174550
0.132086 -0.047971 0.690000 10204911
0.131894 -0.043965 0.689000 10203836
0.131320 -0.039853 0.686000 6056547
0.130937 -0.035829 0.684000 4942692
0.130937 -0.031920 0.684000 5333642
0.130937 -0.028011 0.684000 10322470
0.130937 -0.024103 0.684000 8938005
0.130937 -0.020194 0.684000 10128171
0.130937 -0.016286 0.684000 5065349
0.130937 -0.012377 0.684000 7620415
0.130937 -0.008469 0.684000 10778122
0.130937 -0.004560 0.684000 7232567
0.130937 -0.000651 0.684000 6846880
0.130746 0.003252 0.683000 7305874
0.133593 -0.051990 0.691000 9409696
0.133400 -0.047971 0.690000 11123415
0.133207 -0.043965 0.689000 11123401
0.132627 -0.039853 0.686000 6581086
0.132047 -0.035776 0.683000 5204070
0.132240 -0.031920 0.684000 5273240
0.132240 -0.028011 0.684000 11564074
0.132240 -0.024103 0.684000 7880998
0.132047 -0.020165 0.683000 11500585
0.132047 -0.016262 0.683000 5794930
0.132047 -0.012359 0.683000 4016205
0.132047 -0.008456 0.683000 10711326
0.132047 -0.004553 0.683000 7886655
0.132240 -0.000651 0.684000 6519713
0.132047 0.003252 0.683000 7567770
0.131853 0.007145 0.682000 6377552
0.135495 -0.052215 0.694000 9930889
0.134714 -0.047971 0.690000 12043967
0.134129 -0.043837 0.687000 10401750
0.133543 -0.039737 0.684000 9540185
0.133348 -0.035776 0.683000 6842216
0.133348 -0.031873 0.683000 4548261
0.133348 -0.027970 0.683000 10974767
0.133348 -0.024068 0.683000 8409654
0.133348 -0.020165 0.683000 10252839
0.133152 -0.016238 0.682000 6712415
0.133152 -0.012341 0.682000 6573403
0.133348 -0.008456 0.683000 9718833
0.133348 -0.004553 0.683000 8405319
0.133348 -0.000650 0.683000 6650530
0.133348 0.003252 0.683000 7698850
0.133152 0.007145 0.682000 7300479
0.136817 -0.052215 0.694000 10459778
0.136029 -0.047971 0.690000 12965527
0.135437 -0.043837 0.687000 9615594
0.134846 -0.039737 0.684000 12559201
0.134649 -0.035776 0.683000 8421214
0.134451 -0.031827 0.682000 3896708
0.134451 -0.027930 0.682000 10377515
0.134451 -0.024032 0.682000 9003824
0.134451 -0.020135 0.682000 8997409
0.134057 -0.016190 0.680000 7624783
0.134057 -0.012305 0.680000 9129793
0.134451 -0.008444 0.682000 8728109
0.134451 -0.004547 0.682000 8861244
0.134649 -0.000650 0.683000 6782627
0.134451 0.003248 0.682000 7764899
0.134057 0.007124 0.680000 8157586
0.134057 0.011010 0.680000 5260875
0.137940 -0.052140 0.693000 11511932
0.137343 -0.047971 0.690000 12176495
0.136746 -0.043837 0.687000 9221630
0.135950 -0.039679 0.683000 12164969
0.135750 -0.035724 0.682000 10130261
0.135750 -0.031827 0.682000 5727586
0.135750 -0.027930 0.682000 7950375
0.135352 -0.023962 0.680000 9461545
0.135352 -0.020076 0.680000 8994330
0.135352 -0.016190 0.680000 7291454
0.135352 -0.012305 0.680000 9125928
0.135352 -0.008419 0.680000 6693160
0.135352 -0.004533 0.680000 7741489
0.135750 -0.000650 0.682000 7109795
0.135153 0.003233 0.679000 7765924
0.135153 0.007113 0.679000 8224164
0.135153 0.010993 0.679000 6970458
0.135352 0.014895 0.680000 5387326
0.139260 -0.052140 0.693000 12495738
0.138657 -0.047971 0.690000 11390118
0.138054 -0.043837 0.687000 8760810
0.137250 -0.039679 0.683000 11831151
0.137050 -0.035724 0.682000 11770967
0.136648 -0.031733 0.680000 7629915
0.136447 -0.027807 0.679000 5455141
0.136447 -0.023927 0.679000 9921332
0.136447 -0.020047 0.679000 8994086
0.136447 -0.016167 0.679000 7023690
0.136447 -0.012287 0.679000 9058373
0.136447 -0.008407 0.679000 4665952
0.136447 -0.004527 0.679000 6635109
0.136447 -0.000647 0.679000 7373217
0.136447 0.003233 0.679000 7698580
0.136447 0.007113 0.679000 8355963
0.136447 0.010993 0.679000 8612470
0.136447 0.014873 0.679000 5125700
0.140580 -0.052140 0.693000 12563577
0.139971 -0.047971 0.690000 10271196
0.139769 -0.043965 0.689000 9871062
0.138551 -0.039679 0.683000 11309429
0.137943 -0.035619 0.680000 13149528
0.137740 -0.031687 0.679000 9601107
0.137537 -0.027766 0.678000 5441571
0.137537 -0.023891 0.678000 8537150
0.137537 -0.020017 0.678000 9121075
0.137537 -0.016143 0.678000 6241878
0.137740 -0.012287 0.679000 7553891
0.137537 -0.008394 0.678000 5726103
0.137537 -0.004520 0.678000 7171993
0.137537 -0.000646 0.678000 7569823
0.137537 0.003229 0.678000 7759236
0.137537 0.007103 0.678000 8349009
0.137537 0.010977 0.678000 8485522
0.137740 0.014873 0.679000 6179146
0.141900 -0.052140 0.693000 12560773
0.141286 -0.047971 0.690000 9154021
0.141081 -0.043965 0.689000 10922916
0.139852 -0.039679 0.683000 10848613
0.139238 -0.035619 0.680000 14462299
0.139033 -0.031687 0.679000 11563607
0.138829 -0.027766 0.678000 5447212
0.138419 -0.023821 0.676000 7156028
0.138419 -0.019958 0.676000 9186869
0.138829 -0.016143 0.678000 5464703
0.138829 -0.012269 0.678000 5989252
0.138829 -0.008394 0.678000 6847130
0.138829 -0.004520 0.678000 7634589
0.138829 -0.000646 0.678000 7765380
0.138419 0.003219 0.676000 7819364
0.138829 0.007103 0.678000 8344394
0.138829 0.010977 0.678000 8354430
0.139033 0.014873 0.679000 7231577
0.143220 -0.052140 0.693000 10984081
0.142600 -0.047971 0.690000 9612782
0.142393 -0.043965 0.689000 13093746
0.141360 -0.039737 0.684000 10456661
0.140533 -0.035619 0.680000 14788701
0.140327 -0.031687 0.679000 10705755
0.140120 -0.027766 0.678000 5838902
0.139707 -0.023821 0.676000 5713722
0.139707 -0.019958 0.676000 7351863
0.139707 -0.016095 0.676000 6322343
0.139707 -0.012232 0.676000 6652070
0.139707 -0.008370 0.676000 7175837
0.139707 -0.004507 0.676000 7832738
0.139707 -0.000644 0.676000 7824489
0.139500 0.003214 0.675000 8140867
0.139707 0.007082 0.676000 8545090
0.139707 0.010945 0.676000 8354667
0.140120 0.014851 0.678000 7692904
0.144749 -0.052215 0.694000 9414573
0.143914 -0.047971 0.690000 10073764
0.143706 -0.043965 0.689000 15182432
0.142663 -0.039737 0.684000 10067806
0.141829 -0.035619 0.680000 15045718
0.141411 -0.031640 0.678000 9903204
0.140994 -0.027684 0.676000 6177108
0.140786 -0.023786 0.675000 4279920
0.140786 -0.019929 0.675000 5461869
0.140994 -0.016095 0.676000 7111077
0.140994 -0.012232 0.676000 7241893
0.140786 -0.008357 0.675000 7569310
0.140994 -0.004507 0.676000 7963552
0.140786 -0.000643 0.675000 7884385
0.140577 0.003210 0.674000 8409417
0.140786 0.007071 0.675000 8809053
0.140994 0.010945 0.676000 8350566
0.141411 0.014851 0.678000 8154496
0.145860 -0.052140 0.693000 9810632
0.145229 -0.047971 0.690000 11122265
0.145018 -0.043965 0.689000 11896911
0.143966 -0.039737 0.684000 11709798
0.143545 -0.035724 0.682000 13009743
0.142703 -0.031640 0.678000 8468077
0.142071 -0.027643 0.675000 6116211
0.141861 -0.023750 0.674000 5468326
0.141861 -0.019899 0.674000 6191524
0.142071 -0.016071 0.675000 7242147
0.142071 -0.012214 0.675000 7503780
0.142071 -0.008357 0.675000 7832222
0.142071 -0.004500 0.675000 7963806
0.141861 -0.000642 0.674000 8148825
0.141861 0.003210 0.674000 8414286
0.141861 0.007061 0.674000 8284791
0.142071 0.010929 0.675000 8147553
0.142282 0.014808 0.676000 8288152
0.141861 0.018615 0.674000 6305589
0.147180 -0.052140 0.693000 10205107
0.146543 -0.047971 0.690000 12176489
0.146330 -0.043965 0.689000 8612682
0.145269 -0.039737 0.684000 13353299
0.144844 -0.035724 0.682000 10902614
0.143994 -0.031640 0.678000 7102605
0.143357 -0.027643 0.675000 6058155
0.143145 -0.023750 0.674000 6716578
0.143145 -0.019899 0.674000 6847135
0.143145 -0.016048 0.674000 7438754
0.143145 -0.012196 0.674000 7701156
0.143145 -0.008345 0.674000 8029081
0.143145 -0.004493 0.674000 7955061
0.143145 -0.000642 0.674000 8412502
0.143145 0.003210 0.674000 8414799
0.143145 0.007061 0.674000 7762563
0.143357 0.010929 0.675000 7956347
0.143357 0.014786 0.675000 8421787
0.143145 0.018615 0.674000 6509147
0.148714 -0.052215 0.694000 10271390
0.148071 -0.048041 0.691000 12503673
0.147643 -0.043965 0.689000 6957380
0.146571 -0.039737 0.684000 12558655
0.146143 -0.035724 0.682000 9642589
0.145286 -0.031640 0.678000 7960493
0.144429 -0.027602 0.674000 7379939
0.144429 -0.023750 0.674000 6847390
0.144000 -0.019840 0.672000 7109275
0.144000 -0.016000 0.672000 7701665
0.144000 -0.012160 0.672000 8029861
0.144000 -0.008320 0.672000 7959956
0.144000 -0.004480 0.672000 8073036
0.144000 -0.000640 0.672000 8545619
0.144000 0.003200 0.672000 8347217
0.144000 0.007040 0.672000 8092303
0.144429 0.010912 0.674000 8027541
0.144429 0.014764 0.674000 8355997
0.144429 0.018615 0.674000 7630466
0.150901 -0.056505 0.698000 9808244
0.150036 -0.052215 0.694000 10336903
0.149388 -0.048041 0.691000 12899462
0.148955 -0.043965 0.689000 5272683
0.147874 -0.039737 0.684000 11762525
0.147442 -0.035724 0.682000 8403294
0.146577 -0.031640 0.678000 8754640
0.145712 -0.027602 0.674000 8629487
0.145280 -0.023680 0.672000 6978477
0.145280 -0.019840 0.672000 7306139
0.144848 -0.015952 0.670000 7964325
0.144848 -0.012124 0.670000 8354443
0.144848 -0.008295 0.670000 7823711
0.144848 -0.004467 0.670000 8146771
0.145064 -0.000639 0.671000 8679008
0.145064 0.003195 0.671000 8283758
0.145280 0.007040 0.672000 8487316
0.145280 0.010880 0.672000 8018012
0.145280 0.014720 0.672000 8289894
0.145280 0.018560 0.672000 8747403
0.152230 -0.056505 0.698000 10202198
0.151358 -0.052215 0.694000 10924400
0.150704 -0.048041 0.691000 12108178
0.150268 -0.043965 0.689000 6593170
0.149177 -0.039737 0.684000 10710138
0.148741 -0.035724 0.682000 9190240
0.147869 -0.031640 0.678000 8692722
0.146996 -0.027602 0.674000 9221627
0.146560 -0.023680 0.672000 7440060
0.146342 -0.019810 0.671000 7436700
0.146124 -0.015952 0.670000 8028584
0.146124 -0.012124 0.670000 8149874
0.146124 -0.008295 0.670000 8147497
0.146124 -0.004467 0.670000 8742746
0.146124 -0.000638 0.670000 8351085
0.146124 0.003190 0.670000 8354956
0.146342 0.007030 0.671000 8283800
0.146560 0.010880 0.672000 6226980
0.146560 0.014720 0.672000 7950127
0.146560 0.018560 0.672000 8881301
0.145470 0.022233 0.667000 6573630
0.154000 -0.056667 0.700000 10665323
0.152680 -0.052215 0.694000 11448658
0.152020 -0.048041 0.691000 11320425
0.151580 -0.043965 0.689000 7905426
0.150480 -0.039737 0.684000 9723518
0.149600 -0.035619 0.680000 9918837
0.149160 -0.031640 0.678000 8636152
0.148280 -0.027602 0.674000 9744373
0.147840 -0.023680 0.672000 7899867
0.147400 -0.019781 0.670000 7567015
0.147180 -0.015929 0.669000 8095392
0.147180 -0.012106 0.669000 7948383
0.147180 -0.008283 0.669000 8539972
0.147180 -0.004460 0.669000 9267549
0.147180 -0.000637 0.669000 8088967
0.147180 0.003186 0.669000 8419197
0.147400 0.007019 0.670000 8077150
0.147620 0.010864 0.671000 4392234
0.147620 0.014698 0.671000 7675177
0.147620 0.018532 0.671000 9011841
0.147180 0.022300 0.669000 7036515
0.147180 0.026123 0.669000 5254189
0.155333 -0.056667 0.700000 10990976
0.154224 -0.052290 0.695000 12957492
0.153780 -0.048180 0.693000 12563007
0.152892 -0.043965 0.689000 9937555
0.151783 -0.039737 0.684000 10514562
0.151339 -0.035724 0.682000 8668298
0.150451 -0.031640 0.678000 8764158
0.149564 -0.027602 0.674000 9611247
0.149120 -0.023680 0.672000 9938938
0.148676 -0.019781 0.670000 7502258
0.148454 -0.015929 0.669000 8023959
0.148454 -0.012106 0.669000 8272716
0.148454 -0.008283 0.669000 8546142
0.148454 -0.004460 0.669000 8741728
0.148454 -0.000637 0.669000 8159904
0.148454 0.003186 0.669000 8347502
0.148454 0.007009 0.669000 8199715
0.148454 0.010831 0.669000 6294320
0.148676 0.014676 0.670000 7673379
0.148676 0.018505 0.670000 8618862
0.148010 0.022233 0.667000 7236232
0.147789 0.026006 0.666000 5712175
0.155995 -0.056424 0.697000 11255706
0.155324 -0.052215 0.694000 14396492
0.155100 -0.048180 0.693000 13875268
0.154205 -0.043965 0.689000 11904890
0.153086 -0.039737 0.684000 11363929
0.152638 -0.035724 0.682000 7431824
0.151743 -0.031640 0.678000 8960510
0.150848 -0.027602 0.674000 9481975
0.150176 -0.023645 0.671000 12043757
0.149729 -0.019751 0.669000 7444932
0.149729 -0.015929 0.669000 7952972
0.149729 -0.012106 0.669000 8541002
0.149281 -0.008258 0.667000 8549985
0.149281 -0.004447 0.667000 8221827
0.149281 -0.000635 0.667000 8228493
0.149281 0.003176 0.667000 8205125
0.149281 0.006988 0.667000 8261921
0.149729 0.010831 0.669000 8130338
0.149729 0.014654 0.669000 7671843
0.149729 0.018477 0.669000 8157028
0.149281 0.022233 0.667000 7500926
0.149057 0.026006 0.666000 6175036
0.157323 -0.056424 0.697000 12763572
0.156646 -0.052215 0.694000 12689252
0.156420 -0.048180 0.693000 14136905
0.155517 -0.043965 0.689000 13480289
0.154389 -0.039737 0.684000 9980719
0.153937 -0.035724 0.682000 7961750
0.153034 -0.031640 0.678000 9025278
0.152357 -0.027643 0.675000 9745918
0.151680 -0.023680 0.672000 11647967
0.151003 -0.019751 0.669000 9024726
0.150551 -0.015881 0.667000 8076033
0.150551 -0.012070 0.667000 8547143
0.150551 -0.008258 0.667000 8483940
0.150551 -0.004447 0.667000 8687014
0.150551 -0.000635 0.667000 8081786
0.150551 0.003176 0.667000 8260637
0.150326 0.006977 0.666000 8392990
0.150551 0.010799 0.667000 8065301
0.150551 0.014610 0.667000 7736355
0.151003 0.018477 0.669000 7829595
0.150551 0.022233 0.667000 6907507
0.150326 0.026006 0.666000 6243146
0.158650 -0.056424 0.697000 14269110
0.158195 -0.052290 0.695000 10917979
0.157740 -0.048180 0.693000 14394449
0.156830 -0.043965 0.689000 15047244
0.155691 -0.039737 0.684000 8596812
0.155236 -0.035724 0.682000 8425162
0.154326 -0.031640 0.678000 9155838
0.153415 -0.027602 0.674000 9943038
0.152960 -0.023680 0.672000 11251183
0.152277 -0.019751 0.669000 10588349
0.151822 -0.015881 0.667000 8208186
0.151822 -0.012070 0.667000 8548698
0.151594 -0.008246 0.666000 8485002
0.151594 -0.004440 0.666000 9078419
0.151594 -0.000634 0.666000 7996222
0.151594 0.003171 0.666000 8325660
0.151594 0.006977 0.666000 8523802
0.151594 0.010783 0.666000 7998994
0.151367 0.014567 0.665000 7801640
0.151822 0.018422 0.667000 7495772
0.151594 0.022200 0.666000 6315348
0.151367 0.025967 0.665000 6309966
0.159519 -0.052290 0.695000 10186578
0.159060 -0.048180 0.693000 14069081
0.158142 -0.043965 0.689000 12091191
0.156765 -0.039679 0.683000 8867432
0.156076 -0.035619 0.680000 8829694
0.155158 -0.031547 0.676000 9221630
0.154240 -0.027520 0.672000 10205694
0.153781 -0.023610 0.670000 11321598
0.153092 -0.019692 0.667000 10707876
0.152633 -0.015833 0.665000 8675955
0.152633 -0.012033 0.665000 8418668
0.152633 -0.008233 0.665000 8618927
0.152633 -0.004433 0.665000 8551552
0.152174 -0.000631 0.663000 6620930
0.152174 0.003157 0.663000 8653596
0.152174 0.006946 0.663000 7932949
0.152174 0.010734 0.663000 7996432
0.151945 0.014501 0.662000 7670573
0.151945 0.018284 0.662000 7234140
0.151945 0.022067 0.662000 5917749
0.151945 0.025850 0.662000 6245714
0.151715 0.029588 0.661000 6042160
0.160611 -0.052215 0.694000 9411964
0.159917 -0.048041 0.691000 13743155
0.158991 -0.043837 0.687000 9129523
0.158066 -0.039679 0.683000 9125007
0.157371 -0.035619 0.680000 9223678
0.156446 -0.031547 0.676000 9352958
0.155520 -0.027520 0.672000 10403070
0.155057 -0.023610 0.670000 11389156
0.154363 -0.019692 0.667000 10775196
0.153900 -0.015833 0.665000 9140605
0.153437 -0.011997 0.663000 8277566
0.153437 -0.008209 0.663000 8750193
0.153206 -0.004413 0.662000 8014420
0.153206 -0.000630 0.662000 5312775
0.153206 0.003152 0.662000 8916246
0.153206 0.006935 0.662000 7408146
0.153206 0.010718 0.662000 7940669
0.153206 0.014501 0.662000 7605553
0.152974 0.018256 0.661000 6902876
0.153206 0.022067 0.662000 5586472
0.152974 0.025810 0.661000 6180179
0.152974 0.029588 0.661000 6307408
0.161933 -0.052215 0.694000 11913382
0.161233 -0.048041 0.691000 12487436
0.160300 -0.043837 0.687000 9382191
0.159367 -0.039679 0.683000 8808629
0.159133 -0.035724 0.682000 8960510
0.158200 -0.031640 0.678000 9287421
0.157267 -0.027602 0.674000 10469118
0.156333 -0.023610 0.670000 10985674
0.155400 -0.019663 0.666000 10900628
0.154700 -0.015786 0.663000 8350343
0.154467 -0.011979 0.662000 5112080
0.154233 -0.008184 0.661000 5847858
0.154233 -0.004407 0.661000 5646888
0.154233 -0.000630 0.661000 5378827
0.154233 0.003148 0.661000 8391441
0.154233 0.006925 0.661000 7610126
0.154233 0.010702 0.661000 8223595
0.154233 0.014479 0.661000 7682101
0.154233 0.018256 0.661000 7039324
0.154467 0.022067 0.662000 5128730
0.154233 0.025810 0.661000 5982292
0.154233 0.029588 0.661000 6507887
0.163255 -0.052215 0.694000 14402225
0.162314 -0.047971 0.690000 11239535
0.161609 -0.043837 0.687000 9586504
0.160668 -0.039679 0.683000 8497626
0.160432 -0.035724 0.682000 8631548
0.159491 -0.031640 0.678000 9221373
0.158550 -0.027602 0.674000 10469630
0.157610 -0.023610 0.670000 10572731
0.156669 -0.019663 0.666000 11043991
0.155963 -0.015786 0.663000 7564422
0.155492 -0.011961 0.661000 1979714
0.155492 -0.008184 0.661000 3016760
0.155492 -0.004407 0.661000 3286064
0.155492 -0.000630 0.661000 5445146
0.155492 0.003148 0.661000 7804451
0.155257 0.006914 0.660000 7812423
0.155492 0.010702 0.661000 8418165
0.155492 0.014479 0.661000 7817284
0.155257 0.018229 0.660000 7169885
0.155492 0.022033 0.661000 4734739
0.155492 0.025810 0.661000 5789033
0.155492 0.029588 0.661000 6776443
0.154787 0.033213 0.658000 5778223
0.163866 -0.048041 0.691000 10455506
0.162917 -0.043837 0.687000 8860257
0.161969 -0.039679 0.683000 8630782
0.161257 -0.035619 0.680000 9875451
0.160783 -0.031640 0.678000 10862332
0.159834 -0.027602 0.674000 10731774
0.158886 -0.023610 0.670000 10317227
0.157937 -0.019663 0.666000 12101275
0.157226 -0.015786 0.663000 7294596
0.156751 -0.011961 0.661000 5796981
0.156514 -0.008171 0.660000 3614526
0.156514 -0.004400 0.660000 3877176
0.156514 -0.000629 0.660000 5511721
0.156040 0.003133 0.658000 7943477
0.156514 0.006914 0.660000 7694976
0.156514 0.010686 0.660000 7627904
0.156514 0.014457 0.660000 6441554
0.156040 0.018173 0.658000 6447967
0.156040 0.021933 0.658000 5064204
0.156514 0.025771 0.660000 6121341
0.156514 0.029543 0.660000 7302278
0.156040 0.033213 0.658000 6368835
0.164943 -0.047971 0.690000 9616357
0.164226 -0.043837 0.687000 8071843
0.163270 -0.039679 0.683000 8702718
0.162552 -0.035619 0.680000 11055610
0.162074 -0.031640 0.678000 12569335
0.161118 -0.027602 0.674000 10994170
0.160401 -0.023645 0.671000 10124493
0.159445 -0.019692 0.667000 13147537
0.158489 -0.015786 0.663000 7082910
0.158010 -0.011961 0.661000 9598075
0.157293 -0.008147 0.658000 4209733
0.157293 -0.004387 0.658000 4402754
0.157293 -0.000627 0.658000 5646405
0.157054 0.003129 0.657000 8084575
0.157293 0.006893 0.658000 7570561
0.157771 0.010686 0.660000 6772320
0.157771 0.014457 0.660000 5065548
0.157293 0.018173 0.658000 5657690
0.157293 0.021933 0.658000 5458499
0.157054 0.025654 0.657000 6385023
0.157771 0.029543 0.660000 7762825
0.157054 0.033163 0.657000 6902111
0.166257 -0.047971 0.690000 11190775
0.166016 -0.043965 0.689000 6298341
0.164570 -0.039679 0.683000 8895486
0.163848 -0.035619 0.680000 9875194
0.163366 -0.031640 0.678000 12041969
0.162402 -0.027602 0.674000 11124981
0.161679 -0.023645 0.671000 10521326
0.160715 -0.019692 0.667000 13149831
0.159751 -0.015786 0.663000 6902711
0.159270 -0.011961 0.661000 8877442
0.158547 -0.008147 0.658000 4667980
0.158547 -0.004387 0.658000 5259597
0.158547 -0.000627 0.658000 6638689
0.158306 0.003129 0.657000 8224905
0.158306 0.006883 0.657000 7106690
0.158547 0.010653 0.658000 5585472
0.158306 0.014391 0.657000 5062213
0.158306 0.018146 0.657000 5460566
0.158547 0.021933 0.658000 5791098
0.158306 0.025654 0.657000 6649474
0.158547 0.029453 0.658000 7633036
0.158306 0.033163 0.657000 7302267
0.167329 -0.043965 0.689000 4558321
0.166114 -0.039737 0.684000 9091070
0.165629 -0.035724 0.682000 8696828
0.164657 -0.031640 0.678000 11578860
0.163929 -0.027643 0.675000 11190517
0.162957 -0.023645 0.671000 10973369
0.161986 -0.019692 0.667000 13148567
0.161014 -0.015786 0.663000 6780622
0.160529 -0.011961 0.661000 8086124
0.159557 -0.008134 0.657000 5188705
0.159557 -0.004380 0.657000 6049364
0.159557 -0.000626 0.657000 7626077
0.159557 0.003129 0.657000 8289409
0.159557 0.006883 0.657000 6710905
0.159557 0.010637 0.657000 4403504
0.159557 0.014391 0.657000 5060158
0.159557 0.018146 0.657000 5263438
0.159557 0.021900 0.657000 6122618
0.159314 0.025615 0.656000 6911876
0.159557 0.029409 0.657000 7567500
0.159314 0.033112 0.656000 7630460
0.168641 -0.043965 0.689000 7717117
0.167417 -0.039737 0.684000 8894206
0.166928 -0.035724 0.682000 8893950
0.165949 -0.031640 0.678000 10725862
0.165459 -0.027684 0.676000 11124214
0.164235 -0.023645 0.671000 11175812
0.163256 -0.019692 0.667000 12098982
0.162277 -0.015786 0.663000 7306468
0.161788 -0.011961 0.661000 6902615
0.160809 -0.008134 0.657000 5129590
0.160809 -0.004380 0.657000 6511963
0.160809 -0.000626 0.657000 7431768
0.160564 0.003124 0.656000 8617337
0.160564 0.006872 0.656000 6250095
0.160564 0.010621 0.656000 3087393
0.160564 0.014370 0.656000 4860471
0.160564 0.018118 0.656000 6247237
0.160564 0.021867 0.656000 6383993
0.160564 0.025615 0.656000 7174279
0.160809 0.029409 0.657000 8158347
0.160564 0.033112 0.656000 7892860
0.159830 0.036692 0.653000 6835007
0.169953 -0.043965 0.689000 10863596
0.168720 -0.039737 0.684000 8697085
0.167733 -0.035619 0.680000 9025278
0.167240 -0.031640 0.678000 9873906
0.166747 -0.027684 0.676000 10992120
0.165513 -0.023645 0.671000 11373950
0.164527 -0.019692 0.667000 10987701
0.163293 -0.015762 0.662000 7839457
0.162800 -0.011943 0.660000 5650247
0.162060 -0.008134 0.657000 5134968
0.161813 -0.004373 0.656000 6903388
0.161813 -0.000625 0.656000 7169852
0.161813 0.003124 0.656000 8944253
0.161813 0.006872 0.656000 5792357
0.161813 0.010621 0.656000 1779777
0.161073 0.014304 0.653000 4660801
0.161073 0.018035 0.653000 7163452
0.161073 0.021767 0.653000 6709343
0.161567 0.025576 0.655000 7370610
0.161567 0.029319 0.655000 8751503
0.161567 0.033062 0.655000 8091010
0.161073 0.036692 0.653000 7166538
0.171266 -0.043965 0.689000 12371932
0.170023 -0.039737 0.684000 9025532
0.169029 -0.035619 0.680000 9156094
0.168531 -0.031640 0.678000 10205182
0.167786 -0.027643 0.675000 11122427
0.166791 -0.023645 0.671000 11637880
0.165797 -0.019692 0.667000 10855363
0.164554 -0.015762 0.662000 8419293
0.164057 -0.011943 0.660000 4730679
0.163311 -0.008134 0.657000 6116986
0.163063 -0.004373 0.656000 6641502
0.163063 -0.000625 0.656000 7561503
0.162814 0.003119 0.655000 9403520
0.162814 0.006862 0.655000 5856346
0.162317 0.010572 0.653000 2766432
0.162317 0.014304 0.653000 4661835
0.162069 0.018008 0.652000 6703155
0.162317 0.021767 0.653000 7691077
0.162317 0.025498 0.653000 7499613
0.162317 0.029230 0.653000 8948114
0.162317 0.032961 0.653000 8420233
0.162069 0.036636 0.652000 7432021
0.162069 0.040362 0.652000 6507060
0.171075 -0.039679 0.683000 9419773
0.170825 -0.035724 0.682000 9287678
0.169823 -0.031640 0.678000 10534398
0.169071 -0.027643 0.675000 11253224
0.168070 -0.023645 0.671000 11900032
0.167068 -0.019692 0.667000 10728397
0.165815 -0.015762 0.662000 9069509
0.165314 -0.011943 0.660000 3810119
0.164563 -0.008134 0.657000 7166573
0.164312 -0.004373 0.656000 6321539
0.164062 -0.000624 0.655000 7966019
0.164062 0.003119 0.655000 9861499
0.163561 0.006841 0.653000 5920359
0.163310 0.010556 0.652000 3755379
0.163310 0.014282 0.652000 4663877
0.163310 0.018008 0.652000 6242124
0.163310 0.021733 0.652000 8739377
0.163310 0.025459 0.652000 7625535
0.163561 0.029230 0.653000 9208682
0.163310 0.032910 0.652000 8683643
0.163310 0.036636 0.652000 7696480
0.163310 0.040362 0.652000 7097656
0.172376 -0.039679 0.683000 10535422
0.172124 -0.035724 0.682000 9680894
0.171114 -0.031640 0.678000 10665726
0.170357 -0.027643 0.675000 11317461
0.169348 -0.023645 0.671000 11835527
0.168338 -0.019692 0.667000 11387607
0.167076 -0.015762 0.662000 10112428
0.166571 -0.011943 0.660000 3874391
0.165814 -0.008134 0.657000 6771551
0.165562 -0.004373 0.656000 8761768
0.164805 -0.000622 0.653000 7957095
0.164805 0.003110 0.653000 8479861
0.164805 0.006841 0.653000 5460340
0.164552 0.010556 0.652000 5072518
0.164552 0.014282 0.652000 4998462
0.164552 0.018008 0.652000 6179174
0.164552 0.021733 0.652000 8012828
0.164552 0.025459 0.652000 7948833
0.164552 0.029185 0.652000 8282177
0.164552 0.032910 0.652000 8289134
0.164552 0.036636 0.652000 6642026
0.164552 0.040362 0.652000 6902333
0.173677 -0.039679 0.683000 11650280
0.173423 -0.035724 0.682000 10074878
0.172406 -0.031640 0.678000 10862334
0.171643 -0.027643 0.675000 11314902
0.170626 -0.023645 0.671000 11772031
0.169354 -0.019663 0.666000 12043236
0.168337 -0.015762 0.662000 11207040
0.167320 -0.011907 0.658000 3942735
0.167066 -0.008134 0.657000 6372187
0.166557 -0.004367 0.655000 11114394
0.166049 -0.000622 0.653000 7949944
0.166049 0.003110 0.653000 7103108
0.165794 0.006830 0.652000 5063545
0.165794 0.010556 0.652000 6385030
0.165540 0.014260 0.651000 5327200
0.165540 0.017980 0.651000 6056057
0.165540 0.021700 0.651000 7286860
0.165540 0.025420 0.651000 8210966
0.165540 0.029140 0.651000 7359020
0.165794 0.032910 0.652000 7823166
0.165794 0.036636 0.652000 5521224
0.165794 0.040362 0.652000 6640171
0.166049 0.044155 0.653000 5188670
0.174978 -0.039679 0.683000 12566737
0.174722 -0.035724 0.682000 10205950
0.173697 -0.031640 0.678000 10928126
0.173185 -0.027684 0.676000 11576790
0.171904 -0.023645 0.671000 11836790
0.170623 -0.019663 0.666000 12440561
0.169598 -0.015762 0.662000 11675987
0.168573 -0.011907 0.658000 5909063
0.168317 -0.008134 0.657000 5582167
0.167805 -0.004367 0.655000 9142413
0.167036 -0.000621 0.652000 9140617
0.167036 0.003105 0.652000 6778259
0.167036 0.006830 0.652000 5462654
0.166780 0.010540 0.651000 6584455
0.166780 0.014260 0.651000 5856898
0.166780 0.017980 0.651000 7243916
0.166780 0.021700 0.651000 6570620
0.166780 0.025420 0.651000 7093260
0.166780 0.029140 0.651000 8081942
0.166780 0.032860 0.651000 8145933
0.166780 0.036580 0.651000 6242342
0.166780 0.040300 0.651000 6639897
0.167036 0.044088 0.652000 5520711
0.167036 0.047813 0.652000 4205621
0.176279 -0.039679 0.683000 13482698
0.175505 -0.035619 0.680000 10272751
0.174989 -0.031640 0.678000 11059197
0.174214 -0.027643 0.675000 11773628
0.173182 -0.023645 0.671000 11966844
0.171891 -0.019663 0.666000 12762596
0.170859 -0.015762 0.662000 12124490
0.169827 -0.011907 0.658000 7875651
0.169569 -0.008134 0.657000 4726105
0.169052 -0.004367 0.655000 7170454
0.168278 -0.000621 0.652000 10325951
0.168020 0.003100 0.651000 6389917
0.168020 0.006820 0.651000 5858436
0.168020 0.010540 0.651000 6716043
0.167762 0.014238 0.650000 6384789
0.168020 0.017980 0.651000 8420996
0.167762 0.021667 0.650000 5862283
0.167762 0.025381 0.650000 5914163
0.167762 0.029095 0.650000 8738340
0.168020 0.032860 0.651000 8410146
0.168020 0.036580 0.651000 7029787
0.168020 0.040300 0.651000 6638616
0.168020 0.044020 0.651000 5786162
0.168020 0.047740 0.651000 4797240
0.176800 -0.035619 0.680000 11321568
0.176280 -0.031640 0.678000 10992379
0.175500 -0.027643 0.675000 11706018
0.174460 -0.023645 0.671000 11705474
0.173160 -0.019663 0.666000 12239575
0.172380 -0.015786 0.663000 11870017
0.171080 -0.011907 0.658000 5050688
0.170820 -0.008134 0.657000 5127259
0.170300 -0.004367 0.655000 6182560
0.169520 -0.000621 0.652000 11646197
0.169260 0.003100 0.651000 8428454
0.169000 0.006810 0.650000 6121097
0.169000 0.010524 0.650000 7110544
0.168480 0.014194 0.648000 6845607
0.169000 0.017952 0.650000 8357245
0.169000 0.021667 0.650000 7832473
0.168480 0.025303 0.648000 6312538
0.169000 0.029095 0.650000 7090993
0.169000 0.032810 0.650000 9001527
0.169000 0.036524 0.650000 7687695
0.169000 0.040238 0.650000 7555608
0.169260 0.044020 0.651000 7296797
0.169260 0.047740 0.651000 4864827
0.177833 -0.035567 0.679000 12368594
0.177048 -0.031547 0.676000 10927860
0.176786 -0.027643 0.675000 11573910
0.175738 -0.023645 0.671000 11506348
0.174429 -0.019663 0.666000 11701431
0.173643 -0.015786 0.663000 11610950
0.172857 -0.011943 0.660000 2231375
0.172071 -0.008134 0.657000 5539239
0.171548 -0.004367 0.655000 5204392
0.170762 -0.000621 0.652000 13030372
0.170238 0.003095 0.650000 10458028
0.170238 0.006810 0.650000 6448246
0.169714 0.010491 0.648000 7503506
0.169452 0.014172 0.647000 7308700
0.169714 0.017897 0.648000 8289675
0.169190 0.021533 0.646000 9798804
0.169714 0.025303 0.648000 6711910
0.169714 0.029006 0.648000 5442845
0.169714 0.032709 0.648000 9519911
0.169452 0.036355 0.647000 8410924
0.169452 0.040052 0.647000 8470035
0.169452 0.043750 0.647000 8740384
0.169714 0.047520 0.648000 4868410
0.179127 -0.035567 0.679000 12891844
0.178335 -0.031547 0.676000 11251181
0.178071 -0.027643 0.675000 11641226
0.177016 -0.023645 0.671000 11643350
0.175961 -0.019692 0.667000 11102872
0.175433 -0.015833 0.665000 11479371
0.173587 -0.011907 0.658000 5177695
0.173323 -0.008134 0.657000 8104178
0.172268 -0.004353 0.653000 8091569
0.171740 -0.000620 0.651000 13091283
0.171476 0.003095 0.650000 9472177
0.170949 0.006789 0.648000 6316642
0.170685 0.010475 0.647000 7962260
0.170421 0.014150 0.646000 8357520
0.170421 0.017842 0.646000 8684441
0.170157 0.021500 0.645000 9537678
0.170421 0.025225 0.646000 6190962
0.170421 0.028916 0.646000 6098953
0.170421 0.032608 0.646000 9185048
0.170421 0.036299 0.646000 7221065
0.170421 0.039990 0.646000 7876623
0.170421 0.043682 0.646000 8869666
0.170685 0.047447 0.647000 6971193
0.179623 -0.031547 0.676000 11583719
0.179357 -0.027643 0.675000 11639188
0.178294 -0.023645 0.671000 11776219
0.177231 -0.019692 0.667000 10502518
0.176700 -0.015833 0.665000 11349069
0.175371 -0.011943 0.660000 8145523
0.174574 -0.008134 0.657000 10733025
0.173511 -0.004353 0.653000 10919877
0.172980 -0.000620 0.651000 13227738
0.172714 0.003095 0.650000 8420292
0.171917 0.006778 0.647000 6184575
0.171651 0.010459 0.646000 8421775
0.171651 0.014150 0.646000 9471893
0.171651 0.017842 0.646000 9013149
0.171386 0.021500 0.645000 9277080
0.171386 0.025186 0.645000 5660265
0.171386 0.028871 0.645000 6821154
0.171651 0.032608 0.646000 8858163
0.171651 0.036299 0.646000 6107727
0.171651 0.039990 0.646000 7289135
0.171651 0.043682 0.646000 8999459
0.171917 0.047447 0.647000 9068867
0.171651 0.051065 0.646000 4204350
0.180643 -0.031500 0.675000 12238560
0.180643 -0.027643 0.675000 11768222
0.179572 -0.023645 0.671000 11446240
0.178502 -0.019692 0.667000 10749525
0.177967 -0.015833 0.665000 11348814
0.176629 -0.011943 0.660000 10056582
0.175826 -0.008134 0.657000 10727631
0.174755 -0.004353 0.653000 12965082
0.174220 -0.000620 0.651000 13555168
0.173417 0.003086 0.648000 9930455
0.172882 0.006768 0.646000 8422299
0.172614 0.010443 0.645000 8750475
0.172614 0.014129 0.645000 9472409
0.172882 0.017842 0.646000 9275552
0.172347 0.021467 0.644000 7894689
0.172347 0.025147 0.644000 5128544
0.172347 0.028827 0.644000 7418682
0.172614 0.032557 0.645000 7289422
0.172614 0.036243 0.645000 6113109
0.172614 0.039929 0.645000 7160144
0.172614 0.043614 0.645000 8671268
0.172882 0.047373 0.646000 9071181
0.172882 0.051065 0.646000 4930109
0.181929 -0.031500 0.675000 12828629
0.181929 -0.027643 0.675000 11902127
0.180850 -0.023645 0.671000 11126245
0.179772 -0.019692 0.667000 11014989
0.179233 -0.015833 0.665000 11349056
0.178155 -0.011961 0.661000 11964569
0.177077 -0.008134 0.657000 10790615
0.175999 -0.004353 0.653000 14930910
0.175460 -0.000620 0.651000 13884140
0.174651 0.003086 0.648000 11381460
0.174112 0.006768 0.646000 10660540
0.173843 0.010443 0.645000 9077395
0.173843 0.014129 0.645000 9534030
0.173573 0.017787 0.644000 9539478
0.173034 0.021400 0.642000 6511998
0.173573 0.025147 0.644000 4538212
0.173573 0.028827 0.644000 8013926
0.173573 0.032507 0.644000 5718872
0.173843 0.036243 0.645000 6182774
0.173843 0.039929 0.645000 6966617
0.173843 0.043614 0.645000 8278603
0.173843 0.047300 0.645000 9068375
0.183214 -0.027643 0.675000 11772864
0.182129 -0.023645 0.671000 10331625
0.181043 -0.019692 0.667000 10163780
0.180500 -0.015833 0.665000 10362162
0.179414 -0.011961 0.661000 12042412
0.178057 -0.008122 0.656000 9608927
0.177243 -0.004353 0.653000 14738659
0.176971 -0.000621 0.652000 14279928
0.175886 0.003086 0.648000 11044818
0.175071 0.006757 0.645000 11515612
0.174800 0.010427 0.644000 8879260
0.174800 0.014107 0.644000 8082946
0.174257 0.017731 0.642000 8619916
0.174257 0.021400 0.642000 5002331
0.174257 0.025069 0.642000 4801385
0.174257 0.028737 0.642000 6902929
0.174257 0.032406 0.642000 5718114
0.174800 0.036187 0.644000 6252951
0.174800 0.039867 0.644000 6901346
0.175071 0.043614 0.645000 7362418
0.174800 0.047227 0.644000 7493217
0.174257 0.050749 0.642000 6442816
0.184500 -0.027643 0.675000 11644618
0.183407 -0.023645 0.671000 9555187
0.182313 -0.019692 0.667000 9247553
0.181767 -0.015833 0.665000 9312054
0.180673 -0.011961 0.661000 12037290
0.179307 -0.008122 0.656000 8428252
0.178487 -0.004353 0.653000 14532569
0.178213 -0.000621 0.652000 14676213
0.177120 0.003086 0.648000 10659031
0.176300 0.006757 0.645000 12433111
0.176027 0.010427 0.644000 8676734
0.175480 0.014063 0.642000 6624540
0.175480 0.017731 0.642000 7627892
0.175480 0.021400 0.642000 3493992
0.175480 0.025069 0.642000 5064813
0.175480 0.028737 0.642000 5794431
0.175480 0.032406 0.642000 5656164
0.175480 0.036074 0.642000 6322315
0.175480 0.039743 0.642000 6773106
0.176027 0.043547 0.644000 6380406
0.176027 0.047227 0.644000 5854051
0.175207 0.050670 0.641000 7227975
0.185786 -0.027643 0.675000 12433365
0.184685 -0.023645 0.671000 9875964
0.183584 -0.019692 0.667000 10362941
0.183033 -0.015833 0.665000 10167609
0.181932 -0.011961 0.661000 11650216
0.180831 -0.008134 0.657000 8163545
0.179730 -0.004353 0.653000 13081040
0.179180 -0.000620 0.651000 13551857
0.178354 0.003086 0.648000 12898781
0.177253 0.006747 0.644000 12300754
0.176703 0.010394 0.642000 5911904
0.176703 0.014063 0.642000 6173750
0.176703 0.017731 0.642000 5981020
0.176428 0.021367 0.641000 4215924
0.176428 0.025030 0.641000 5197170
0.176428 0.028692 0.641000 5133164
0.176428 0.032355 0.641000 5660007
0.176428 0.036018 0.641000 6185342
0.176428 0.039681 0.641000 6712193
0.176703 0.043411 0.642000 6050681
0.176703 0.047080 0.642000 5525861
0.176428 0.050670 0.641000 6829389
0.186240 -0.023680 0.672000 10276855
0.184854 -0.019692 0.667000 11479168
0.184300 -0.015833 0.665000 11021107
0.182914 -0.011943 0.660000 11245716
0.181806 -0.008122 0.656000 7968739
0.180974 -0.004353 0.653000 11645666
0.180697 -0.000621 0.652000 12435670
0.179589 0.003086 0.648000 15128810
0.178480 0.006747 0.644000 12233957
0.177926 0.010394 0.642000 3160414
0.177649 0.014041 0.641000 5718824
0.177649 0.017704 0.641000 4277852
0.177649 0.021367 0.641000 5002606
0.177649 0.025030 0.641000 5263467
0.177649 0.028692 0.641000 4477812
0.177649 0.032355 0.641000 5591661
0.177649 0.036018 0.641000 6051965
0.177649 0.039681 0.641000 6579330
0.177926 0.043411 0.642000 5720973
0.177649 0.047007 0.641000 5124685
0.177649 0.050670 0.641000 6495273
0.187520 -0.023680 0.672000 11453169
0.186683 -0.019751 0.669000 11623620
0.185567 -0.015833 0.665000 11017004
0.184171 -0.011943 0.660000 10649215
0.183334 -0.008134 0.657000 9348588
0.182218 -0.004353 0.653000 13027315
0.181660 -0.000620 0.651000 12955835
0.180544 0.003081 0.647000 15723512
0.179707 0.006747 0.644000 12038136
0.179149 0.010394 0.642000 4404060
0.178870 0.014041 0.641000 6111514
0.178311 0.017649 0.639000 4805723
0.178032 0.021267 0.638000 5067623
0.178032 0.024912 0.638000 5262949
0.178032 0.028558 0.638000 5200507
0.178032 0.032204 0.638000 5854835
0.178311 0.035906 0.639000 6249084
0.178032 0.039495 0.638000 6710915
0.178032 0.043141 0.638000 8090784
0.178311 0.046860 0.639000 4915509
0.178590 0.050590 0.640000 6299140
0.178311 0.054163 0.639000 7751459
0.188800 -0.023680 0.672000 12634338
0.187957 -0.019751 0.669000 11706336
0.186833 -0.015833 0.665000 11013239
0.185429 -0.011943 0.660000 9990540
0.184305 -0.008122 0.656000 10789606
0.183181 -0.004347 0.652000 14407923
0.182619 -0.000619 0.650000 13470926
0.181495 0.003076 0.646000 16250107
0.180371 0.006726 0.642000 11781360
0.180090 0.010378 0.641000 5649517
0.179529 0.013997 0.639000 6572842
0.179248 0.017621 0.638000 5264730
0.179248 0.021267 0.638000 5132381
0.178686 0.024834 0.636000 5261152
0.178686 0.028469 0.636000 5924991
0.178686 0.032103 0.636000 6052216
0.178686 0.035737 0.636000 6511491
0.178686 0.039371 0.636000 6843267
0.179248 0.043141 0.638000 10380948
0.179248 0.046787 0.638000 4667731
0.179529 0.050511 0.639000 6109517
0.179248 0.054078 0.638000 6829094
0.179248 0.057724 0.638000 6179883
0.189797 -0.023645 0.671000 13092563
0.188666 -0.019692 0.667000 11849468
0.188100 -0.015833 0.665000 11167170
0.186686 -0.011943 0.660000 10064281
0.185554 -0.008122 0.656000 10791136
0.184423 -0.004347 0.652000 14539507
0.183857 -0.000619 0.650000 14007521
0.182726 0.003076 0.646000 16382206
0.182443 0.006757 0.645000 12100583
0.181029 0.010362 0.640000 5515645
0.180746 0.013997 0.639000 7297850
0.180463 0.017621 0.638000 5396569
0.179897 0.021200 0.636000 4539474
0.179897 0.024834 0.636000 5392987
0.179897 0.028469 0.636000 6121346
0.179897 0.032103 0.636000 6053246
0.179897 0.035737 0.636000 6643849
0.179897 0.039371 0.636000 7233924
0.179897 0.043006 0.636000 8804232
0.180463 0.046787 0.638000 7572337
0.180463 0.050432 0.638000 7432342
0.180463 0.054078 0.638000 4788776
0.179897 0.057543 0.636000 6376225
0.191075 -0.023645 0.671000 13550542
0.189651 -0.019663 0.666000 11981048
0.188797 -0.015786 0.663000 11252704
0.187943 -0.011943 0.660000 10062506
0.186804 -0.008122 0.656000 10791393
0.185665 -0.004347 0.652000 14605043
0.184526 -0.000617 0.648000 14469606
0.183956 0.003076 0.646000 16511216
0.183671 0.006757 0.645000 12345749
0.182248 0.010362 0.640000 5400234
0.181963 0.013997 0.639000 8024169
0.181109 0.017566 0.636000 5461336
0.181109 0.021200 0.636000 3884375
0.180824 0.024795 0.635000 5525868
0.180824 0.028424 0.635000 6316927
0.180824 0.032052 0.635000 6054008
0.180824 0.035681 0.635000 6840957
0.180824 0.039310 0.635000 7625841
0.180824 0.042938 0.635000 7163996
0.181109 0.046640 0.636000 10453629
0.181109 0.050274 0.636000 8746060
0.181109 0.053909 0.636000 2760745
0.180824 0.057452 0.635000 6638635
0.191207 -0.019692 0.667000 12571635
0.190060 -0.015786 0.663000 10795262
0.189200 -0.011943 0.660000 8815036
0.188340 -0.008134 0.657000 10726114
0.187193 -0.004353 0.653000 14538484
0.185760 -0.000617 0.648000 14536939
0.185187 0.003076 0.646000 14147554
0.184613 0.006747 0.644000 10447170
0.183467 0.010362 0.640000 8159702
0.183180 0.013997 0.639000 6838680
0.182320 0.017566 0.636000 5265496
0.182033 0.021167 0.635000 4673372
0.182033 0.024795 0.635000 5988733
0.182033 0.028424 0.635000 7237756
0.181747 0.032002 0.634000 7433585
0.181747 0.035625 0.634000 7825520
0.181747 0.039248 0.634000 7689053
0.182033 0.042938 0.635000 8083759
0.182033 0.046567 0.635000 8811912
0.182033 0.050195 0.635000 7687937
0.182033 0.053824 0.635000 4337449
0.182033 0.057452 0.635000 5056820
0.192477 -0.019692 0.667000 13160679
0.191323 -0.015786 0.663000 10332150
0.190457 -0.011943 0.660000 7504581
0.189591 -0.008134 0.657000 10659045
0.188437 -0.004353 0.653000 14408438
0.186994 -0.000617 0.648000 14662897
0.186417 0.003076 0.646000 11765690
0.186129 0.006757 0.645000 8534104
0.184974 0.010378 0.641000 10850226
0.184397 0.013997 0.639000 5723777
0.183531 0.017566 0.636000 4998502
0.183243 0.021167 0.635000 5525857
0.182954 0.024756 0.634000 6381949
0.182954 0.028379 0.634000 8158852
0.182666 0.031951 0.633000 8811900
0.182666 0.035569 0.633000 8809847
0.182666 0.039186 0.633000 7754850
0.182954 0.042870 0.634000 9070420
0.182954 0.046493 0.634000 7102559
0.183243 0.050195 0.635000 6619393
0.182954 0.053739 0.634000 5911320
0.182954 0.057362 0.634000 3473692
0.192586 -0.015786 0.663000 9607661
0.191714 -0.011943 0.660000 7443151
0.191133 -0.008147 0.658000 10923496
0.189681 -0.004353 0.653000 14604280
0.188229 -0.000617 0.648000 14141686
0.187648 0.003076 0.646000 10377363
0.187067 0.006747 0.644000 7493230
0.186195 0.010378 0.641000 10653582
0.185614 0.013997 0.639000 6305386
0.184452 0.017538 0.635000 5135731
0.184162 0.021133 0.634000 6116453
0.184162 0.024756 0.634000 6380925
0.183871 0.028334 0.633000 8551820
0.183871 0.031951 0.633000 9796999
0.183581 0.035512 0.632000 9532541
0.183871 0.039186 0.633000 8084839
0.183871 0.042803 0.633000 9205624
0.183871 0.046420 0.633000 4729653
0.183871 0.050037 0.633000 3801345
0.183871 0.053654 0.633000 4927239
0.183871 0.057271 0.633000 3605508
0.183871 0.060889 0.633000 8748931
0.193849 -0.015786 0.663000 8952818
0.192971 -0.011943 0.660000 7310038
0.192387 -0.008147 0.658000 11190770
0.191510 -0.004367 0.655000 14800880
0.189463 -0.000617 0.648000 13676241
0.188878 0.003076 0.646000 9005694
0.188293 0.006747 0.644000 6447218
0.187416 0.010378 0.641000 10382192
0.185954 0.013931 0.636000 6947191
0.185662 0.017538 0.635000 5202836
0.185370 0.021133 0.634000 6768480
0.185077 0.024717 0.633000 6314618
0.184785 0.028290 0.632000 8882066
0.184785 0.031901 0.632000 10715791
0.184785 0.035512 0.632000 10319495
0.184785 0.039124 0.632000 8413544
