# .PCD v.7 - Point Cloud Data file format
VERSION .7
FIELDS x y z rgb
SIZE 4 4 4 4
TYPE F F F I
COUNT 1 1 1 1
WIDTH 1343
HEIGHT 1
POINTS 1343
DATA ascii
-0.004320 0.058629 0.648000 11834395
-0.004320 0.062331 0.648000 10848651
-0.004320 0.066034 0.648000 5981767
-0.003190 0.014676 0.670000 14065242
-0.003186 0.018477 0.669000 14991510
-0.003143 0.022000 0.660000 13144736
-0.003110 0.025498 0.653000 12557673
-0.003086 0.029006 0.648000 12753717
-0.003081 0.032658 0.647000 10649913
-0.003081 0.036355 0.647000 8808469
-0.003086 0.040114 0.648000 6576174
-0.003086 0.043817 0.648000 10588432
-0.003086 0.047520 0.648000 11506807
-0.003086 0.051223 0.648000 8616193
-0.003086 0.054926 0.648000 8742436
-0.003086 0.058629 0.648000 11775540
-0.003081 0.062235 0.647000 10652817
-0.003086 0.066034 0.648000 5855812
-0.001917 0.014698 0.671000 14000733
-0.001906 0.018422 0.667000 14925715
-0.001886 0.022000 0.660000 13542595
-0.001866 0.025498 0.653000 12092249
-0.001851 0.029006 0.648000 12553268
-0.001846 0.032608 0.646000 11304979
-0.001849 0.036355 0.647000 8937217
-0.001851 0.040114 0.648000 7301180
-0.001851 0.043817 0.648000 10581767
-0.001851 0.047520 0.648000 11772792
-0.001851 0.051223 0.648000 7822337
-0.001851 0.054926 0.648000 8930851
-0.001851 0.058629 0.648000 12164685
-0.001849 0.062235 0.647000 11116695
-0.001851 0.066034 0.648000 6047809
-0.001863 0.070168 0.652000 6767152
-0.000638 0.014676 0.670000 13865576
-0.000635 0.018422 0.667000 14792329
-0.000629 0.022000 0.660000 13862564
-0.000622 0.025498 0.653000 11626591
-0.000617 0.029006 0.648000 12410907
-0.000616 0.032658 0.647000 11887651
-0.000616 0.036355 0.647000 9137409
-0.000617 0.040114 0.648000 7951402
-0.000617 0.043817 0.648000 10587663
-0.000617 0.047520 0.648000 11964520
-0.000617 0.051223 0.648000 7097857
-0.000617 0.054926 0.648000 9076267
-0.000617 0.058629 0.648000 12556593
-0.000616 0.062235 0.647000 11508132
-0.000617 0.066034 0.648000 6247224
-0.000622 0.070275 0.653000 6045998
0.000638 0.014676 0.670000 13539698
0.000635 0.018422 0.667000 14128511
0.000627 0.021933 0.658000 13262213
0.000622 0.025498 0.653000 11080805
0.000617 0.029006 0.648000 10368257
0.000615 0.032608 0.646000 10765618
0.000616 0.036355 0.647000 8800513
0.000617 0.040114 0.648000 8213272
0.000617 0.043817 0.648000 10778902
0.000616 0.047447 0.647000 9601113
0.000616 0.051144 0.647000 6894593
0.000616 0.054841 0.647000 11247154
0.000616 0.058538 0.647000 12490773
0.000616 0.062235 0.647000 12038577
0.000617 0.066034 0.648000 5846831
0.000622 0.070275 0.653000 5649452
0.001917 0.014698 0.671000 13139338
0.001906 0.018422 0.667000 13392718
0.001880 0.021933 0.658000 12648800
0.001866 0.025498 0.653000 10562154
0.001849 0.028961 0.647000 8335168
0.001846 0.032608 0.646000 9577020
0.001849 0.036355 0.647000 8533505
0.001851 0.040114 0.648000 8471074
0.001849 0.043750 0.647000 10979119
0.001849 0.047447 0.647000 7172677
0.001849 0.051144 0.647000 6685716
0.001849 0.054841 0.647000 13407288
0.001849 0.058538 0.647000 12488480
0.001849 0.062235 0.647000 12560305
0.001851 0.066034 0.648000 5515042
0.001866 0.070275 0.653000 5256748
0.003195 0.014698 0.671000 12149922
0.003186 0.018477 0.669000 11665694
0.003143 0.022000 0.660000 11937082
0.003110 0.025498 0.653000 10027376
0.003081 0.028961 0.647000 9326974
0.003076 0.032608 0.646000 9899078
0.003081 0.036355 0.647000 7544833
0.003081 0.040052 0.647000 9977901
0.003081 0.043750 0.647000 10507847
0.003081 0.047447 0.647000 7626545
0.003081 0.051144 0.647000 9128486
0.003081 0.054841 0.647000 12944958
0.003081 0.058538 0.647000 12224554
0.003081 0.062235 0.647000 12893361
0.003086 0.066034 0.648000 5318932
0.003119 0.070490 0.655000 5317933
0.004447 0.018422 0.667000 9969518
0.004387 0.021933 0.658000 11232091
0.004353 0.025498 0.653000 9473197
0.004313 0.028961 0.647000 10324137
0.004307 0.032608 0.646000 10184054
0.004313 0.036355 0.647000 6619472
0.004313 0.040052 0.647000 11479063
0.004307 0.043682 0.646000 10108744
0.004313 0.047447 0.647000 8013854
0.004307 0.051065 0.646000 11560995
0.004313 0.054841 0.647000 12415016
0.004307 0.058448 0.646000 12019226
0.004307 0.062139 0.646000 13220014
0.004320 0.066034 0.648000 5118482
0.004367 0.070490 0.655000 5385260
0.005709 0.018394 0.666000 11286207
0.005640 0.021933 0.658000 12486268
0.005589 0.025459 0.652000 13103594
0.005546 0.028961 0.647000 11046867
0.005537 0.032608 0.646000 11581351
0.005537 0.036299 0.646000 7295134
0.005537 0.039990 0.646000 9044737
0.005537 0.043682 0.646000 9188424
0.005546 0.047447 0.647000 8201739
0.005537 0.051065 0.646000 9845792
0.005546 0.054841 0.647000 11619347
0.005537 0.058448 0.646000 11758601
0.005537 0.062139 0.646000 13222059
0.005554 0.066034 0.648000 5120784
0.005631 0.070706 0.657000 5255468
0.006967 0.018367 0.665000 12564948
0.006893 0.021933 0.658000 13739197
0.006830 0.025459 0.652000 16708070
0.006778 0.028961 0.647000 11758770
0.006757 0.032557 0.645000 12883074
0.006768 0.036299 0.646000 7970237
0.006768 0.039990 0.646000 6631993
0.006768 0.043682 0.646000 8359566
0.006778 0.047447 0.647000 8396105
0.006768 0.051065 0.646000 8139331
0.006768 0.054756 0.646000 10758413
0.006768 0.058448 0.646000 11502341
0.006768 0.062139 0.646000 13218950
0.006778 0.065932 0.647000 5112095
0.006883 0.070706 0.657000 5124394
0.008246 0.018394 0.666000 14351593
0.008147 0.021933 0.658000 14138622
0.008072 0.025459 0.652000 16709602
0.008010 0.028961 0.647000 11298704
0.007986 0.032557 0.645000 12484189
0.007986 0.036243 0.645000 10595291
0.007973 0.039867 0.644000 9867376
0.007986 0.043614 0.645000 10527700
0.008010 0.047447 0.647000 9372040
0.007998 0.051065 0.646000 7230822
0.007986 0.054671 0.645000 10624007
0.007973 0.058267 0.644000 11369985
0.007986 0.062043 0.645000 13284961
0.008010 0.065932 0.647000 5250605
0.008134 0.070706 0.657000 5387561
0.009514 0.018394 0.666000 16101528
0.009400 0.021933 0.658000 14533052
0.009314 0.025459 0.652000 16704457
0.009257 0.029006 0.648000 10843844
0.009229 0.032608 0.646000 12017742
0.009214 0.036243 0.645000 13157069
0.009200 0.039867 0.644000 13084793
0.009200 0.043547 0.644000 12765136
0.009229 0.047373 0.646000 10387883
0.009214 0.050986 0.645000 6386586
0.009200 0.054587 0.644000 10491197
0.009200 0.058267 0.644000 11245826
0.009200 0.061947 0.644000 13348693
0.009243 0.065932 0.647000 5440323
0.009386 0.070706 0.657000 5647905
0.010783 0.018394 0.666000 12671559
0.010686 0.022000 0.660000 12281721
0.010556 0.025459 0.652000 14734257
0.010475 0.028961 0.647000 11638520
0.010427 0.032507 0.644000 10636606
0.010394 0.036074 0.642000 12956607
0.010394 0.039743 0.642000 12493442
0.010394 0.043411 0.642000 12893132
0.010443 0.047300 0.645000 11911119
0.010427 0.050907 0.644000 9211085
0.010427 0.054587 0.644000 10492274
0.010394 0.058086 0.642000 10916610
0.010394 0.061754 0.642000 13283145
0.010427 0.065627 0.644000 5384280
0.010556 0.070168 0.652000 5057560
0.011997 0.018311 0.663000 9253439
0.011889 0.021900 0.657000 10027369
0.011780 0.025420 0.651000 12748151
0.011726 0.029006 0.648000 12507375
0.011653 0.032507 0.644000 9254990
0.011617 0.036074 0.642000 12759743
0.011653 0.039867 0.644000 11903630
0.011599 0.043344 0.641000 13088201
0.011671 0.047300 0.645000 13351369
0.011617 0.050749 0.642000 12039629
0.011617 0.054417 0.642000 10455714
0.011617 0.058086 0.642000 10593090
0.011617 0.061754 0.642000 13216339
0.011671 0.065729 0.645000 5316192
0.011726 0.069737 0.648000 4400150
0.013260 0.018311 0.663000 8524855
0.013140 0.021900 0.657000 8323416
0.013020 0.025420 0.651000 11426365
0.012940 0.028961 0.647000 12302565
0.012880 0.032507 0.644000 7930206
0.012840 0.036074 0.642000 12890815
0.012840 0.039743 0.642000 12165274
0.012880 0.043547 0.644000 13022149
0.012900 0.047300 0.645000 13218755
0.012840 0.050749 0.642000 12630221
0.012840 0.054417 0.642000 12109522
0.012840 0.058086 0.642000 11249794
0.012840 0.061754 0.642000 12168798
0.012920 0.065830 0.646000 5652072
0.012960 0.069737 0.648000 4007187
0.014523 0.018311 0.663000 7751565
0.014391 0.021900 0.657000 6685063
0.014260 0.025420 0.651000 10040904
0.014172 0.028961 0.647000 12176829
0.014107 0.032507 0.644000 6628200
0.014063 0.036074 0.642000 13022148
0.014063 0.039743 0.642000 12429486
0.014063 0.043411 0.642000 12891330
0.014063 0.047080 0.642000 13087425
0.014063 0.050749 0.642000 13219018
0.014041 0.054332 0.641000 13680592
0.014041 0.057995 0.641000 11973040
0.014063 0.061754 0.642000 11049822
0.014129 0.065729 0.645000 5982330
0.014172 0.069630 0.647000 3611922
0.015786 0.018311 0.663000 11842020
0.015643 0.021900 0.657000 10252213
0.015500 0.025420 0.651000 9568596
0.015405 0.028961 0.647000 11435157
0.015333 0.032507 0.644000 6160755
0.015262 0.036018 0.641000 13023176
0.015286 0.039743 0.642000 12825027
0.015286 0.043411 0.642000 13022399
0.015286 0.047080 0.642000 13218752
0.015286 0.050749 0.642000 13284807
0.015262 0.054332 0.641000 13614287
0.015262 0.057995 0.641000 12696029
0.015286 0.061754 0.642000 10584925
0.015357 0.065729 0.645000 6115467
0.015405 0.069630 0.647000 3546896
0.017049 0.018311 0.663000 15851759
0.016894 0.021900 0.657000 13753562
0.016740 0.025420 0.651000 9144742
0.016611 0.028916 0.646000 10776506
0.016509 0.032406 0.642000 5657988
0.016483 0.036018 0.641000 13091262
0.016483 0.039681 0.641000 13153716
0.016509 0.043411 0.642000 13219780
0.016483 0.047007 0.641000 13285827
0.016483 0.050670 0.641000 13349538
0.016483 0.054332 0.641000 13541280
0.016483 0.057995 0.641000 13482934
0.016509 0.061754 0.642000 10068883
0.016560 0.065627 0.644000 6248828
0.016637 0.069630 0.647000 3480087
0.016766 0.073893 0.652000 3216911
0.018311 0.018311 0.663000 15921915
0.018173 0.021933 0.658000 15002622
0.017980 0.025420 0.651000 12975864
0.017842 0.028916 0.646000 13354718
0.017731 0.032406 0.642000 7558294
0.017704 0.036018 0.641000 11837875
0.017704 0.039681 0.641000 12694693
0.017704 0.043344 0.641000 12496073
0.017731 0.047080 0.642000 12697030
0.017704 0.050670 0.641000 11303292
0.017704 0.054332 0.641000 10700657
0.017704 0.057995 0.641000 12093582
0.017704 0.061658 0.641000 11844296
0.017787 0.065627 0.644000 6709612
0.017842 0.069522 0.646000 3678749
0.017980 0.073780 0.651000 3217690
0.019545 0.018284 0.662000 15920376
0.019397 0.021900 0.657000 16248313
0.019220 0.025420 0.651000 16706012
0.019072 0.028916 0.646000 15988703
0.018954 0.032406 0.642000 9398913
0.018895 0.035962 0.640000 10652556
0.018895 0.039619 0.640000 12219505
0.018925 0.043344 0.641000 11832190
0.018925 0.047007 0.641000 12089973
0.018925 0.050670 0.641000 9317740
0.018925 0.054332 0.641000 7814249
0.018925 0.057995 0.641000 10772091
0.018925 0.061658 0.641000 13549260
0.018954 0.065423 0.642000 7175562
0.019072 0.069522 0.646000 3808284
0.019220 0.073780 0.651000 3152670
0.020806 0.018284 0.662000 15854069
0.020680 0.021933 0.658000 16182260
0.020460 0.025420 0.651000 15191744
0.020303 0.028916 0.646000 14139103
0.020146 0.032355 0.641000 9052781
0.020114 0.035962 0.640000 9781861
0.020114 0.039619 0.640000 11024957
0.020146 0.043344 0.641000 10238514
0.020146 0.047007 0.641000 10753573
0.020114 0.050590 0.640000 9853788
0.020114 0.054248 0.640000 9339488
0.020114 0.057905 0.640000 11437160
0.020146 0.061658 0.641000 13483215
0.020177 0.065423 0.642000 8488872
0.020271 0.069414 0.645000 3350811
0.020460 0.073780 0.651000 3152930
0.022033 0.018256 0.661000 15788277
0.021933 0.021933 0.658000 16116729
0.021700 0.025420 0.651000 13674432
0.021500 0.028871 0.645000 12359103
0.021367 0.032355 0.641000 8666991
0.021333 0.035962 0.640000 8873309
0.021333 0.039619 0.640000 9793612
0.021333 0.043276 0.640000 8607796
0.021333 0.046933 0.640000 9397077
0.021333 0.050590 0.640000 10451553
0.021333 0.054248 0.640000 10844760
0.021333 0.057905 0.640000 12028742
0.021333 0.061562 0.640000 13418187
0.021400 0.065423 0.642000 9803953
0.021500 0.069414 0.645000 2890273
0.021833 0.074233 0.655000 3218466
0.023292 0.018256 0.661000 15853301
0.023187 0.021933 0.658000 16052989
0.022940 0.025420 0.651000 12817344
0.022729 0.028871 0.645000 12680351
0.022588 0.032355 0.641000 9201264
0.022552 0.035962 0.640000 9991509
0.022552 0.039619 0.640000 10259292
0.022552 0.043276 0.640000 9660981
0.022588 0.047007 0.641000 10589317
0.022552 0.050590 0.640000 10384997
0.022552 0.054248 0.640000 8611153
0.022552 0.057905 0.640000 11500323
0.022588 0.061658 0.641000 13549511
0.022588 0.065321 0.641000 10196665
0.022693 0.069307 0.644000 2824744
0.023081 0.074233 0.655000 3284513
0.024551 0.018256 0.661000 15854327
0.024403 0.021900 0.657000 16053228
0.024143 0.025381 0.650000 11961246
0.023957 0.028871 0.645000 13019026
0.023809 0.032355 0.641000 9666691
0.023734 0.035906 0.639000 11111031
0.023734 0.039557 0.639000 10719616
0.023771 0.043276 0.640000 10777195
0.023771 0.046933 0.640000 11770268
0.023734 0.050511 0.639000 10317445
0.023771 0.054248 0.640000 6371678
0.023771 0.057905 0.640000 10969656
0.023809 0.061658 0.641000 13612205
0.023809 0.065321 0.641000 10528703
0.023920 0.069307 0.644000 2757420
0.024329 0.074233 0.655000 3416094
0.025771 0.018229 0.660000 15789818
0.025654 0.021900 0.657000 14464731
0.025381 0.025381 0.650000 12283772
0.025186 0.028871 0.645000 13347461
0.025030 0.032355 0.641000 10455958
0.024951 0.035906 0.639000 11245720
0.024951 0.039557 0.639000 11904676
0.024990 0.043276 0.640000 11571617
0.024990 0.046933 0.640000 12037044
0.024990 0.050590 0.640000 10324645
0.024990 0.054248 0.640000 4784747
0.024990 0.057905 0.640000 7482188
0.024990 0.061562 0.640000 12819860
0.025030 0.065321 0.641000 10921156
0.025147 0.069307 0.644000 2427953
0.025576 0.074233 0.655000 3546651
0.027029 0.018229 0.660000 15652580
0.026947 0.021933 0.658000 12877466
0.026619 0.025381 0.650000 12555389
0.026414 0.028871 0.645000 13740672
0.026210 0.032305 0.640000 11180675
0.026169 0.035906 0.639000 11315042
0.026169 0.039557 0.639000 13018738
0.026169 0.043209 0.639000 12428944
0.026210 0.046933 0.640000 12233129
0.026169 0.050511 0.639000 10334120
0.026210 0.054248 0.640000 3219826
0.026210 0.057905 0.640000 4072286
0.026210 0.061562 0.640000 12026263
0.026250 0.065321 0.641000 11252934
0.026291 0.069091 0.642000 2036276
0.026373 0.072987 0.644000 3677468
0.028286 0.018229 0.660000 14002639
0.028200 0.021933 0.658000 12883544
0.027771 0.025303 0.648000 12688767
0.027600 0.028827 0.644000 13612667
0.027429 0.032305 0.640000 10850671
0.027386 0.035906 0.639000 11246636
0.027386 0.039557 0.639000 12888641
0.027386 0.043209 0.639000 12889983
0.027386 0.046860 0.639000 11248031
0.027386 0.050511 0.639000 10328747
0.027386 0.054163 0.639000 5855865
0.027429 0.057905 0.640000 5321583
0.027471 0.061658 0.641000 12623003
0.027471 0.065321 0.641000 11448007
0.027514 0.069091 0.642000 2163512
0.027600 0.072987 0.644000 3612444
0.029588 0.018256 0.661000 12298692
0.029453 0.021933 0.658000 12887127
0.029006 0.025303 0.648000 12822367
0.028827 0.028827 0.644000 13485946
0.028648 0.032305 0.640000 10459275
0.028558 0.035850 0.638000 11114563
0.028603 0.039557 0.639000 12752208
0.028603 0.043209 0.639000 13349487
0.028603 0.046860 0.639000 10260600
0.028603 0.050511 0.639000 10325612
0.028603 0.054163 0.639000 8482432
0.028648 0.057905 0.640000 6581127
0.028648 0.061562 0.640000 13152428
0.028692 0.065321 0.641000 11647690
0.028737 0.069091 0.642000 2234946
0.028871 0.073100 0.645000 3547423
0.030847 0.018256 0.661000 12756665
0.030660 0.021900 0.657000 12222549
0.030333 0.025381 0.650000 13090367
0.030100 0.028871 0.645000 13288569
0.029820 0.032254 0.639000 10715559
0.029773 0.035850 0.638000 10319705
0.029773 0.039495 0.638000 10637664
0.029773 0.043141 0.638000 10836574
0.029773 0.046787 0.638000 8345681
0.029820 0.050511 0.639000 8942636
0.029820 0.054163 0.639000 9009288
0.029867 0.057905 0.640000 7894174
0.029867 0.061562 0.640000 13486525
0.029867 0.065219 0.640000 12236492
0.029960 0.069091 0.642000 2165324
0.030147 0.073213 0.646000 3678498
0.032057 0.018229 0.660000 13151671
0.031911 0.021900 0.657000 11633053
0.031571 0.025381 0.650000 13286250
0.031377 0.028916 0.646000 13150578
0.031086 0.032305 0.640000 10909844
0.030989 0.035850 0.638000 9590350
0.030989 0.039495 0.638000 8471403
0.030989 0.043141 0.638000 8323422
0.030989 0.046787 0.638000 6435145
0.030989 0.050432 0.638000 7628361
0.031037 0.054163 0.639000 9465480
0.031037 0.057814 0.639000 9201788
0.031037 0.061466 0.639000 13807792
0.031086 0.065219 0.640000 12828875
0.031183 0.069091 0.642000 2105167
0.031280 0.072987 0.644000 3810595
0.033213 0.018173 0.658000 13144757
0.033112 0.021867 0.656000 13023717
0.032810 0.025381 0.650000 13290389
0.032608 0.028916 0.646000 12543595
0.032305 0.032305 0.640000 12294273
0.032204 0.035850 0.638000 10178883
0.032204 0.039495 0.638000 9988982
0.032204 0.043141 0.638000 9716317
0.032204 0.046787 0.638000 8200257
0.032204 0.050432 0.638000 7691878
0.032204 0.054078 0.638000 8614281
0.032254 0.057814 0.639000 8212058
0.032254 0.061466 0.639000 11177635
0.032254 0.065117 0.639000 12893130
0.032355 0.068984 0.641000 2494035
0.032507 0.072987 0.644000 4072995
0.034467 0.018173 0.658000 13156309
0.034414 0.021900 0.657000 14416874
0.034048 0.025381 0.650000 13275015
0.033838 0.028916 0.646000 11946897
0.033576 0.032355 0.641000 13664903
0.033419 0.035850 0.638000 10767413
0.033419 0.039495 0.638000 11495792
0.033419 0.043141 0.638000 11104353
0.033419 0.046787 0.638000 9972301
0.033419 0.050432 0.638000 7822704
0.033419 0.054078 0.638000 7755883
0.033471 0.057814 0.639000 7283511
0.033471 0.061466 0.639000 8549520
0.033471 0.065117 0.639000 13026511
0.033576 0.068984 0.641000 2895957
0.033733 0.072987 0.644000 4335651
0.035720 0.018173 0.658000 14607094
0.035611 0.021867 0.656000 14148335
0.035286 0.025381 0.650000 12795514
0.035069 0.028916 0.646000 12813238
0.034797 0.032355 0.641000 12669068
0.034634 0.035850 0.638000 10368294
0.034634 0.039495 0.638000 10896747
0.034634 0.043141 0.638000 10836580
0.034634 0.046787 0.638000 9707096
0.034634 0.050432 0.638000 7229817
0.034634 0.054078 0.638000 5908301
0.034634 0.057724 0.638000 7151892
0.034634 0.061370 0.638000 9328765
0.034689 0.065117 0.639000 12827860
0.034743 0.068876 0.640000 3551575
0.034960 0.072987 0.644000 4598307
0.036973 0.018173 0.658000 15986425
0.036861 0.021867 0.656000 13946303
0.036524 0.025381 0.650000 12285321
0.036355 0.028961 0.647000 13737619
0.035962 0.032305 0.640000 11625109
0.035737 0.035737 0.636000 9911892
0.035850 0.039495 0.638000 10308721
0.035850 0.043141 0.638000 10571621
0.035850 0.046787 0.638000 9386855
0.035850 0.050432 0.638000 6638706
0.035850 0.054078 0.638000 4072514
0.035850 0.057724 0.638000 7015447
0.035850 0.061370 0.638000 10129552
0.035906 0.065117 0.639000 12629637
0.035906 0.068769 0.639000 4146762
0.036187 0.072987 0.644000 4927784
0.038227 0.018173 0.658000 15923965
0.038110 0.021867 0.656000 12675983
0.037820 0.025420 0.651000 13019801
0.037530 0.028916 0.646000 13334640
0.037239 0.032355 0.641000 12887453
0.036949 0.035737 0.636000 10711170
0.036949 0.039371 0.636000 10581367
0.036949 0.043006 0.636000 10838374
0.036949 0.046640 0.636000 10776182
0.036949 0.050274 0.636000 8414315
0.037065 0.054078 0.638000 6235702
0.037065 0.057724 0.638000 7610393
0.037065 0.061370 0.638000 10992291
0.037123 0.065117 0.639000 11706166
0.037123 0.068769 0.639000 4606525
0.037413 0.072987 0.644000 4993069
0.039660 0.018256 0.661000 15781353
0.039420 0.021900 0.657000 11469161
0.039060 0.025420 0.651000 13665941
0.038820 0.028961 0.647000 12934520
0.038340 0.032254 0.639000 14059921
0.038160 0.035737 0.636000 11499881
0.038160 0.039371 0.636000 10832987
0.038160 0.043006 0.636000 11169373
0.038160 0.046640 0.636000 12153969
0.038160 0.050274 0.636000 10191723
0.038160 0.053909 0.636000 8328253
0.038280 0.057724 0.638000 8259346
0.038280 0.061370 0.638000 11766889
0.038340 0.065117 0.639000 10850624
0.038400 0.068876 0.640000 5066556
0.038640 0.072987 0.644000 5124904
0.040981 0.018284 0.662000 14009300
0.040671 0.021900 0.657000 11546179
0.040300 0.025420 0.651000 13199761
0.039990 0.028916 0.646000 12872575
0.039557 0.032254 0.639000 13187205
0.039371 0.035737 0.636000 11229264
0.039371 0.039371 0.636000 10420543
0.039371 0.043006 0.636000 10635860
0.039371 0.046640 0.636000 11427181
0.039371 0.050274 0.636000 9850986
0.039371 0.053909 0.636000 8454467
0.039495 0.057724 0.638000 8201482
0.039495 0.061370 0.638000 9653806
0.039557 0.065117 0.639000 9734985
0.039557 0.068769 0.639000 5197371
0.039743 0.072760 0.642000 4729122
0.042242 0.018284 0.662000 12229573
0.041987 0.021933 0.658000 11676987
0.041540 0.025420 0.651000 12676462
0.041221 0.028916 0.646000 12809856
0.040774 0.032254 0.639000 12283557
0.040583 0.035737 0.636000 10970468
0.040583 0.039371 0.636000 9984867
0.040583 0.043006 0.636000 10110331
0.040583 0.046640 0.636000 10639472
0.040583 0.050274 0.636000 9581371
0.040583 0.053909 0.636000 8541804
0.040710 0.057724 0.638000 8147795
0.040710 0.061370 0.638000 7571818
0.040710 0.065015 0.638000 8682540
0.040774 0.068769 0.639000 5264459
0.040966 0.072760 0.642000 4336189
0.043503 0.018284 0.662000 11967158
0.043240 0.021933 0.658000 11145011
0.042911 0.025498 0.653000 12809290
0.042451 0.028916 0.646000 13008768
0.042057 0.032305 0.640000 13018565
0.041926 0.035850 0.638000 10310264
0.041794 0.039371 0.636000 10192776
0.041729 0.042938 0.635000 10845090
0.041729 0.046567 0.635000 11098228
0.041794 0.050274 0.636000 9053708
0.041794 0.053909 0.636000 8616597
0.041926 0.057724 0.638000 9335963
0.041926 0.061370 0.638000 10603686
0.041926 0.065015 0.638000 8617231
0.041926 0.068661 0.638000 7236699
0.042189 0.072760 0.642000 6708311
0.044493 0.021933 0.658000 10554440
0.044155 0.025498 0.653000 12873843
0.043614 0.028871 0.645000 13272478
0.043276 0.032305 0.640000 13730720
0.043006 0.035737 0.636000 9701263
0.042938 0.039310 0.635000 10372472
0.042938 0.042938 0.635000 11561047
0.042938 0.046567 0.635000 11554142
0.043006 0.050274 0.636000 8524300
0.043006 0.053909 0.636000 8682362
0.043006 0.057543 0.636000 10454926
0.043006 0.061177 0.636000 13609852
0.043006 0.064811 0.636000 8548958
0.043141 0.068661 0.638000 9206622
0.043344 0.072647 0.641000 9137492
0.045747 0.021933 0.658000 11484508
0.045538 0.025576 0.655000 13135260
0.044843 0.028871 0.645000 12811452
0.044426 0.032254 0.639000 13328763
0.044148 0.035681 0.635000 10970534
0.044078 0.039248 0.634000 10027368
0.044078 0.042870 0.634000 9843980
0.044078 0.046493 0.634000 9973577
0.044078 0.050116 0.634000 8262156
0.044148 0.053824 0.635000 9920095
0.044148 0.057452 0.635000 12169856
0.044148 0.061081 0.635000 10784338
0.044148 0.064710 0.635000 9211053
0.044217 0.068446 0.636000 8551778
0.044565 0.072647 0.641000 7560017
0.046929 0.021900 0.657000 12409978
0.046571 0.025459 0.652000 13407643
0.046000 0.028827 0.644000 12351645
0.045643 0.032254 0.639000 12949660
0.045357 0.035681 0.635000 12304320
0.045286 0.039248 0.634000 9734045
0.045286 0.042870 0.634000 8076589
0.045286 0.046493 0.634000 8401494
0.045357 0.050195 0.635000 8063508
0.045357 0.053824 0.635000 11165274
0.045357 0.057452 0.635000 13808257
0.045357 0.061081 0.635000 7962167
0.045357 0.064710 0.635000 9879213
0.045357 0.068338 0.635000 7829880
0.045714 0.072533 0.640000 5919292
0.046214 0.077024 0.647000 6969155
0.048180 0.021900 0.657000 12479896
0.047813 0.025459 0.652000 13349275
0.047227 0.028827 0.644000 13406846
0.046860 0.032254 0.639000 14531518
0.046567 0.035681 0.635000 13158105
0.046493 0.039248 0.634000 11849938
0.046493 0.042870 0.634000 9004877
0.046493 0.046493 0.634000 9460836
0.046567 0.050195 0.635000 8917275
0.046567 0.053824 0.635000 11300949
0.046567 0.057452 0.635000 12488833
0.046567 0.061081 0.635000 7696924
0.046567 0.064710 0.635000 11318189
0.046567 0.068338 0.635000 8950158
0.046860 0.072420 0.639000 5720102
0.047300 0.076786 0.645000 6968901
0.049356 0.021867 0.656000 12546664
0.048980 0.025420 0.651000 13263992
0.048453 0.028827 0.644000 14530196
0.048077 0.032254 0.639000 16107452
0.047776 0.035681 0.635000 14072274
0.047550 0.039124 0.632000 13876940
0.047701 0.042870 0.634000 9926987
0.047701 0.046493 0.634000 10447437
0.047776 0.050195 0.635000 9767725
0.047776 0.053824 0.635000 11433321
0.047776 0.057452 0.635000 11179673
0.047776 0.061081 0.635000 7434584
0.047776 0.064710 0.635000 12828330
0.047701 0.068230 0.634000 10065575
0.048077 0.072420 0.639000 5523243
0.048453 0.076667 0.644000 6905164
0.050606 0.021867 0.656000 11743800
0.050220 0.025420 0.651000 11863894
0.049757 0.028871 0.645000 14462377
0.049294 0.032254 0.639000 15448507
0.048986 0.035681 0.635000 13809355
0.048831 0.039186 0.633000 13810886
0.048909 0.042870 0.634000 9596233
0.048909 0.046493 0.634000 11299895
0.048986 0.050195 0.635000 9378111
0.048986 0.053824 0.635000 12427134
0.048986 0.057452 0.635000 12101297
0.048986 0.061081 0.635000 9928596
0.048909 0.064608 0.634000 13089191
0.048909 0.068230 0.634000 11383232
0.049217 0.072307 0.638000 5588271
0.049757 0.076786 0.645000 7761748
0.051855 0.021867 0.656000 10879305
0.051460 0.025420 0.651000 10505840
0.051065 0.028916 0.646000 14400400
0.050511 0.032254 0.639000 14792104
0.050195 0.035681 0.635000 13539518
0.050037 0.039186 0.633000 13678773
0.049958 0.042735 0.632000 9204806
0.050116 0.046493 0.634000 12147509
0.050195 0.050195 0.635000 9044796
0.050116 0.053739 0.634000 13342600
0.050116 0.057362 0.634000 12956607
0.050116 0.060985 0.634000 12426908
0.050116 0.064608 0.634000 13351103
0.050116 0.068230 0.634000 12627391
0.050432 0.072307 0.638000 5653805
0.050670 0.076310 0.641000 8544584
0.053105 0.021867 0.656000 11347290
0.052619 0.025381 0.650000 12553610
0.052214 0.028871 0.645000 14526071
0.051729 0.032254 0.639000 13144982
0.051405 0.035681 0.635000 11767984
0.051243 0.039186 0.633000 13418660
0.051162 0.042735 0.632000 9062211
0.051162 0.046347 0.632000 11755060
0.051324 0.050116 0.634000 9711928
0.051324 0.053739 0.634000 13411475
0.051324 0.057362 0.634000 13154764
0.051324 0.060985 0.634000 12755877
0.051324 0.064608 0.634000 13483735
0.051243 0.068123 0.633000 13090495
0.051486 0.072080 0.636000 5851179
0.051971 0.076429 0.642000 7558461
0.054354 0.021867 0.656000 11862406
0.053940 0.025420 0.651000 14524293
0.053526 0.028916 0.646000 14650979
0.052946 0.032254 0.639000 11438472
0.052614 0.035681 0.635000 9989517
0.052449 0.039186 0.633000 13142383
0.052366 0.042735 0.632000 8986964
0.052366 0.046347 0.632000 11359300
0.052531 0.050116 0.634000 10443576
0.052531 0.053739 0.634000 13412760
0.052531 0.057362 0.634000 13286068
0.052531 0.060985 0.634000 13083773
0.052449 0.064506 0.633000 13615520
0.052449 0.068123 0.633000 13479329
0.052531 0.071853 0.634000 5978678
0.053111 0.076310 0.641000 6574146
0.055604 0.021867 0.656000 12738482
0.055180 0.025420 0.651000 14988929
0.054841 0.028961 0.647000 13667151
0.054078 0.032204 0.638000 8605819
0.053739 0.035625 0.634000 6827113
0.053570 0.039124 0.632000 8408634
0.053570 0.042735 0.632000 8734309
0.053654 0.046420 0.633000 10442837
0.053739 0.050116 0.634000 11237687
0.053739 0.053739 0.634000 13412766
0.053739 0.057362 0.634000 12952988
0.053739 0.060985 0.634000 12031318
0.053654 0.064506 0.633000 12165992
0.053654 0.068123 0.633000 12361347
0.053739 0.071853 0.634000 6575680
0.054332 0.076310 0.641000 6375238
0.056853 0.021867 0.656000 13660112
0.056420 0.025420 0.651000 15435085
0.056073 0.028961 0.647000 12676983
0.055380 0.032254 0.639000 5718401
0.054947 0.035625 0.634000 3683731
0.054773 0.039124 0.632000 3679061
0.054773 0.042735 0.632000 8480110
0.054860 0.046420 0.633000 9462114
0.054947 0.050116 0.634000 12093993
0.054773 0.053570 0.632000 13348246
0.054860 0.057271 0.633000 12621946
0.054860 0.060889 0.633000 10910527
0.054860 0.064506 0.633000 10653251
0.054860 0.068123 0.633000 11247763
0.054947 0.071853 0.634000 7235396
0.055553 0.076310 0.641000 6181186
0.058103 0.021867 0.656000 13467630
0.057660 0.025420 0.651000 14236698
0.057217 0.028916 0.646000 13209502
0.056686 0.032305 0.640000 6695303
0.056243 0.035681 0.635000 6778812
0.055977 0.039124 0.632000 5055088
0.055977 0.042735 0.632000 7626358
0.056066 0.046420 0.633000 9726576
0.055977 0.049958 0.632000 12092955
0.055977 0.053570 0.632000 13021838
0.056066 0.057271 0.633000 8940632
0.055977 0.060792 0.632000 9259305
0.055977 0.064404 0.632000 9663261
0.056066 0.068123 0.633000 12826532
0.056154 0.071853 0.634000 7101000
0.056774 0.076310 0.641000 6117181
0.056774 0.079972 0.641000 5852493
0.059352 0.021867 0.656000 13278966
0.058900 0.025420 0.651000 13003349
0.058448 0.028916 0.646000 13806755
0.057905 0.032305 0.640000 7698345
0.057362 0.035625 0.634000 9806254
0.057181 0.039124 0.632000 6379401
0.057181 0.042735 0.632000 6773839
0.057271 0.046420 0.633000 9986653
0.057090 0.049879 0.631000 12027933
0.057090 0.053485 0.631000 12683387
0.057181 0.057181 0.632000 5324341
0.057181 0.060792 0.632000 7621193
0.057181 0.064404 0.632000 8599055
0.057271 0.068123 0.633000 14335902
0.057362 0.071853 0.634000 7026001
0.057995 0.076310 0.641000 6050112
0.057995 0.079972 0.641000 5659474
0.060510 0.021833 0.655000 14403070
0.060140 0.025420 0.651000 14055568
0.059678 0.028916 0.646000 14268840
0.059124 0.032305 0.640000 9477579
0.058662 0.035681 0.635000 10328992
0.058385 0.039124 0.632000 6779555
0.058385 0.042735 0.632000 7884328
0.058385 0.046347 0.632000 10118986
0.058292 0.049879 0.631000 12092702
0.058292 0.053485 0.631000 9657449
0.058385 0.057181 0.632000 3544594
0.058385 0.060792 0.632000 8288105
0.058385 0.064404 0.632000 6828289
0.058385 0.068015 0.632000 14274455
0.058570 0.071853 0.634000 6835290
0.059124 0.076190 0.640000 4994882
0.059216 0.079972 0.641000 5985110
0.061757 0.018090 0.655000 14140370
0.061757 0.021833 0.655000 15594238
0.061380 0.025420 0.651000 15048586
0.060909 0.028916 0.646000 14793888
0.060343 0.032305 0.640000 11248588
0.059871 0.035681 0.635000 10783648
0.059589 0.039124 0.632000 7104397
0.059589 0.042735 0.632000 8994876
0.059589 0.046347 0.632000 10185809
0.059589 0.049958 0.632000 12159799
0.059589 0.053570 0.632000 6575202
0.059589 0.057181 0.632000 1773364
0.059589 0.060792 0.632000 8930899
0.059589 0.064404 0.632000 5050140
0.059589 0.068015 0.632000 14195573
0.059683 0.071740 0.633000 6570091
0.060249 0.076071 0.639000 3946803
0.063005 0.018090 0.655000 14203089
0.063005 0.021833 0.655000 15523582
0.062620 0.025420 0.651000 15380356
0.062043 0.028871 0.645000 13932440
0.061562 0.032305 0.640000 10990029
0.061177 0.035737 0.636000 9733536
0.060792 0.039124 0.632000 7554167
0.060792 0.042735 0.632000 9394256
0.060792 0.046347 0.632000 9923160
0.060792 0.049958 0.632000 11832399
0.060792 0.053570 0.632000 6444892
0.060792 0.057181 0.632000 3548245
0.060792 0.060792 0.632000 8328766
0.060792 0.064404 0.632000 4593462
0.060792 0.068015 0.632000 11628626
0.060889 0.071740 0.633000 6837628
0.061370 0.075952 0.638000 4407076
0.064252 0.021833 0.655000 15522196
0.063762 0.025381 0.650000 15706486
0.063271 0.028871 0.645000 13004659
0.062879 0.032355 0.641000 10648221
0.062585 0.035850 0.638000 8685230
0.061996 0.039124 0.632000 8005985
0.061898 0.042668 0.631000 9859697
0.061996 0.046347 0.632000 9596779
0.061996 0.049958 0.632000 11570014
0.061996 0.053570 0.632000 6308699
0.061996 0.057181 0.632000 5389903
0.061996 0.060792 0.632000 7743592
0.061996 0.064404 0.632000 4066395
0.061996 0.068015 0.632000 9067632
0.062192 0.071853 0.634000 7101819
0.062585 0.075952 0.638000 4800801
0.065500 0.021833 0.655000 14722346
0.065000 0.025381 0.650000 15643240
0.064500 0.028871 0.645000 12147277
0.064000 0.032305 0.640000 10369902
0.063800 0.035850 0.638000 9539516
0.063200 0.039124 0.632000 7347787
0.063100 0.042668 0.631000 9928593
0.063200 0.046347 0.632000 9531263
0.063200 0.049958 0.632000 9988460
0.063200 0.053570 0.632000 7019098
0.063100 0.057090 0.631000 6374984
0.063100 0.060696 0.631000 7954065
0.063200 0.064404 0.632000 5914751
0.063200 0.068015 0.632000 9920143
0.063300 0.071740 0.633000 7630202
0.063800 0.075952 0.638000 4998431
0.066748 0.021833 0.655000 13921604
0.066238 0.025381 0.650000 15575392
0.065729 0.028871 0.645000 11231839
0.065219 0.032305 0.640000 10125203
0.064811 0.035737 0.636000 10466491
0.064404 0.039124 0.632000 6700116
0.064302 0.042668 0.631000 10062214
0.064302 0.046273 0.631000 9466237
0.064404 0.049958 0.632000 8345444
0.064404 0.053570 0.632000 7690095
0.064302 0.057090 0.631000 7358316
0.064302 0.060696 0.631000 8154763
0.064302 0.064302 0.631000 7693466
0.064404 0.068015 0.632000 10715539
0.064608 0.071853 0.634000 8224134
0.064811 0.075714 0.636000 5196072
0.067995 0.021833 0.655000 14060381
0.067580 0.025420 0.651000 14195288
0.067061 0.028916 0.646000 11499888
0.066438 0.032305 0.640000 10722744
0.066023 0.035737 0.636000 10458809
0.065504 0.039062 0.631000 7818589
0.065504 0.042668 0.631000 10389115
0.065504 0.046273 0.631000 9136764
0.065608 0.049958 0.632000 8279387
0.065608 0.053570 0.632000 9410949
0.065504 0.057090 0.631000 7036047
0.065504 0.060696 0.631000 7565957
0.065608 0.064404 0.632000 8091060
0.065608 0.068015 0.632000 8616088
0.065711 0.071740 0.633000 8617105
0.066023 0.075714 0.636000 6708017
0.069349 0.021867 0.656000 14126685
0.068820 0.025420 0.651000 12805726
0.068291 0.028916 0.646000 11697546
0.067763 0.032355 0.641000 11246250
0.067234 0.035737 0.636000 10390931
0.066706 0.039062 0.631000 8932177
0.066706 0.042668 0.631000 10783649
0.066706 0.046273 0.631000 8747168
0.066811 0.049958 0.632000 8211565
0.066811 0.053570 0.632000 11040897
0.066706 0.057090 0.631000 6713744
0.066706 0.060696 0.631000 6970509
0.066811 0.064404 0.632000 8491706
0.066811 0.068015 0.632000 6516107
0.066917 0.071740 0.633000 9011073
0.067129 0.075595 0.635000 8217950
0.070598 0.021867 0.656000 13864285
0.070060 0.025420 0.651000 11735140
0.069522 0.028916 0.646000 11044772
0.068876 0.032305 0.640000 9206939
0.068446 0.035737 0.636000 8872812
0.067908 0.039062 0.631000 8202821
0.067908 0.042668 0.631000 11836615
0.067908 0.046273 0.631000 11445701
0.068015 0.049958 0.632000 9458559
0.068015 0.053570 0.632000 10441086
0.067908 0.057090 0.631000 8030608
0.067908 0.060696 0.631000 6109076
0.068015 0.064404 0.632000 8620991
0.068015 0.068015 0.632000 8350078
0.068015 0.071627 0.632000 10190960
0.068338 0.075595 0.635000 9598090
0.071848 0.021867 0.656000 13600363
0.071300 0.025420 0.651000 10640255
0.070752 0.028916 0.646000 10387898
0.070095 0.032305 0.640000 7100570
0.069548 0.035681 0.635000 7362176
0.069110 0.039062 0.631000 7414856
0.069110 0.042668 0.631000 12885872
0.069110 0.046273 0.631000 14141134
0.069110 0.049879 0.631000 10700958
0.069110 0.053485 0.631000 9846134
0.069110 0.057090 0.631000 9279373
0.069110 0.060696 0.631000 5202840
0.069110 0.064302 0.631000 8816793
0.069219 0.068015 0.632000 10124656
0.069219 0.071627 0.632000 11372423
0.069548 0.075595 0.635000 10913161
0.073097 0.021867 0.656000 13402744
0.072651 0.025459 0.652000 10847642
0.071983 0.028916 0.646000 10128591
0.071314 0.032305 0.640000 7163288
0.070646 0.035625 0.634000 6571667
0.070311 0.039062 0.631000 5701963
0.070311 0.042668 0.631000 12089881
0.070311 0.046273 0.631000 13944023
0.070311 0.049879 0.631000 10969532
0.070311 0.053485 0.631000 9975150
0.070311 0.057090 0.631000 8806281
0.070311 0.060696 0.631000 6845597
0.070311 0.064302 0.631000 8871027
0.070311 0.067908 0.631000 10714979
0.070423 0.071627 0.632000 11701661
0.070757 0.075595 0.635000 11045767
0.070869 0.079349 0.636000 10189173
0.074347 0.021867 0.656000 13203832
0.073780 0.025420 0.651000 10977696
0.073100 0.028871 0.645000 9869731
0.072420 0.032254 0.639000 7167897
0.071853 0.035625 0.634000 5779076
0.071513 0.039062 0.631000 3945848
0.071513 0.042668 0.631000 11373673
0.071513 0.046273 0.631000 13746643
0.071513 0.049879 0.631000 11305941
0.071513 0.053485 0.631000 10098807
0.071513 0.057090 0.631000 8338272
0.071287 0.060504 0.629000 8480401
0.071513 0.064302 0.631000 8923249
0.071627 0.068015 0.632000 11228258
0.071627 0.071627 0.632000 12030827
0.071853 0.075476 0.634000 11110786
0.072080 0.079349 0.636000 10387313
0.075596 0.021867 0.656000 12216951
0.075020 0.025420 0.651000 10854567
0.074329 0.028871 0.645000 9010039
0.073637 0.032254 0.639000 7431578
0.073061 0.035625 0.634000 8217973
0.072715 0.039062 0.631000 5529254
0.072715 0.042668 0.631000 11312056
0.072715 0.046273 0.631000 13746383
0.072715 0.049879 0.631000 12363501
0.072715 0.053485 0.631000 9962112
0.072715 0.057090 0.631000 8139318
0.072485 0.060504 0.629000 8609158
0.072715 0.064302 0.631000 9512302
0.072715 0.067908 0.631000 10755681
0.072830 0.071627 0.632000 11564344
0.073061 0.075476 0.634000 11176317
0.073291 0.079349 0.636000 10385261
0.076846 0.021867 0.656000 11298198
0.075909 0.025303 0.648000 10652597
0.075557 0.028871 0.645000 8214422
0.074854 0.032254 0.639000 7696281
0.074269 0.035625 0.634000 10657940
0.073917 0.039062 0.631000 7108005
0.073917 0.042668 0.631000 11244947
0.073683 0.046127 0.629000 13745599
0.073683 0.049721 0.629000 13483984
0.073917 0.053485 0.631000 9796778
0.073917 0.057090 0.631000 7941986
0.073683 0.060504 0.629000 8669822
0.073917 0.064302 0.631000 10101351
0.073917 0.067908 0.631000 10295639
0.073917 0.071513 0.631000 11103585
0.074269 0.075476 0.634000 11241341
0.074503 0.079349 0.636000 10450804
0.078095 0.021867 0.656000 11370165
0.077024 0.025264 0.647000 10454979
0.076667 0.028827 0.644000 8548533
0.076071 0.032254 0.639000 9007256
0.075476 0.035625 0.634000 11380914
0.075119 0.039062 0.631000 7303843
0.075119 0.042668 0.631000 9658478
0.074881 0.046127 0.629000 13746607
0.074881 0.049721 0.629000 13282482
0.075119 0.053485 0.631000 11979477
0.074881 0.056910 0.629000 9329550
0.074762 0.060408 0.628000 9974390
0.074881 0.064098 0.629000 9643616
0.075119 0.067908 0.631000 10294862
0.075119 0.071513 0.631000 11370121
0.075357 0.075357 0.633000 11241342
0.075714 0.079349 0.636000 10450298
0.079345 0.021867 0.656000 11500215
0.078256 0.025264 0.647000 10196684
0.077893 0.028827 0.644000 8943258
0.077289 0.032254 0.639000 10312832
0.076563 0.035569 0.633000 12169114
0.076079 0.038938 0.629000 7438004
0.075958 0.042465 0.628000 8157336
0.075837 0.045980 0.627000 13680574
0.075958 0.049642 0.628000 13079987
0.076079 0.053315 0.629000 14068420
0.075837 0.056729 0.627000 10781867
0.075837 0.060311 0.627000 11288931
0.075958 0.063996 0.628000 9190495
0.075958 0.067585 0.628000 10298717
0.075958 0.071173 0.628000 11641232
0.076321 0.075119 0.631000 11175556
0.076926 0.079349 0.636000 10450043
0.079366 0.025225 0.646000 10402261
0.078751 0.028692 0.641000 8349054
0.078383 0.032204 0.638000 7743848
0.077646 0.035512 0.632000 12298882
0.077154 0.038876 0.628000 9603269
0.077031 0.042397 0.627000 10921921
0.077031 0.045980 0.627000 13484237
0.077031 0.049563 0.627000 13015731
0.077154 0.053230 0.628000 13409459
0.077031 0.056729 0.627000 10782663
0.077031 0.060311 0.627000 11501905
0.077154 0.063996 0.628000 9983325
0.077154 0.067585 0.628000 9905004
0.077154 0.071173 0.628000 11637910
0.077523 0.075119 0.631000 11373451
0.077891 0.079099 0.634000 10846588
0.080596 0.025225 0.646000 10524349
0.080097 0.028737 0.642000 7765679
0.079598 0.032204 0.638000 5186154
0.078974 0.035569 0.633000 12506774
0.078350 0.038876 0.628000 11709382
0.078226 0.042397 0.627000 13619148
0.078226 0.045980 0.627000 13215675
0.078226 0.049563 0.627000 12950950
0.078350 0.053230 0.628000 12754614
0.078226 0.056729 0.627000 10783425
0.078226 0.060311 0.627000 11623522
0.078350 0.063996 0.628000 10768476
0.078350 0.067585 0.628000 9449324
0.078350 0.071173 0.628000 11576721
0.078475 0.074881 0.629000 11504525
0.078974 0.078974 0.633000 11242113
0.081827 0.025225 0.646000 9533605
0.081320 0.028737 0.642000 8294623
0.080813 0.032204 0.638000 5186412
0.080180 0.035569 0.633000 13160361
0.079547 0.038876 0.628000 11248328
0.079420 0.042397 0.627000 13484759
0.079293 0.045907 0.626000 12221353
0.079420 0.049563 0.627000 12162201
0.079547 0.053230 0.628000 13545144
0.079420 0.056729 0.627000 9864122
0.079420 0.060311 0.627000 8982900
0.079547 0.063996 0.628000 9709147
0.079420 0.067477 0.627000 10236779
0.079420 0.071060 0.627000 11967372
0.079673 0.074881 0.629000 11635598
0.080180 0.078974 0.633000 11307654
0.083057 0.025225 0.646000 8548757
0.082543 0.028737 0.642000 8819630
0.082029 0.032204 0.638000 5192039
0.081386 0.035569 0.633000 13887424
0.080743 0.038876 0.628000 10715323
0.080614 0.042397 0.627000 13417423
0.080486 0.045907 0.626000 11247289
0.080614 0.049563 0.627000 11438179
0.080743 0.053230 0.628000 14267285
0.080614 0.056729 0.627000 9010598
0.080614 0.060311 0.627000 6304375
0.080743 0.063996 0.628000 8587356
0.080614 0.067477 0.627000 11024727
0.080614 0.071060 0.627000 12295785
0.080871 0.074881 0.629000 11700602
0.081386 0.078974 0.633000 11438217
0.084288 0.025225 0.646000 7299718
0.083766 0.028737 0.642000 7430525
0.083244 0.032204 0.638000 5388898
0.082591 0.035569 0.633000 12236759
0.081939 0.038876 0.628000 9519535
0.081678 0.042330 0.626000 13153991
0.081678 0.045907 0.626000 12564936
0.081809 0.049563 0.627000 9731116
0.081809 0.053146 0.627000 12101746
0.081678 0.056638 0.626000 8419474
0.081678 0.060215 0.626000 7227515
0.081809 0.063894 0.627000 8595292
0.081809 0.067477 0.627000 9836098
0.081809 0.071060 0.627000 11894342
0.081939 0.074762 0.628000 11570022
0.082591 0.078974 0.633000 11438476
0.085650 0.025264 0.647000 5977204
0.084989 0.028737 0.642000 6113384
0.084194 0.032103 0.636000 5588321
0.083665 0.035512 0.632000 10660828
0.083003 0.038814 0.627000 8281011
0.082870 0.042330 0.626000 12894148
0.082870 0.045907 0.626000 13811146
0.082870 0.049484 0.626000 8096904
0.082870 0.053061 0.626000 9927021
0.082870 0.056638 0.626000 7892101
0.082870 0.060215 0.626000 8149607
0.083003 0.063894 0.627000 8540784
0.083135 0.067585 0.628000 8608111
0.083003 0.071060 0.627000 11569478
0.083268 0.074881 0.629000 11438204
0.083797 0.078974 0.633000 11503754
0.086077 0.028692 0.641000 5388627
0.085406 0.032103 0.636000 7747168
0.085003 0.035569 0.633000 10594273
0.084331 0.038876 0.628000 8479416
0.084063 0.042330 0.626000 12103105
0.084063 0.045907 0.626000 13419725
0.084063 0.049484 0.626000 10267620
0.084063 0.053061 0.626000 8935016
0.084063 0.056638 0.626000 8020599
0.084063 0.060215 0.626000 7886676
0.084331 0.063996 0.628000 9270916
0.084331 0.067585 0.628000 8945308
0.084197 0.071060 0.627000 11829061
0.084466 0.074881 0.629000 11242386
0.085003 0.078974 0.633000 11373192
0.088251 0.025303 0.648000 2690663
0.087707 0.028827 0.644000 4730712
0.086617 0.032103 0.636000 9912933
0.086209 0.035569 0.633000 10594269
0.085391 0.038814 0.627000 8683455
0.085255 0.042330 0.626000 11242649
0.085255 0.045907 0.626000 12947314
0.085255 0.049484 0.626000 12429710
0.085255 0.053061 0.626000 7887702
0.085255 0.056638 0.626000 8151896
0.085255 0.060215 0.626000 7622728
0.085391 0.063894 0.627000 9994365
0.085391 0.067477 0.627000 9274525
0.085391 0.071060 0.627000 12088158
0.085664 0.074881 0.629000 11046549
0.086209 0.078974 0.633000 11307404
0.089348 0.025264 0.647000 5767533
0.088657 0.028737 0.642000 7421533
0.087829 0.032103 0.636000 10374506
0.087276 0.035512 0.632000 11181529
0.086586 0.038814 0.627000 11111366
0.086448 0.042330 0.626000 9594481
0.086448 0.045907 0.626000 7151896
0.086310 0.049405 0.625000 8284984
0.086310 0.052976 0.625000 8082501
0.086310 0.056548 0.625000 8344377
0.086448 0.060215 0.626000 7818556
0.086586 0.063894 0.627000 9006710
0.086586 0.067477 0.627000 8879262
0.086448 0.070947 0.626000 12028023
0.086862 0.074881 0.629000 11044505
0.087414 0.078974 0.633000 10320271
0.087829 0.082983 0.636000 10187141
0.090580 0.025264 0.647000 8881846
0.089880 0.028737 0.642000 10117277
0.089040 0.032103 0.636000 10832484
0.088480 0.035512 0.632000 11767471
0.087780 0.038814 0.627000 13475515
0.087640 0.042330 0.626000 8034450
0.087500 0.045833 0.625000 1338720
0.087360 0.049326 0.624000 4216630
0.087500 0.052976 0.625000 8279100
0.087500 0.056548 0.625000 8601662
0.087640 0.060215 0.626000 8013357
0.087640 0.063792 0.626000 8022394
0.087640 0.067370 0.626000 8485272
0.087640 0.070947 0.626000 11894899
0.087920 0.074762 0.628000 11046812
0.088340 0.078725 0.631000 9402507
0.088900 0.082852 0.635000 9468037
0.091812 0.025264 0.647000 12189182
0.091103 0.028737 0.642000 10390236
0.090677 0.032254 0.639000 10433119
0.089684 0.035512 0.632000 12092548
0.088832 0.038752 0.626000 13474737
0.088832 0.042330 0.626000 10724275
0.088690 0.045833 0.625000 6926761
0.088549 0.049326 0.624000 6187827
0.088690 0.052976 0.625000 8082740
0.088690 0.056548 0.625000 8342083
0.088690 0.060119 0.625000 7816479
0.088832 0.063792 0.626000 7296637
0.088832 0.067370 0.626000 7761554
0.088832 0.070947 0.626000 11964014
0.089116 0.074762 0.628000 11176096
0.089542 0.078725 0.631000 10192518
0.090110 0.082852 0.635000 9929349
0.092613 0.028827 0.644000 10662625
0.091894 0.032254 0.639000 10050682
0.090888 0.035512 0.632000 12425860
0.090169 0.038814 0.627000 13413047
0.090025 0.042330 0.626000 13477565
0.089881 0.045833 0.625000 12492682
0.089737 0.049326 0.624000 8093246
0.089881 0.052976 0.625000 7886650
0.089881 0.056548 0.625000 8016442
0.089881 0.060119 0.625000 7620139
0.090025 0.063792 0.626000 6572430
0.090025 0.067370 0.626000 6970753
0.090025 0.070947 0.626000 11967101
0.090312 0.074762 0.628000 11309729
0.090744 0.078725 0.631000 10980493
0.091319 0.082852 0.635000 10388618
0.094277 0.025264 0.647000 12354971
0.093549 0.028737 0.642000 10789094
0.092966 0.032204 0.638000 11899542
0.092237 0.035569 0.633000 12883075
0.091217 0.038752 0.626000 14472893
0.091217 0.042330 0.626000 12495046
0.091071 0.045833 0.625000 9727595
0.090926 0.049326 0.624000 8158280
0.091071 0.052976 0.625000 7887937
0.091071 0.056548 0.625000 7887409
0.091071 0.060119 0.625000 6572087
0.091217 0.063792 0.626000 8940447
0.091071 0.067262 0.625000 8802929
0.091071 0.070833 0.625000 12624524
0.091363 0.074643 0.627000 11439267
0.091946 0.078725 0.631000 11373972
0.092529 0.082852 0.635000 10782096
0.095362 0.025225 0.646000 9269910
0.094771 0.028737 0.642000 10986710
0.094181 0.032204 0.638000 13671584
0.093590 0.035625 0.634000 13399362
0.092410 0.038752 0.626000 15522241
0.092410 0.042330 0.626000 11511488
0.092262 0.045833 0.625000 6979456
0.092262 0.049405 0.625000 8289339
0.092262 0.052976 0.625000 7894590
0.092262 0.056548 0.625000 7827505
0.092262 0.060119 0.625000 5464637
0.092262 0.063690 0.625000 11314042
0.092262 0.067262 0.625000 10647939
0.092262 0.070833 0.625000 13343875
0.092557 0.074643 0.627000 11573675
0.093148 0.078725 0.631000 11767442
0.093738 0.082852 0.635000 11176333
0.096592 0.025225 0.646000 9720722
0.095994 0.028737 0.642000 10720709
0.095396 0.032204 0.638000 12885930
0.094798 0.035625 0.634000 11294977
0.093602 0.038752 0.626000 15984324
0.093452 0.042262 0.625000 12168122
0.093452 0.045833 0.625000 9020565
0.093452 0.049405 0.625000 8157230
0.093452 0.052976 0.625000 9141564
0.093452 0.056548 0.625000 8686385
0.093452 0.060119 0.625000 6124354
0.093452 0.063690 0.625000 10262101
0.093452 0.067262 0.625000 11898006
0.093452 0.070833 0.625000 13279098
0.093751 0.074643 0.627000 11968691
0.094350 0.078725 0.631000 11964816
0.095097 0.082983 0.636000 11503754
0.097823 0.025225 0.646000 10125182
0.097520 0.028827 0.644000 10460102
0.096763 0.032254 0.639000 12025507
0.096157 0.035681 0.635000 9270813
0.094794 0.038752 0.626000 16442568
0.094643 0.042262 0.625000 12890039
0.094643 0.045833 0.625000 10984357
0.094643 0.049405 0.625000 8022392
0.094643 0.052976 0.625000 10329988
0.094491 0.056457 0.624000 9542466
0.094643 0.060119 0.625000 6717245
0.094643 0.063690 0.625000 9271380
0.094643 0.067262 0.625000 13147782
0.094491 0.070720 0.624000 13213828
0.094946 0.074643 0.627000 12297646
0.095551 0.078725 0.631000 12229281
0.099207 0.025264 0.647000 9994603
0.098747 0.028827 0.644000 10195399
0.097980 0.032254 0.639000 9986461
0.097367 0.035681 0.635000 9798200
0.095987 0.038752 0.626000 16116684
0.095833 0.042262 0.625000 12823732
0.095833 0.045833 0.625000 12028597
0.095833 0.049405 0.625000 11053761
0.095833 0.052976 0.625000 12176845
