# .PCD v.7 - Point Cloud Data file format
VERSION .7
FIELDS x y z rgb
SIZE 4 4 4 4
TYPE F F F I
COUNT 1 1 1 1
WIDTH 1346
HEIGHT 1
POINTS 1346
DATA ascii
0.036154 0.128760 0.666000 7365243
0.035991 0.131969 0.663000 5724767
0.035883 0.135348 0.661000 7501446
0.035666 0.138283 0.657000 8351868
0.035449 0.141172 0.653000 9267789
0.035340 0.144460 0.651000 8540975
0.035177 0.147497 0.648000 8603957
0.035069 0.150733 0.646000 7424359
0.034851 0.153469 0.642000 7624550
0.034689 0.156403 0.639000 7562880
0.034526 0.159303 0.636000 7957155
0.034417 0.162425 0.634000 9213315
0.034363 0.165786 0.633000 5913376
0.034254 0.168868 0.631000 7482627
0.034146 0.171927 0.629000 9991801
0.034091 0.175242 0.628000 13351876
0.034091 0.178830 0.628000 12763618
0.034146 0.182710 0.629000 9272492
0.039558 0.075764 0.704000 6057354
0.039614 0.079900 0.705000 7109775
0.039614 0.083929 0.705000 7437710
0.039502 0.087708 0.703000 8093045
0.039390 0.091464 0.701000 11364672
0.038996 0.094516 0.694000 10449981
0.038940 0.098340 0.693000 9984060
0.038771 0.101857 0.690000 7941178
0.038547 0.105187 0.686000 8224144
0.038322 0.108470 0.682000 8608599
0.038097 0.111709 0.678000 8874587
0.037929 0.115071 0.675000 8814206
0.037704 0.118224 0.671000 8396850
0.037704 0.122058 0.671000 8201239
0.037423 0.124954 0.666000 8861762
0.037254 0.128180 0.663000 7364955
0.037142 0.131570 0.661000 6315097
0.036973 0.134733 0.658000 7697244
0.036861 0.138072 0.656000 8084552
0.036636 0.140956 0.652000 8937032
0.036524 0.144238 0.650000 8536364
0.036355 0.147270 0.647000 8666946
0.036243 0.150500 0.645000 7297648
0.036018 0.153230 0.641000 7297647
0.035850 0.156158 0.638000 7892604
0.035737 0.159303 0.636000 9935225
0.035625 0.162425 0.634000 10189179
0.035512 0.165524 0.632000 3481387
0.035288 0.168065 0.628000 9064740
0.035175 0.171107 0.626000 11836052
0.035231 0.174963 0.627000 12758711
0.035288 0.178830 0.628000 14010080
0.035344 0.182710 0.629000 12037064
0.040899 0.071741 0.704000 9534851
0.040899 0.075764 0.704000 6584974
0.040957 0.079900 0.705000 6978952
0.040899 0.083810 0.704000 6913423
0.040667 0.087333 0.700000 7038099
0.040550 0.091072 0.698000 8072525
0.040260 0.094380 0.693000 8542028
0.040028 0.097772 0.689000 8669775
0.039911 0.101414 0.687000 7560304
0.039679 0.104727 0.683000 8291484
0.039447 0.107993 0.679000 8806743
0.039272 0.111379 0.676000 8939881
0.039156 0.114901 0.674000 8800099
0.038924 0.118048 0.670000 8396850
0.038750 0.121330 0.667000 8339489
0.038517 0.124391 0.663000 8017506
0.038459 0.127987 0.662000 6706235
0.038227 0.130973 0.658000 7035474
0.038110 0.134324 0.656000 7756337
0.037936 0.137441 0.653000 7286291
0.037762 0.140524 0.650000 7752259
0.037646 0.143794 0.648000 8000297
0.037530 0.147042 0.646000 8078415
0.037413 0.150267 0.644000 7171706
0.037181 0.152990 0.640000 7364728
0.036949 0.155669 0.636000 7826808
0.036890 0.159052 0.635000 9135695
0.036774 0.162169 0.633000 9794164
0.036542 0.164738 0.629000 5321525
0.036426 0.167797 0.627000 9925958
0.036310 0.170833 0.625000 11311279
0.036368 0.174684 0.626000 11508138
0.036484 0.178830 0.628000 13812957
0.036658 0.183290 0.631000 13028837
0.042240 0.071741 0.704000 8018306
0.042240 0.075764 0.704000 7044238
0.042240 0.079787 0.704000 6913684
0.042060 0.083452 0.701000 6323337
0.041880 0.087084 0.698000 6059893
0.041820 0.090942 0.697000 4807236
0.041400 0.093971 0.690000 6573391
0.041220 0.097489 0.687000 7296342
0.041040 0.100971 0.684000 7241349
0.040800 0.104267 0.680000 8288905
0.040680 0.107834 0.678000 9003353
0.040560 0.111379 0.676000 9009785
0.040320 0.114560 0.672000 8718649
0.040140 0.117871 0.669000 8395308
0.039780 0.120603 0.663000 8413021
0.039720 0.124204 0.662000 7099990
0.039600 0.127600 0.660000 6114604
0.039420 0.130774 0.657000 7689551
0.039300 0.134119 0.655000 7820372
0.039120 0.137230 0.652000 6443596
0.038880 0.140091 0.648000 6578292
0.038820 0.143572 0.647000 7482430
0.038700 0.146814 0.645000 7490902
0.038520 0.149800 0.642000 7036534
0.038340 0.152751 0.639000 7364985
0.038040 0.155179 0.634000 7760248
0.037920 0.158301 0.632000 8272476
0.037860 0.161656 0.631000 9335162
0.037680 0.164476 0.628000 7225166
0.037620 0.167797 0.627000 10710368
0.037500 0.170833 0.625000 10724267
0.037560 0.174684 0.626000 10258841
0.037680 0.178830 0.628000 13550803
0.037920 0.183581 0.632000 13945311
0.038280 0.188970 0.638000 10399427
0.043519 0.071639 0.703000 7105665
0.043519 0.075656 0.703000 6651534
0.043519 0.079673 0.703000 7044511
0.043333 0.083333 0.700000 7306115
0.043210 0.087084 0.698000 8553047
0.042900 0.090420 0.693000 8292667
0.042652 0.093835 0.689000 6699345
0.042343 0.097063 0.684000 7498332
0.042219 0.100676 0.682000 7701401
0.042033 0.104113 0.679000 8480118
0.041848 0.107516 0.676000 8874586
0.041600 0.110720 0.672000 9014153
0.041538 0.114390 0.671000 8722191
0.041290 0.117519 0.667000 8393509
0.040981 0.120421 0.662000 8022168
0.040919 0.124016 0.661000 5323594
0.040733 0.127213 0.658000 4925212
0.040610 0.130575 0.656000 7297100
0.040424 0.133710 0.653000 8088182
0.040300 0.137020 0.651000 8619653
0.040052 0.139875 0.647000 7105188
0.039990 0.143350 0.646000 7487572
0.039867 0.146587 0.644000 6771036
0.039681 0.149567 0.641000 6837363
0.039371 0.152034 0.636000 7364473
0.039186 0.154934 0.633000 8350072
0.039124 0.158301 0.632000 8281193
0.038938 0.161144 0.629000 8219008
0.038814 0.164214 0.627000 7754855
0.038752 0.167530 0.626000 10512249
0.038629 0.170560 0.624000 10523302
0.038752 0.174684 0.626000 9664393
0.038876 0.178830 0.628000 13089737
0.039186 0.183871 0.633000 13813466
0.039495 0.188970 0.638000 12172006
0.044858 0.071639 0.703000 6192008
0.044730 0.075441 0.701000 6193024
0.044730 0.079447 0.701000 7240825
0.044667 0.083333 0.700000 8223062
0.044475 0.086959 0.697000 10976580
0.044029 0.090029 0.690000 11694127
0.043837 0.093563 0.687000 6761314
0.043582 0.096921 0.683000 7632512
0.043390 0.100381 0.680000 8225947
0.043263 0.103960 0.678000 8676963
0.043071 0.107357 0.675000 8745070
0.042816 0.110555 0.671000 8936810
0.042561 0.113708 0.667000 8788495
0.042433 0.117167 0.665000 8399939
0.042242 0.120421 0.662000 7569802
0.042178 0.124016 0.661000 3554641
0.041859 0.126827 0.656000 3806019
0.041668 0.129978 0.653000 6837334
0.041604 0.133505 0.652000 8355967
0.041476 0.136810 0.650000 10718344
0.041157 0.139443 0.645000 7691912
0.041093 0.142907 0.644000 7423836
0.040902 0.145904 0.641000 6052197
0.040710 0.148867 0.638000 6641271
0.040455 0.151556 0.634000 7364215
0.040328 0.154690 0.632000 8940924
0.040264 0.158050 0.631000 8348759
0.040072 0.160888 0.628000 7103341
0.039945 0.163952 0.626000 8278326
0.039690 0.166459 0.622000 10325374
0.039753 0.170287 0.623000 10394017
0.039881 0.174405 0.625000 9010577
0.040072 0.178830 0.628000 12629438
0.040391 0.183871 0.633000 13615316
0.040710 0.188970 0.638000 14009820
0.046000 0.067333 0.700000 7232667
0.046000 0.071333 0.700000 7110031
0.046000 0.075333 0.700000 7964019
0.045869 0.079107 0.698000 8288594
0.045803 0.082976 0.697000 9796650
0.045606 0.086585 0.694000 9130288
0.045277 0.089898 0.689000 10833956
0.044949 0.093154 0.684000 7034995
0.044883 0.096921 0.683000 7897764
0.044554 0.100086 0.678000 8355741
0.044423 0.103653 0.676000 8739921
0.044291 0.107198 0.674000 8943746
0.043831 0.109896 0.667000 6830156
0.043766 0.113537 0.666000 7936526
0.043569 0.116814 0.663000 8540001
0.043437 0.120239 0.661000 7565948
0.043371 0.123829 0.660000 4540504
0.043043 0.126633 0.655000 5129578
0.042846 0.129779 0.652000 6640737
0.042714 0.133095 0.650000 8354184
0.042517 0.136178 0.647000 10323852
0.042123 0.138578 0.641000 6510443
0.041991 0.141797 0.639000 6375780
0.041926 0.145221 0.638000 6314605
0.041729 0.148167 0.635000 7037051
0.041531 0.151078 0.632000 8546932
0.041269 0.153710 0.628000 9994111
0.041203 0.157049 0.627000 8741700
0.041071 0.160119 0.625000 7166299
0.040743 0.162381 0.620000 8015620
0.040677 0.165656 0.619000 11444867
0.040743 0.169467 0.620000 10062492
0.041006 0.174126 0.624000 8613273
0.041137 0.178261 0.626000 12496307
0.041531 0.183581 0.632000 13087181
0.041794 0.188377 0.636000 13484754
0.047198 0.067141 0.698000 4419226
0.047333 0.071333 0.700000 8093813
0.047198 0.075118 0.698000 9667161
0.047130 0.078993 0.697000 9335109
0.046928 0.082619 0.694000 11370023
0.046860 0.086460 0.693000 7294007
0.046454 0.089637 0.687000 9910318
0.046184 0.093018 0.683000 7371146
0.046116 0.096779 0.682000 8160415
0.045913 0.100233 0.679000 8487283
0.045440 0.103040 0.672000 8808537
0.045305 0.106562 0.670000 9208214
0.044967 0.109567 0.665000 4733248
0.044831 0.113026 0.663000 7085350
0.044696 0.116462 0.661000 8611686
0.044493 0.119693 0.658000 7566714
0.044426 0.123266 0.657000 5460321
0.044088 0.126053 0.652000 6449792
0.043817 0.128983 0.648000 6451069
0.043682 0.132276 0.646000 8355726
0.043547 0.135547 0.644000 9930130
0.043276 0.138362 0.640000 5325932
0.043141 0.141575 0.638000 5328223
0.042938 0.144538 0.635000 6642545
0.042803 0.147700 0.633000 7368061
0.042668 0.150839 0.631000 9727877
0.042397 0.153466 0.627000 11046023
0.042330 0.156798 0.626000 9133897
0.042127 0.159607 0.623000 7164495
0.041789 0.161857 0.618000 7687969
0.041721 0.165121 0.617000 12493205
0.041789 0.168920 0.618000 9797523
0.042127 0.173847 0.623000 8158622
0.042330 0.178261 0.626000 12367546
0.042803 0.183871 0.633000 12497093
0.043006 0.188377 0.636000 12960201
0.048528 0.067141 0.698000 5930394
0.048458 0.071028 0.697000 7898459
0.048319 0.074795 0.695000 8090176
0.048180 0.078540 0.693000 7363127
0.048041 0.082262 0.691000 10058533
0.047902 0.085961 0.689000 7556670
0.047554 0.089246 0.684000 7742009
0.047276 0.092610 0.680000 7502752
0.046929 0.095786 0.675000 8357275
0.046859 0.099495 0.674000 8542280
0.046650 0.102887 0.671000 9271393
0.046303 0.105926 0.666000 8487338
0.046233 0.109567 0.665000 4399412
0.046025 0.112855 0.662000 6567486
0.045886 0.116286 0.660000 9077867
0.045677 0.119511 0.657000 7893623
0.045538 0.122890 0.655000 5526634
0.045260 0.125860 0.651000 6846358
0.044912 0.128585 0.646000 7441562
0.044773 0.131867 0.644000 9539987
0.044565 0.134915 0.641000 8880792
0.044426 0.138146 0.639000 5197165
0.044217 0.141131 0.636000 5262171
0.044078 0.144310 0.634000 6512245
0.043939 0.147467 0.632000 8617342
0.043661 0.150122 0.628000 10060182
0.043522 0.153221 0.626000 11310478
0.043452 0.156548 0.625000 7552845
0.043105 0.158838 0.620000 7491138
0.042896 0.161595 0.617000 9005630
0.042827 0.164853 0.616000 12166568
0.042966 0.168920 0.618000 9797770
0.043313 0.173847 0.623000 9208995
0.043522 0.178261 0.626000 11969729
0.043870 0.183290 0.631000 12363964
0.044217 0.188377 0.636000 12826304
0.049786 0.067045 0.697000 7437451
0.049643 0.070824 0.695000 7767621
0.049571 0.074688 0.694000 6450759
0.049357 0.078313 0.691000 5400929
0.049286 0.082143 0.690000 8739626
0.049214 0.085961 0.689000 7812914
0.048786 0.089115 0.683000 5589861
0.048286 0.092065 0.676000 7635098
0.048214 0.095786 0.675000 8487831
0.048000 0.099200 0.672000 8665160
0.047786 0.102580 0.669000 9662304
0.047500 0.105767 0.665000 7833453
0.047286 0.109072 0.662000 4004921
0.047214 0.112685 0.661000 6049864
0.046929 0.115757 0.657000 9532265
0.046857 0.119330 0.656000 8222831
0.046571 0.122328 0.652000 5527668
0.046286 0.125280 0.648000 7240596
0.046071 0.128386 0.645000 8423061
0.045857 0.131457 0.642000 10721658
0.045786 0.134915 0.641000 7759225
0.045429 0.137497 0.636000 5133417
0.045357 0.140910 0.635000 5194591
0.045214 0.144083 0.633000 6382197
0.045071 0.147233 0.631000 9796736
0.044786 0.149883 0.627000 10456719
0.044714 0.153221 0.626000 11569272
0.044571 0.156297 0.624000 5964102
0.044214 0.158582 0.619000 7817528
0.044000 0.161333 0.616000 10385490
0.044000 0.164853 0.616000 11771819
0.044143 0.168920 0.618000 9797019
0.044500 0.173847 0.623000 10194863
0.044714 0.178261 0.626000 11576000
0.045071 0.183290 0.631000 12166848
0.045429 0.188377 0.636000 12762046
0.050967 0.066852 0.695000 6780284
0.050893 0.070722 0.694000 6645550
0.050820 0.074580 0.693000 6581838
0.050600 0.078200 0.690000 7106443
0.050527 0.082024 0.689000 9194800
0.050013 0.085088 0.682000 7092262
0.049793 0.088593 0.679000 6189713
0.049573 0.092065 0.676000 7370900
0.049427 0.095644 0.674000 8356499
0.049207 0.099052 0.671000 8605511
0.048913 0.102273 0.667000 7757920
0.048620 0.105449 0.663000 5975088
0.048473 0.108908 0.661000 3546686
0.048400 0.112514 0.660000 6116434
0.048107 0.115581 0.656000 9530983
0.047740 0.118420 0.651000 7760743
0.047520 0.121577 0.648000 5659006
0.047447 0.125087 0.647000 6910866
0.047227 0.128187 0.644000 9471120
0.047080 0.131457 0.642000 8741985
0.046933 0.134705 0.640000 6435417
0.046567 0.137281 0.635000 5264997
0.046493 0.140688 0.634000 4602724
0.046347 0.143855 0.632000 6579572
0.046127 0.146767 0.629000 9732994
0.045980 0.149883 0.627000 10192519
0.045760 0.152731 0.624000 11174498
0.045467 0.155295 0.620000 5971518
0.045320 0.158326 0.618000 9329454
0.045173 0.161333 0.616000 10453094
0.045173 0.164853 0.616000 10849966
0.045320 0.168920 0.618000 9733291
0.045687 0.173847 0.623000 11180987
0.045833 0.177976 0.625000 11707070
0.046053 0.182419 0.628000 12232645
0.046640 0.188377 0.636000 12628667
0.052215 0.066756 0.694000 6125170
0.052215 0.070722 0.694000 5526610
0.051990 0.074365 0.691000 6648654
0.051839 0.078087 0.689000 8813687
0.051388 0.081310 0.683000 9590837
0.051087 0.084713 0.679000 6376029
0.050861 0.088202 0.676000 6718119
0.050861 0.092065 0.676000 7105450
0.050485 0.095218 0.671000 8158111
0.050334 0.098757 0.669000 8472424
0.050109 0.102120 0.666000 5855316
0.049732 0.105130 0.661000 4201041
0.049657 0.108743 0.660000 3092298
0.049507 0.112173 0.658000 6247765
0.049055 0.114876 0.652000 9528684
0.048980 0.118420 0.651000 7299468
0.048754 0.121577 0.648000 5792902
0.048604 0.124893 0.646000 6511766
0.048303 0.127789 0.642000 10454411
0.048228 0.131252 0.641000 6753087
0.048002 0.134284 0.638000 5128765
0.047701 0.137065 0.634000 5397091
0.047626 0.140466 0.633000 3950437
0.047475 0.143628 0.631000 6841968
0.047174 0.146300 0.627000 9665670
0.047024 0.149405 0.625000 9994365
0.046873 0.152487 0.623000 10773602
0.046572 0.155045 0.619000 6040636
0.046422 0.158070 0.617000 10773283
0.046271 0.161071 0.615000 10519434
0.046271 0.164586 0.615000 9866663
0.046422 0.168647 0.617000 9668781
0.046873 0.173847 0.623000 12166839
0.047099 0.178261 0.626000 11902912
0.047174 0.182129 0.627000 12233412
0.047851 0.188377 0.636000 12561857
0.053537 0.066756 0.694000 8488040
0.053460 0.070620 0.693000 8486517
0.053229 0.074257 0.690000 10326862
0.053151 0.078087 0.689000 10983266
0.052611 0.081190 0.682000 8933947
0.052303 0.084589 0.678000 6708627
0.052149 0.088202 0.676000 7507390
0.052071 0.091929 0.675000 8818880
0.051763 0.095218 0.671000 9274795
0.051454 0.098462 0.667000 8740233
0.051146 0.101660 0.663000 6837833
0.050991 0.105130 0.661000 6574961
0.050683 0.108249 0.657000 3488085
0.050529 0.111662 0.655000 8154711
0.050220 0.114700 0.651000 9596786
0.050143 0.118238 0.650000 9669552
0.049911 0.121390 0.647000 7370894
0.049757 0.124700 0.645000 8681370
0.049449 0.127590 0.641000 10717575
0.049371 0.131048 0.640000 6296348
0.049063 0.133863 0.636000 6836768
0.048831 0.136849 0.633000 5067360
0.048754 0.140244 0.632000 4147815
0.048446 0.142945 0.628000 7819116
0.048291 0.146067 0.626000 9341067
0.048137 0.149166 0.624000 9465203
0.047829 0.151752 0.620000 9187682
0.047674 0.154794 0.618000 6764090
0.047443 0.157557 0.615000 10644505
0.047366 0.160810 0.614000 10521261
0.047366 0.164318 0.614000 9404576
0.047520 0.168373 0.616000 10260398
0.048060 0.173847 0.623000 12497331
0.048214 0.177976 0.625000 11903938
0.048369 0.182129 0.627000 12495812
0.049063 0.188377 0.636000 12232135
0.054780 0.066660 0.693000 10791831
0.054622 0.070416 0.691000 11512696
0.054464 0.074150 0.689000 13940803
0.054306 0.077860 0.687000 13088372
0.053910 0.081190 0.682000 8274519
0.053594 0.084589 0.678000 7116989
0.053436 0.088202 0.676000 8231371
0.053120 0.091520 0.672000 10533846
0.052962 0.095076 0.670000 10390964
0.052725 0.098462 0.667000 9077398
0.052330 0.101507 0.662000 7756122
0.052013 0.104653 0.658000 8877170
0.051934 0.108249 0.657000 3820396
0.051776 0.111662 0.655000 10062206
0.051460 0.114700 0.651000 9671061
0.051223 0.117874 0.648000 12110029
0.051065 0.121202 0.646000 8882608
0.050749 0.124120 0.642000 10862789
0.050670 0.127590 0.641000 10918058
0.050511 0.130843 0.639000 5838125
0.050274 0.133863 0.636000 8476982
0.049958 0.136632 0.632000 4802103
0.049721 0.139578 0.629000 4344694
0.049563 0.142717 0.627000 8861317
0.049405 0.145833 0.625000 9006966
0.049247 0.148927 0.623000 8942217
0.048930 0.151508 0.619000 7554683
0.048772 0.154544 0.617000 7484769
0.048535 0.157301 0.614000 10514259
0.048456 0.160548 0.613000 10597572
0.048535 0.164318 0.614000 8945307
0.048772 0.168647 0.617000 10918319
0.049247 0.173847 0.623000 12758463
0.049405 0.177976 0.625000 11969732
0.049563 0.182129 0.627000 12691909
0.050274 0.188377 0.636000 11905223
0.056100 0.066660 0.693000 10796487
0.055938 0.070416 0.691000 11449211
0.055776 0.074150 0.689000 13882169
0.055614 0.077860 0.687000 13677958
0.055048 0.080952 0.680000 7875955
0.054886 0.084589 0.678000 8235239
0.054643 0.088071 0.675000 9939673
0.054319 0.091384 0.671000 11450859
0.054238 0.095076 0.670000 10981821
0.053995 0.098462 0.667000 10196387
0.053510 0.101353 0.661000 6702700
0.053267 0.104653 0.658000 8349298
0.053105 0.108084 0.656000 5659522
0.052862 0.111321 0.653000 8947364
0.052619 0.114524 0.650000 9346232
0.052457 0.117874 0.648000 13159913
0.052295 0.121202 0.646000 11443667
0.051971 0.124120 0.642000 11781103
0.051810 0.127390 0.640000 10989006
0.051648 0.130638 0.638000 5584446
0.051324 0.133442 0.634000 9662797
0.051162 0.136632 0.632000 4795662
0.050919 0.139578 0.629000 7100293
0.050757 0.142717 0.627000 10250397
0.050514 0.145600 0.624000 8798818
0.050352 0.148688 0.622000 10190494
0.050110 0.151508 0.619000 9659540
0.049867 0.154293 0.616000 9330567
0.049705 0.157301 0.614000 11634573
0.049624 0.160548 0.613000 11514586
0.049705 0.164318 0.614000 9075863
0.049948 0.168647 0.617000 11048880
0.050433 0.173847 0.623000 12298955
0.050595 0.177976 0.625000 11970245
0.050838 0.182419 0.628000 12363974
0.051486 0.188377 0.636000 12233927
0.057420 0.066660 0.693000 10797003
0.057254 0.070416 0.691000 11452343
0.057089 0.074150 0.689000 13802847
0.056840 0.077747 0.686000 14263670
0.056343 0.080952 0.680000 7496309
0.056177 0.084589 0.678000 9423859
0.055846 0.087941 0.674000 11644646
0.055597 0.091384 0.671000 12368619
0.055514 0.095076 0.670000 11572923
0.055183 0.098314 0.666000 11386008
0.054769 0.101353 0.661000 5648492
0.054437 0.104494 0.657000 7755873
0.054354 0.108084 0.656000 7429747
0.054106 0.111321 0.653000 7893391
0.053857 0.114524 0.650000 8938396
0.053609 0.117692 0.647000 14209228
0.053443 0.121014 0.645000 13946848
0.053111 0.123927 0.641000 12761306
0.052946 0.127191 0.639000 10985175
0.052697 0.130229 0.636000 5322601
0.052449 0.133231 0.633000 10844794
0.052283 0.136416 0.631000 4857166
0.052117 0.139578 0.629000 9864356
0.051869 0.142490 0.626000 11641527
0.051703 0.145600 0.624000 8615824
0.051371 0.148210 0.620000 11440823
0.051206 0.151263 0.618000 11763117
0.051040 0.154293 0.616000 11239601
0.050791 0.157045 0.613000 12756627
0.050791 0.160548 0.613000 12437980
0.050791 0.164050 0.613000 9207711
0.051123 0.168647 0.617000 11179957
0.051620 0.173847 0.623000 11838913
0.051786 0.177976 0.625000 12036035
0.052034 0.182419 0.628000 12036289
0.052697 0.188377 0.636000 12560069
0.058740 0.066660 0.693000 11979472
0.058570 0.070416 0.691000 9810931
0.058401 0.074150 0.689000 10773893
0.058147 0.077747 0.686000 11896166
0.057638 0.080952 0.680000 9989751
0.057469 0.084589 0.678000 9092606
0.057130 0.087941 0.674000 10594291
0.056790 0.091248 0.670000 11713003
0.056790 0.095076 0.670000 11507130
0.056451 0.098314 0.666000 12033165
0.056112 0.101507 0.662000 5243244
0.055689 0.104494 0.657000 5388111
0.055604 0.108084 0.656000 6707555
0.055350 0.111321 0.653000 6968697
0.055095 0.114524 0.650000 7477888
0.054841 0.117692 0.647000 12758190
0.054671 0.121014 0.645000 14939117
0.054332 0.123927 0.641000 13087685
0.054078 0.126992 0.638000 12893409
0.053824 0.130024 0.635000 7496851
0.053654 0.133231 0.633000 11249831
0.053485 0.136416 0.631000 6636685
0.053146 0.139134 0.627000 9611460
0.053061 0.142490 0.626000 11184080
0.052807 0.145367 0.623000 9080255
0.052552 0.148210 0.620000 11967440
0.052383 0.151263 0.618000 11568583
0.052129 0.154043 0.615000 11771098
0.051959 0.157045 0.613000 13479577
0.051874 0.160286 0.612000 12894942
0.051959 0.164050 0.613000 9337767
0.052298 0.168647 0.617000 11181242
0.052807 0.173847 0.623000 11771064
0.052976 0.177976 0.625000 12036289
0.053230 0.182419 0.628000 12036541
0.054078 0.188970 0.638000 12627651
0.060060 0.066660 0.693000 13093831
0.059800 0.070314 0.690000 8172525
0.059540 0.073934 0.687000 7768195
0.059453 0.077747 0.686000 9524841
0.058933 0.080952 0.680000 12468814
0.058760 0.084589 0.678000 8833278
0.058413 0.087941 0.674000 9547511
0.058067 0.091248 0.670000 11058933
0.058067 0.095076 0.670000 11442629
0.057720 0.098314 0.666000 12688794
0.057287 0.101353 0.661000 4808093
0.057027 0.104653 0.658000 2959153
0.056853 0.108084 0.656000 5914701
0.056767 0.111662 0.655000 6045527
0.056333 0.114524 0.650000 5982608
0.056073 0.117692 0.647000 11376821
0.055900 0.121014 0.645000 15849703
0.055553 0.123927 0.641000 13425108
0.055293 0.126992 0.638000 14735340
0.055033 0.130024 0.635000 9739693
0.054860 0.133231 0.633000 11641531
0.054687 0.136416 0.631000 8478101
0.054340 0.139134 0.627000 9339834
0.054253 0.142490 0.626000 10788778
0.053993 0.145367 0.623000 9537981
0.053647 0.147970 0.619000 12428240
0.053473 0.151018 0.617000 11307720
0.053300 0.154043 0.615000 12295383
0.053127 0.157045 0.613000 14199443
0.052953 0.160024 0.611000 13420507
0.053127 0.164050 0.613000 9474485
0.053473 0.168647 0.617000 11118522
0.053907 0.173568 0.622000 11640763
0.054167 0.177976 0.625000 12102082
0.054513 0.182710 0.629000 11970755
0.055120 0.188377 0.636000 12694727
0.061380 0.066660 0.693000 13421759
0.061203 0.070416 0.691000 9086439
0.060849 0.073934 0.687000 10594177
0.060760 0.077747 0.686000 10576236
0.060229 0.080952 0.680000 9568549
0.060051 0.084589 0.678000 8894462
0.059697 0.087941 0.674000 9417722
0.059343 0.091248 0.670000 11125502
0.059343 0.095076 0.670000 10587344
0.059254 0.098757 0.669000 12097446
0.058546 0.101353 0.661000 9025231
0.058280 0.104653 0.658000 4269074
0.058103 0.108084 0.656000 5186871
0.058014 0.111662 0.655000 5712693
0.057571 0.114524 0.650000 6899105
0.057306 0.117692 0.647000 12032956
0.057129 0.121014 0.645000 15724000
0.056774 0.123927 0.641000 13421794
0.056509 0.126992 0.638000 15333623
0.056243 0.130024 0.635000 10198215
0.056066 0.133231 0.633000 11513551
0.055889 0.136416 0.631000 9073820
0.055534 0.139134 0.627000 8806065
0.055357 0.142262 0.625000 9928068
0.055180 0.145367 0.623000 9268156
0.054826 0.147970 0.619000 11638479
0.054649 0.151018 0.617000 12289482
0.054471 0.154043 0.615000 10981587
0.054206 0.156789 0.612000 13870477
0.054117 0.160024 0.611000 13353175
0.054206 0.163783 0.612000 10788035
0.054560 0.168373 0.616000 11380153
0.055091 0.173568 0.622000 11707583
0.055357 0.177976 0.625000 12036290
0.055711 0.182710 0.629000 11905481
0.056509 0.188970 0.638000 12496074
0.062700 0.066660 0.693000 13683367
0.062519 0.070416 0.691000 9936843
0.062157 0.073934 0.687000 13417597
0.062067 0.077747 0.686000 11647361
0.061705 0.081190 0.682000 6706269
0.061524 0.084838 0.680000 9031934
0.060981 0.087941 0.674000 9287676
0.060710 0.091384 0.671000 11192830
0.060619 0.095076 0.670000 9732291
0.060348 0.098462 0.667000 11504511
0.059986 0.101660 0.663000 13156307
0.059533 0.104653 0.658000 5570866
0.059443 0.108249 0.657000 4467015
0.059262 0.111662 0.655000 5443642
0.058900 0.114700 0.651000 7767482
0.058538 0.117692 0.647000 12700637
0.058357 0.121014 0.645000 15520741
0.058086 0.124120 0.642000 13423587
0.057724 0.126992 0.638000 15918324
0.057452 0.130024 0.635000 10653340
0.057271 0.133231 0.633000 11374240
0.056910 0.135984 0.629000 9727374
0.056729 0.139134 0.627000 8293835
0.056638 0.142490 0.626000 9077420
0.056367 0.145367 0.623000 8943798
0.056005 0.147970 0.619000 10919859
0.055824 0.151018 0.617000 13201844
0.055643 0.154043 0.615000 9676238
0.055462 0.157045 0.613000 13477026
0.055281 0.160024 0.611000 13286612
0.055462 0.164050 0.613000 12037067
0.055733 0.168373 0.616000 11644091
0.056095 0.173010 0.620000 11707328
0.056457 0.177691 0.624000 11970500
0.056910 0.182710 0.629000 11839685
0.057362 0.187785 0.634000 12296383
0.064020 0.066660 0.693000 13552015
0.063835 0.070416 0.691000 10923182
0.063466 0.073934 0.687000 14537593
0.063373 0.077747 0.686000 13484694
0.063004 0.081190 0.682000 9659541
0.062819 0.084838 0.680000 8962558
0.062265 0.087941 0.674000 9484542
0.061988 0.091384 0.671000 11125245
0.061895 0.095076 0.670000 9662646
0.061618 0.098462 0.667000 11834456
0.061433 0.101967 0.665000 12438231
0.060971 0.104971 0.660000 8860753
0.060694 0.108249 0.657000 7288663
0.060510 0.111662 0.655000 5915454
0.060140 0.114700 0.651000 8882643
0.059770 0.117692 0.647000 13951230
0.059586 0.121014 0.645000 15394539
0.059309 0.124120 0.642000 13817316
0.058939 0.126992 0.638000 15394800
0.058662 0.130024 0.635000 7685744
0.058570 0.133442 0.634000 6701168
0.058108 0.135984 0.629000 9596287
0.057923 0.139134 0.627000 10335974
0.057738 0.142262 0.625000 10064595
0.057553 0.145367 0.623000 9861296
0.057184 0.147970 0.619000 10510742
0.056999 0.151018 0.617000 11940766
0.056814 0.154043 0.615000 10462920
0.056630 0.157045 0.613000 13347512
0.056445 0.160024 0.611000 13220817
0.056630 0.164050 0.613000 12826068
0.056907 0.168373 0.616000 11707836
0.057276 0.173010 0.620000 11772610
0.057646 0.177691 0.624000 11970757
0.058292 0.183290 0.631000 11839170
0.058570 0.187785 0.634000 12426931
0.065340 0.066660 0.693000 13420438
0.065151 0.070416 0.691000 11838384
0.064680 0.073827 0.686000 15570501
0.064680 0.077747 0.686000 15247702
0.064303 0.081190 0.682000 12609378
0.064114 0.084838 0.680000 8963068
0.063643 0.088071 0.675000 9681150
0.063266 0.091384 0.671000 11060477
0.063171 0.095076 0.670000 9540820
0.062889 0.098462 0.667000 12100956
0.062700 0.101967 0.665000 11648722
0.062229 0.104971 0.660000 12131457
0.061946 0.108249 0.657000 10105931
0.061757 0.111662 0.655000 6443118
0.061286 0.114524 0.650000 9940186
0.060909 0.117510 0.646000 15129580
0.060814 0.121014 0.645000 15190761
0.060720 0.124507 0.644000 14214114
0.060154 0.126992 0.638000 14796004
0.059871 0.130024 0.635000 4729466
0.059871 0.133652 0.635000 2040391
0.059306 0.135984 0.629000 9391193
0.059023 0.138912 0.626000 12363987
0.058929 0.142262 0.625000 11049681
0.058740 0.145367 0.623000 10713016
0.058269 0.147731 0.618000 10113178
0.058174 0.151018 0.617000 10704029
0.057986 0.154043 0.615000 11247299
0.057797 0.157045 0.613000 13147306
0.057609 0.160024 0.611000 13155021
0.057797 0.164050 0.613000 13548496
0.058080 0.168373 0.616000 11771835
0.058457 0.173010 0.620000 11772864
0.058929 0.177976 0.625000 11971011
0.059494 0.183290 0.631000 11837890
0.059777 0.187785 0.634000 12621737
0.066756 0.066756 0.694000 12632478
0.066468 0.070416 0.691000 9141681
0.066083 0.073934 0.687000 7799057
0.065987 0.077747 0.686000 10110741
0.065794 0.081429 0.684000 12802864
0.065313 0.084713 0.679000 8630521
0.064929 0.088071 0.675000 9680638
0.064544 0.091384 0.671000 10993916
0.064448 0.095076 0.670000 10731763
0.064159 0.098462 0.667000 12225376
0.063774 0.101660 0.663000 11516365
0.063486 0.104971 0.660000 12277168
0.063197 0.108249 0.657000 10895168
0.063005 0.111662 0.655000 7695262
0.062620 0.114700 0.651000 10071777
0.062139 0.117510 0.646000 13090265
0.062043 0.121014 0.645000 14799336
0.061947 0.124507 0.644000 14144992
0.061370 0.126992 0.638000 13746392
0.061177 0.130229 0.636000 7231619
0.060985 0.133442 0.634000 1967135
0.060504 0.135984 0.629000 6826547
0.060311 0.139134 0.627000 11382209
0.060215 0.142490 0.626000 11443151
0.059927 0.145367 0.623000 11627201
0.059542 0.147970 0.619000 11166622
0.059350 0.151018 0.617000 11361181
0.059157 0.154043 0.615000 10326206
0.058965 0.157045 0.613000 12548509
0.058772 0.160024 0.611000 13154504
0.058965 0.164050 0.613000 13417421
0.059253 0.168373 0.616000 11772345
0.059638 0.173010 0.620000 11838143
0.060119 0.177976 0.625000 11971009
0.060696 0.183290 0.631000 11704258
0.061081 0.188081 0.635000 12820382
0.068078 0.066756 0.694000 11778707
0.067784 0.070416 0.691000 6399400
0.067391 0.073934 0.687000 78636
0.067391 0.077860 0.687000 4925810
0.066999 0.081310 0.683000 12929601
0.066607 0.084713 0.679000 8307194
0.066214 0.088071 0.675000 9615614
0.065822 0.091384 0.671000 10992888
0.065724 0.095076 0.670000 11845108
0.065430 0.098462 0.667000 12353645
0.065233 0.101967 0.665000 11385039
0.064743 0.104971 0.660000 12412601
0.064449 0.108249 0.657000 11612483
0.064252 0.111662 0.655000 8944513
0.063860 0.114700 0.651000 10138339
0.063468 0.117692 0.647000 10987987
0.063271 0.121014 0.645000 14404323
0.063173 0.124507 0.644000 14144214
0.062683 0.127191 0.639000 12629719
0.062389 0.130229 0.636000 9673082
0.062192 0.133442 0.634000 1913932
0.061898 0.136416 0.631000 4272476
0.061506 0.139134 0.627000 10324912
0.061408 0.142490 0.626000 11835846
0.061211 0.145600 0.624000 12553676
0.060721 0.147970 0.619000 12220851
0.060525 0.151018 0.617000 12026279
0.060329 0.154043 0.615000 9409431
0.060132 0.157045 0.613000 11965345
0.059936 0.160024 0.611000 13218494
0.060034 0.163783 0.612000 13220300
0.060427 0.168373 0.616000 11706558
0.061015 0.173568 0.622000 11904959
0.061310 0.177976 0.625000 12036033
0.061898 0.183290 0.631000 11576259
0.062192 0.187785 0.634000 13082035
0.069400 0.066756 0.694000 10923144
0.069100 0.070416 0.691000 9878174
0.068700 0.073934 0.687000 4953927
0.068700 0.077860 0.687000 7504334
0.068400 0.081429 0.684000 11683923
0.067900 0.084713 0.679000 8499962
0.067600 0.088202 0.676000 9353214
0.067100 0.091384 0.671000 11058675
0.067000 0.095076 0.670000 11781878
0.066700 0.098462 0.667000 11828346
0.066500 0.101967 0.665000 11448529
0.066000 0.104971 0.660000 12285122
0.065700 0.108249 0.657000 11611973
0.065500 0.111662 0.655000 10119011
0.065000 0.114524 0.650000 10004966
0.064700 0.117692 0.647000 10195661
0.064500 0.121014 0.645000 14801887
0.064400 0.124507 0.644000 13879756
0.063900 0.127191 0.639000 13024726
0.063600 0.130229 0.636000 10653041
0.063400 0.133442 0.634000 6579066
0.063200 0.136632 0.632000 5658245
0.062700 0.139134 0.627000 10060959
0.062600 0.142490 0.626000 10917052
0.062400 0.145600 0.624000 12629207
0.062000 0.148210 0.620000 13280967
0.061700 0.151018 0.617000 13874098
0.061600 0.154293 0.616000 11047280
0.061300 0.157045 0.613000 13607333
0.061100 0.160024 0.611000 13151667
0.061200 0.163783 0.612000 13220299
0.061500 0.168100 0.615000 11838403
0.062000 0.173010 0.620000 12233920
0.062600 0.178261 0.626000 12101569
0.063100 0.183290 0.631000 12298436
0.063500 0.188081 0.635000 13020359
0.070722 0.066756 0.694000 10006666
0.070416 0.070416 0.691000 13293180
0.070009 0.073934 0.687000 9808735
0.070009 0.077860 0.687000 10140107
0.069499 0.081190 0.682000 10433644
0.069295 0.084838 0.680000 8637692
0.068888 0.088202 0.676000 9091068
0.068378 0.091384 0.671000 11124466
0.068276 0.095076 0.670000 11715063
0.067970 0.098462 0.667000 11368070
0.067767 0.101967 0.665000 11513536
0.067257 0.104971 0.660000 12221647
0.066951 0.108249 0.657000 11609410
0.066748 0.111662 0.655000 11291989
0.066340 0.114700 0.651000 9875162
0.065932 0.117692 0.647000 9411552
0.065729 0.121014 0.645000 15195370
0.065627 0.124507 0.644000 13617120
0.065117 0.127191 0.639000 13351636
0.064811 0.130229 0.636000 11568728
0.064608 0.133442 0.634000 11237501
0.064404 0.136632 0.632000 7114150
0.063894 0.139134 0.627000 9724041
0.063792 0.142490 0.626000 9997485
0.063589 0.145600 0.624000 12691412
0.063181 0.148210 0.620000 14400207
0.062977 0.151263 0.618000 15649969
0.062773 0.154293 0.616000 12748421
0.062570 0.157301 0.614000 15187623
0.062264 0.160024 0.611000 13150132
0.062366 0.163783 0.612000 13220299
0.062671 0.168100 0.615000 11968701
0.063385 0.173568 0.622000 12496065
0.063792 0.178261 0.626000 12166844
0.064098 0.182710 0.629000 12953798
0.064710 0.188081 0.635000 13021382
0.071940 0.066660 0.693000 9875083
0.071732 0.070416 0.691000 13751897
0.071525 0.074150 0.689000 9741174
0.071317 0.077860 0.687000 10200520
0.070798 0.081190 0.682000 8919686
0.070590 0.084838 0.680000 8961790
0.070175 0.088202 0.676000 10073851
0.069760 0.091520 0.672000 12175601
0.069552 0.095076 0.670000 11780601
0.069241 0.098462 0.667000 11900306
0.069033 0.101967 0.665000 11116719
0.068514 0.104971 0.660000 12352987
0.068203 0.108249 0.657000 11875136
0.067995 0.111662 0.655000 11818054
0.067580 0.114700 0.651000 10069199
0.067165 0.117692 0.647000 10795250
0.066957 0.121014 0.645000 14472694
0.066853 0.124507 0.644000 14277108
0.066334 0.127191 0.639000 11977170
0.066023 0.130229 0.636000 11896126
0.065815 0.133442 0.634000 11302784
0.065608 0.136632 0.632000 7044294
0.065192 0.139356 0.628000 9854836
0.064985 0.142490 0.626000 9995166
0.064777 0.145600 0.624000 11245520
0.064362 0.148210 0.620000 14139606
0.064154 0.151263 0.618000 16111024
0.063947 0.154293 0.616000 13280409
0.063739 0.157301 0.614000 15452841
0.063531 0.160286 0.612000 13085621
0.063531 0.163783 0.612000 13089226
0.063843 0.168100 0.615000 11442614
0.064570 0.173568 0.622000 12233922
0.064985 0.178261 0.626000 11903158
0.065296 0.182710 0.629000 13084873
0.065919 0.188081 0.635000 13021381
0.073260 0.066660 0.693000 9745076
0.073049 0.070416 0.691000 14146968
0.072837 0.074150 0.689000 9613167
0.072626 0.077860 0.687000 10267044
0.072309 0.081429 0.684000 7361665
0.071886 0.084838 0.680000 9228286
0.071463 0.088202 0.676000 10994684
0.071040 0.091520 0.672000 13223142
0.070829 0.095076 0.670000 11779576
0.070511 0.098462 0.667000 12491918
0.070089 0.101660 0.663000 10725034
0.069771 0.104971 0.660000 12491490
0.069454 0.108249 0.657000 12134717
0.069243 0.111662 0.655000 12271162
0.068820 0.114700 0.651000 10268625
0.068397 0.117692 0.647000 12173539
0.068291 0.121202 0.646000 13751538
0.068080 0.124507 0.644000 14940921
0.067657 0.127390 0.640000 10524616
0.067234 0.130229 0.636000 12165730
0.067023 0.133442 0.634000 11306129
0.066811 0.136632 0.632000 7048890
0.066389 0.139356 0.628000 9995644
0.066283 0.142717 0.627000 10059936
0.066071 0.145833 0.625000 9735873
0.065754 0.148688 0.622000 13876136
0.065331 0.151263 0.618000 16503213
0.065120 0.154293 0.616000 13805496
0.064803 0.157045 0.613000 15646631
0.064697 0.160286 0.612000 13019568
0.064697 0.163783 0.612000 12890570
0.064909 0.167827 0.614000 10983086
0.065543 0.173010 0.620000 11905728
0.066177 0.178261 0.626000 11705276
0.066494 0.182710 0.629000 13215944
0.067129 0.188081 0.635000 13021638
0.074580 0.066660 0.693000 9220829
0.074365 0.070416 0.691000 12569815
0.074257 0.074257 0.690000 11383143
0.073934 0.077860 0.687000 12825471
0.073611 0.081429 0.684000 9523068
0.073181 0.084838 0.680000 8961790
0.072966 0.088463 0.678000 12179197
0.072320 0.091520 0.672000 11580122
0.072212 0.095218 0.671000 10989560
0.071782 0.098462 0.667000 12358026
0.071351 0.101660 0.663000 10983589
0.071029 0.104971 0.660000 12161257
0.070706 0.108249 0.657000 11876410
0.070490 0.111662 0.655000 11484205
0.070060 0.114700 0.651000 10597074
0.069630 0.117692 0.647000 11119828
0.069522 0.121202 0.646000 13880046
0.069307 0.124507 0.644000 15267070
0.068876 0.127390 0.640000 10191038
0.068446 0.130229 0.636000 13018502
0.068230 0.133442 0.634000 11500194
0.068015 0.136632 0.632000 8230829
0.067585 0.139356 0.628000 10067844
0.067477 0.142717 0.627000 10128290
0.067262 0.145833 0.625000 10455218
0.066939 0.148688 0.622000 13217657
0.066616 0.151508 0.619000 15322538
0.066401 0.154544 0.617000 12031959
0.065970 0.157045 0.613000 15515045
0.065863 0.160286 0.612000 13086122
0.065863 0.163783 0.612000 13087690
0.066078 0.167827 0.614000 11179941
0.066616 0.172730 0.619000 11904189
0.067262 0.177976 0.625000 12035521
0.067585 0.182419 0.628000 13215944
0.068338 0.188081 0.635000 12692679
0.076338 0.067045 0.697000 8695226
0.075681 0.070416 0.691000 10927002
0.075462 0.074150 0.689000 13088861
0.075243 0.077860 0.687000 15452019
0.074914 0.081429 0.684000 11621729
0.074476 0.084838 0.680000 8766974
0.074257 0.088463 0.678000 13286652
0.073819 0.091792 0.674000 10005991
0.073490 0.095218 0.671000 10207483
0.073271 0.098757 0.669000 12288686
0.072833 0.101967 0.665000 11248038
0.072395 0.105130 0.661000 11907303
0.072067 0.108413 0.658000 11610936
0.071848 0.111832 0.656000 10618924
0.071300 0.114700 0.651000 10920628
0.070971 0.117874 0.648000 10131670
0.070752 0.121202 0.646000 13946858
0.070314 0.124120 0.642000 15662331
0.070095 0.127390 0.640000 9794486
0.069657 0.130229 0.636000 13870465
0.069438 0.133442 0.634000 11631775
0.069219 0.136632 0.632000 9410974
0.068781 0.139356 0.628000 10066316
0.068671 0.142717 0.627000 10259879
0.068452 0.145833 0.625000 11180217
0.068124 0.148688 0.622000 12559966
0.067795 0.151508 0.619000 14126724
0.067576 0.154544 0.617000 10327008
0.067138 0.157045 0.613000 15314083
0.067029 0.160286 0.612000 13215919
0.067029 0.163783 0.612000 13285579
0.067248 0.167827 0.614000 11376301
0.067686 0.172451 0.618000 11837886
0.068452 0.177976 0.625000 12430531
0.068781 0.182419 0.628000 13150920
0.069548 0.188081 0.635000 12366025
0.077331 0.066756 0.694000 10465176
0.076997 0.070416 0.691000 12037980
0.076774 0.074150 0.689000 14404690
0.076551 0.077860 0.687000 14397542
0.076106 0.081310 0.683000 9588805
0.075771 0.084838 0.680000 8827902
0.075549 0.088463 0.678000 10985980
0.075103 0.091792 0.674000 10073332
0.074769 0.095218 0.671000 10734078
0.074323 0.098462 0.667000 12100049
0.074100 0.101967 0.665000 11178407
0.073654 0.105130 0.661000 11832804
0.073209 0.108249 0.657000 11483703
0.073097 0.111832 0.656000 10562347
0.072540 0.114700 0.651000 10914710
0.072206 0.117874 0.648000 9542615
0.071983 0.121202 0.646000 14144999
0.071537 0.124120 0.642000 14474999
0.071314 0.127390 0.640000 7871662
0.071091 0.130638 0.638000 11299195
0.070646 0.133442 0.634000 11560348
0.070423 0.136632 0.632000 9010318
0.069977 0.139356 0.628000 9734548
0.069866 0.142717 0.627000 10062764
0.069643 0.145833 0.625000 10262208
0.069309 0.148688 0.622000 10901570
0.068974 0.151508 0.619000 11484510
0.068751 0.154544 0.617000 10262504
0.068306 0.157045 0.613000 14854561
0.068194 0.160286 0.612000 13284020
0.068194 0.163783 0.612000 13286348
0.068417 0.167827 0.614000 11376821
0.068863 0.172451 0.618000 11706303
0.069643 0.177976 0.625000 12496324
0.069977 0.182419 0.628000 13150408
0.070757 0.188081 0.635000 12561867
0.078767 0.066852 0.695000 12236172
0.078313 0.070416 0.691000 13218647
0.078087 0.074150 0.689000 15648338
0.077860 0.077860 0.687000 13415261
0.077293 0.081190 0.682000 7489125
0.077067 0.084838 0.680000 8901118
0.076840 0.088463 0.678000 8695293
0.076387 0.091792 0.674000 10139641
0.076047 0.095218 0.671000 11191806
0.075820 0.098757 0.669000 11907026
0.075367 0.101967 0.665000 11115160
0.074913 0.105130 0.661000 11836372
0.074573 0.108413 0.658000 11348792
0.074347 0.111832 0.656000 10561854
0.073893 0.114876 0.652000 10901363
0.073667 0.118238 0.650000 8953044
0.073327 0.121390 0.647000 14272231
0.072760 0.124120 0.642000 13360362
0.072533 0.127390 0.640000 5922495
0.072307 0.130638 0.638000 8681395
0.071853 0.133442 0.634000 11443395
0.071513 0.136416 0.631000 8540822
0.071173 0.139356 0.628000 9341596
0.071060 0.142717 0.627000 9865630
0.070833 0.145833 0.625000 9330578
0.070493 0.148688 0.622000 9240907
0.070153 0.151508 0.619000 8797013
0.069927 0.154544 0.617000 10266072
0.069587 0.157301 0.614000 14326171
0.069360 0.160286 0.612000 13349807
0.069360 0.163783 0.612000 13220041
0.069587 0.167827 0.614000 11375033
0.070040 0.172451 0.618000 11510213
0.070720 0.177691 0.624000 12629190
0.071173 0.182419 0.628000 13086670
0.071967 0.188081 0.635000 12757195
0.080321 0.067045 0.697000 12501377
0.079630 0.070416 0.691000 13350482
0.079399 0.074150 0.689000 15251794
0.079169 0.077860 0.687000 14069588
0.078592 0.081190 0.682000 9002373
0.078362 0.084838 0.680000 8896510
0.078131 0.088463 0.678000 8959742
0.077670 0.091792 0.674000 9943294
0.077325 0.095218 0.671000 11191293
0.077094 0.098757 0.669000 12038098
0.076633 0.101967 0.665000 11376009
0.076172 0.105130 0.661000 11369924
0.075827 0.108413 0.658000 11088185
0.075596 0.111832 0.656000 11415632
0.075135 0.114876 0.652000 10813776
0.074905 0.118238 0.650000 8755409
0.074559 0.121390 0.647000 13351656
0.073983 0.124120 0.642000 12237788
0.073752 0.127390 0.640000 10068175
0.073522 0.130638 0.638000 11185643
0.073061 0.133442 0.634000 13298666
0.072715 0.136416 0.631000 8810653
0.072254 0.139134 0.627000 8747940
0.072139 0.142490 0.626000 10189968
0.071909 0.145600 0.624000 7086693
0.071448 0.148210 0.620000 9381715
0.071217 0.151263 0.618000 9241421
0.070987 0.154293 0.616000 10458056
0.070641 0.157045 0.613000 12742294
0.070410 0.160024 0.611000 12955049
0.070410 0.163515 0.611000 13221319
0.070641 0.167553 0.613000 11772093
0.071102 0.172172 0.617000 12230603
0.071793 0.177407 0.623000 12956359
0.072485 0.182710 0.629000 13416405
0.073176 0.188081 0.635000 12956874
0.081766 0.067141 0.698000 12690543
0.081180 0.070620 0.693000 13478455
0.080829 0.074257 0.690000 14853977
0.080477 0.077860 0.687000 14795110
0.079891 0.081190 0.682000 10441848
0.079657 0.084838 0.680000 8962806
0.079423 0.088463 0.678000 9156862
0.079071 0.091929 0.675000 9746430
0.078603 0.095218 0.671000 11191294
0.078369 0.098757 0.669000 12170196
0.077900 0.101967 0.665000 11637897
0.077431 0.105130 0.661000 10919131
0.077080 0.108413 0.658000 10756921
0.076729 0.111662 0.655000 12334410
0.076260 0.114700 0.651000 10697834
0.075909 0.117874 0.648000 8559042
0.075557 0.121014 0.645000 12365284
0.075206 0.124120 0.642000 11185110
0.074971 0.127390 0.640000 14140126
0.074737 0.130638 0.638000 13685479
0.074269 0.133442 0.634000 15050676
0.073683 0.135984 0.629000 9011622
0.073449 0.139134 0.627000 8099528
0.073331 0.142490 0.626000 10586567
0.073097 0.145600 0.624000 4868475
0.072629 0.148210 0.620000 9518931
0.072394 0.151263 0.618000 9649238
0.072160 0.154293 0.616000 10654901
0.071809 0.157045 0.613000 11175063
0.071691 0.160286 0.612000 12629167
0.071574 0.163515 0.611000 13218755
0.071809 0.167553 0.613000 12102074
0.072277 0.172172 0.617000 12956623
0.072980 0.177407 0.623000 13349579
0.073449 0.182129 0.627000 13744339
0.074269 0.187785 0.634000 13153741
0.082976 0.067045 0.697000 10587229
0.082500 0.070620 0.693000 12427548
0.082143 0.074257 0.690000 12279136
0.081667 0.077747 0.686000 12621432
0.081190 0.081190 0.682000 9712235
0.080833 0.084713 0.679000 8564462
0.080476 0.088202 0.676000 9287934
0.080238 0.091792 0.674000 9943550
0.079762 0.095076 0.670000 11125246
0.079405 0.098462 0.667000 11970517
0.078929 0.101660 0.663000 11177098
0.078690 0.105130 0.661000 10722545
0.078333 0.108413 0.658000 10099257
0.077976 0.111662 0.655000 11938115
0.077500 0.114700 0.651000 11165828
0.077143 0.117874 0.648000 8491443
0.076786 0.121014 0.645000 11638496
0.076429 0.124120 0.642000 11316431
0.076190 0.127390 0.640000 14144749
0.075952 0.130638 0.638000 12697058
0.075476 0.133442 0.634000 11099518
0.074881 0.135984 0.629000 8221102
0.074762 0.139356 0.628000 10468588
0.074524 0.142490 0.626000 11121662
0.074405 0.145833 0.625000 5393810
0.073810 0.148210 0.620000 9714770
0.073571 0.151263 0.618000 9851488
0.073333 0.154293 0.616000 11636641
0.072976 0.157045 0.613000 12748441
0.072857 0.160286 0.612000 12758965
0.072738 0.163515 0.611000 13155008
0.072976 0.167553 0.613000 12167095
0.073452 0.172172 0.617000 13422803
0.074167 0.177407 0.623000 13414094
0.074643 0.182129 0.627000 13744850
0.075476 0.187785 0.634000 13088719
0.084062 0.066852 0.695000 8492920
0.083820 0.070620 0.693000 11317342
0.083457 0.074257 0.690000 9727589
0.082973 0.077747 0.686000 10383993
0.082490 0.081190 0.682000 8989585
0.082127 0.084713 0.679000 8176117
0.082006 0.088463 0.678000 9353470
0.081522 0.091792 0.674000 10075134
0.080917 0.094934 0.669000 10994173
0.080675 0.098462 0.667000 11830714
0.080433 0.101967 0.665000 10719351
0.079950 0.105130 0.661000 10534637
0.079587 0.108413 0.658000 9375097
0.079224 0.111662 0.655000 11550351
0.078740 0.114700 0.651000 11636921
0.078377 0.117874 0.648000 8488344
0.078014 0.121014 0.645000 10924259
0.077651 0.124120 0.642000 11380698
0.077410 0.127390 0.640000 14145774
0.077168 0.130638 0.638000 11718128
0.076805 0.133652 0.635000 7160962
0.076321 0.136416 0.631000 7369090
0.075958 0.139356 0.628000 12759786
0.075716 0.142490 0.626000 11579109
0.075595 0.145833 0.625000 5853318
0.074990 0.148210 0.620000 9911628
0.074749 0.151263 0.618000 10047568
0.074507 0.154293 0.616000 12556710
0.074144 0.157045 0.613000 14262687
0.074023 0.160286 0.612000 12892854
0.073902 0.163515 0.611000 13021119
0.074023 0.167280 0.612000 12233926
0.074507 0.171893 0.616000 13876691
0.075474 0.177691 0.624000 13479125
0.075958 0.182419 0.628000 13678037
0.076684 0.187785 0.634000 13022673
0.085386 0.066852 0.695000 9808019
0.085140 0.070620 0.693000 12631199
0.084771 0.074257 0.690000 11438954
0.084280 0.077747 0.686000 11244154
0.083789 0.081190 0.682000 8471991
0.083420 0.084713 0.679000 8631803
0.083051 0.088202 0.676000 9222141
0.082806 0.091792 0.674000 10075133
0.082314 0.095076 0.670000 10993916
0.081946 0.098462 0.667000 11767199
0.081700 0.101967 0.665000 11570532
0.081209 0.105130 0.661000 11316712
0.080840 0.108413 0.658000 9372089
0.080471 0.111662 0.655000 12293338
0.080103 0.114876 0.652000 11780589
0.079857 0.118238 0.650000 7898236
0.079243 0.121014 0.645000 11712487
0.078874 0.124120 0.642000 11974629
0.078629 0.127390 0.640000 14477295
0.078383 0.130638 0.638000 12240638
0.078014 0.133652 0.635000 8672390
0.077523 0.136416 0.631000 7167061
0.077154 0.139356 0.628000 11970793
0.077031 0.142717 0.627000 10784972
0.076786 0.145833 0.625000 7554938
0.076171 0.148210 0.620000 9647429
0.075926 0.151263 0.618000 9907776
0.075680 0.154293 0.616000 10911402
0.075311 0.157045 0.613000 14262950
0.075189 0.160286 0.612000 13088183
0.075066 0.163515 0.611000 12956094
0.075189 0.167280 0.612000 12629972
0.075803 0.172172 0.617000 13017811
0.076663 0.177691 0.624000 13745627
0.077031 0.182129 0.627000 12692952
0.077769 0.187489 0.633000 12561618
0.086710 0.066852 0.695000 11119529
0.086460 0.070620 0.693000 14004903
0.086086 0.074257 0.690000 13156760
0.085711 0.077860 0.687000 12115127
0.085088 0.081190 0.682000 7972058
0.084713 0.084713 0.679000 9159930
0.084339 0.088202 0.676000 9091834
0.084090 0.091792 0.674000 10074619
0.083590 0.095076 0.670000 10994167
0.083216 0.098462 0.667000 11703754
0.082967 0.101967 0.665000 12361893
0.082468 0.105130 0.661000 12172253
0.082093 0.108413 0.658000 9408474
0.081844 0.111832 0.656000 13099241
0.081345 0.114876 0.652000 11846130
0.081095 0.118238 0.650000 7379355
0.080471 0.121014 0.645000 12497890
0.080097 0.124120 0.642000 12630245
0.079848 0.127390 0.640000 14801129
0.079723 0.130843 0.639000 12766198
0.079349 0.133863 0.636000 10122666
0.078725 0.136416 0.631000 6892395
0.078350 0.139356 0.628000 11183832
0.078101 0.142490 0.626000 9990835
0.077976 0.145833 0.625000 9192583
0.077352 0.148210 0.620000 9318237
0.077103 0.151263 0.618000 9775940
0.076853 0.154293 0.616000 9272497
0.076479 0.157045 0.613000 14197409
0.076354 0.160286 0.612000 13222332
0.076230 0.163515 0.611000 12822975
0.076354 0.167280 0.612000 13090259
0.076978 0.172172 0.617000 12170964
0.077727 0.177407 0.623000 14009825
0.078226 0.182129 0.627000 11645913
0.078974 0.187489 0.633000 12167888
0.079598 0.192615 0.638000 11906242
0.088033 0.066852 0.695000 12365248
0.087780 0.070620 0.693000 13608110
0.087400 0.074257 0.690000 13621703
