# .PCD v.7 - Point Cloud Data file format
VERSION .7
FIELDS x y z rgb
SIZE 4 4 4 4
TYPE F F F I
COUNT 1 1 1 1
WIDTH 1320
HEIGHT 1
POINTS 1320
DATA ascii
0.134683 -0.200843 0.827000 14972796
0.134031 -0.195169 0.823000 12537717
0.132729 -0.188614 0.815000 10838116
0.131914 -0.182829 0.810000 8865310
0.131589 -0.177760 0.808000 10502691
0.131589 -0.173143 0.808000 8139823
0.131589 -0.168526 0.808000 12022833
0.131589 -0.163909 0.808000 6177375
0.131589 -0.159291 0.808000 11630854
0.131914 -0.155057 0.810000 9798687
0.131914 -0.150429 0.810000 8421008
0.132566 -0.146520 0.814000 7752796
0.133380 -0.142740 0.819000 4864843
0.136258 -0.200843 0.827000 11930753
0.135599 -0.195169 0.823000 11092296
0.134116 -0.188383 0.814000 9581156
0.133457 -0.182829 0.810000 7349786
0.133128 -0.177760 0.808000 9514772
0.133128 -0.173143 0.808000 9586718
0.133128 -0.168526 0.808000 9724482
0.133128 -0.163909 0.808000 6965591
0.133128 -0.159291 0.808000 11828743
0.133128 -0.154674 0.808000 9139472
0.133457 -0.150429 0.810000 8552346
0.134116 -0.146520 0.814000 7821418
0.134940 -0.142740 0.819000 7571300
0.137833 -0.200843 0.827000 8930203
0.137167 -0.195169 0.823000 9655701
0.135667 -0.188383 0.814000 8281515
0.134667 -0.182377 0.808000 5907542
0.134333 -0.177320 0.806000 8462387
0.134333 -0.172714 0.806000 11028762
0.134667 -0.168526 0.808000 7423024
0.134667 -0.163909 0.808000 7753804
0.134667 -0.159291 0.808000 12021777
0.134667 -0.154674 0.808000 8480571
0.135000 -0.150429 0.810000 8683164
0.135333 -0.146160 0.812000 7881575
0.136500 -0.142740 0.819000 10246728
0.139409 -0.200843 0.827000 8018357
0.138734 -0.195169 0.823000 9536738
0.136880 -0.187920 0.812000 9221363
0.136206 -0.182377 0.808000 6380433
0.135869 -0.177320 0.806000 4915538
0.135869 -0.172714 0.806000 9054997
0.136206 -0.168526 0.808000 6422814
0.136206 -0.163909 0.808000 8604736
0.136206 -0.159291 0.808000 11230234
0.136206 -0.154674 0.808000 7824998
0.136206 -0.150057 0.808000 8486559
0.136543 -0.145800 0.810000 7225700
0.137723 -0.142391 0.817000 7743275
0.140302 -0.195169 0.823000 9484784
0.138768 -0.188383 0.814000 10074357
0.137404 -0.181926 0.806000 6847138
0.137404 -0.177320 0.806000 1328763
0.137404 -0.172714 0.806000 7088474
0.137404 -0.168109 0.806000 5380182
0.137745 -0.163909 0.808000 9457485
0.137745 -0.159291 0.808000 10435347
0.137745 -0.154674 0.808000 7234176
0.137745 -0.150057 0.808000 8224665
0.138086 -0.145800 0.810000 6640505
0.138938 -0.142043 0.815000 5184559
0.141525 -0.194694 0.821000 9485054
0.139973 -0.187920 0.812000 9812216
0.139284 -0.182377 0.808000 7046067
0.138939 -0.177320 0.806000 4554405
0.138939 -0.172714 0.806000 7366559
0.138939 -0.168109 0.806000 5057934
0.138939 -0.163503 0.806000 6966105
0.138939 -0.158897 0.806000 10362123
0.139284 -0.154674 0.808000 7040410
0.139284 -0.150057 0.808000 8224403
0.139629 -0.145800 0.810000 8219278
0.140490 -0.142043 0.815000 4789810
0.143089 -0.194694 0.821000 9484030
0.141520 -0.187920 0.812000 9548021
0.140474 -0.181926 0.806000 7307697
0.140474 -0.177320 0.806000 7765925
0.140474 -0.172714 0.806000 7701409
0.140474 -0.168109 0.806000 4679833
0.140474 -0.163503 0.806000 4412549
0.140474 -0.158897 0.806000 10233670
0.140474 -0.154291 0.806000 6913180
0.140823 -0.150057 0.808000 8158868
0.141171 -0.145800 0.810000 9862788
0.142043 -0.142043 0.815000 4340059
0.144652 -0.194694 0.821000 9942782
0.143067 -0.187920 0.812000 10467059
0.142010 -0.181926 0.806000 7701935
0.142010 -0.177320 0.806000 7896997
0.142010 -0.172714 0.806000 7832739
0.142010 -0.168109 0.806000 6456741
0.142010 -0.163503 0.806000 5663409
0.142010 -0.158897 0.806000 8408194
0.142010 -0.154291 0.806000 7307421
0.142362 -0.150057 0.808000 8421269
0.142714 -0.145800 0.810000 9730937
0.143419 -0.141869 0.814000 7168388
0.146216 -0.194694 0.821000 10468860
0.144613 -0.187920 0.812000 11319543
0.143545 -0.181926 0.806000 8094374
0.143545 -0.177320 0.806000 7963558
0.143545 -0.172714 0.806000 7964068
0.143545 -0.168109 0.806000 8160420
0.143545 -0.163503 0.806000 6914991
0.143545 -0.158897 0.806000 6517655
0.143545 -0.154291 0.806000 7766944
0.143901 -0.150057 0.808000 8683413
0.144257 -0.145800 0.810000 9664121
0.144970 -0.141869 0.814000 9924982
0.147780 -0.194694 0.821000 11190266
0.146160 -0.187920 0.812000 11582972
0.145440 -0.182377 0.808000 8355485
0.145080 -0.177320 0.806000 8292776
0.145080 -0.172714 0.806000 8226725
0.144720 -0.167691 0.804000 8291235
0.144720 -0.163097 0.804000 7702701
0.145080 -0.158897 0.806000 7704493
0.145080 -0.154291 0.806000 8095651
0.145440 -0.150057 0.808000 8880788
0.145800 -0.145800 0.810000 9795704
0.146520 -0.141869 0.814000 9730153
0.149344 -0.194694 0.821000 11910134
0.148070 -0.188383 0.814000 11781117
0.146615 -0.181926 0.806000 8612270
0.146251 -0.176880 0.804000 8554660
0.146251 -0.172286 0.804000 8489636
0.146251 -0.167691 0.804000 8357540
0.146251 -0.163097 0.804000 8424364
0.146251 -0.158503 0.804000 8815242
0.146615 -0.154291 0.806000 8357762
0.146615 -0.149686 0.806000 9011847
0.147343 -0.145800 0.810000 9926777
0.148070 -0.141869 0.814000 9532775
0.150908 -0.194694 0.821000 11844081
0.149621 -0.188383 0.814000 11979262
0.148150 -0.181926 0.806000 8883390
0.147783 -0.176880 0.804000 8618656
0.147783 -0.172286 0.804000 8554659
0.147415 -0.167274 0.802000 8489125
0.147415 -0.162691 0.802000 8422058
0.147783 -0.158503 0.804000 8546151
0.148150 -0.154291 0.806000 8345441
0.148150 -0.149686 0.806000 9143162
0.148518 -0.145440 0.808000 9861497
0.149621 -0.141869 0.814000 9532773
0.152471 -0.194694 0.821000 11776244
0.150800 -0.187920 0.812000 12170988
0.149686 -0.181926 0.806000 9206689
0.148943 -0.176440 0.802000 8675436
0.149314 -0.172286 0.804000 8617345
0.148943 -0.167274 0.802000 8610673
0.148943 -0.162691 0.802000 8420203
0.149314 -0.158503 0.804000 8280407
0.149686 -0.154291 0.806000 8335452
0.149686 -0.149686 0.806000 9207159
0.150057 -0.145440 0.808000 9795703
0.150800 -0.141520 0.812000 9532515
0.154786 -0.200357 0.825000 10599155
0.154035 -0.194694 0.821000 11648759
0.152347 -0.187920 0.812000 11699930
0.151221 -0.181926 0.806000 8932483
0.150470 -0.176440 0.802000 8659257
0.150470 -0.171857 0.802000 8405342
0.150095 -0.166857 0.800000 8331325
0.150470 -0.162691 0.802000 8607020
0.150846 -0.158503 0.804000 8673352
0.151221 -0.154291 0.806000 8934998
0.151221 -0.149686 0.806000 9405556
0.151596 -0.145440 0.808000 9598324
0.152347 -0.141520 0.812000 9466464
0.155978 -0.199871 0.823000 11124464
0.155599 -0.194694 0.821000 11518965
0.153893 -0.187920 0.812000 11170745
0.152756 -0.181926 0.806000 8721779
0.151998 -0.176440 0.802000 8667713
0.151998 -0.171857 0.802000 8216149
0.151619 -0.166857 0.800000 8014654
0.151619 -0.162286 0.800000 8806468
0.151998 -0.158109 0.802000 9004117
0.152377 -0.153909 0.804000 9464164
0.152756 -0.149686 0.806000 9601650
0.153135 -0.145440 0.808000 9403255
0.153893 -0.141520 0.812000 9330248
0.157546 -0.199871 0.823000 11387118
0.156780 -0.194220 0.819000 11644659
0.155440 -0.187920 0.812000 11628440
0.154291 -0.181926 0.806000 9656675
0.153143 -0.176000 0.800000 9660745
0.153143 -0.171429 0.800000 9137740
0.153143 -0.166857 0.800000 9072448
0.153143 -0.162286 0.800000 9005660
0.153526 -0.158109 0.802000 9334370
0.153909 -0.153909 0.804000 8873585
0.153909 -0.149314 0.804000 9470832
0.154291 -0.145080 0.806000 9400954
0.155057 -0.141171 0.810000 8472880
0.159113 -0.199871 0.823000 11647201
0.158340 -0.194220 0.819000 11770555
0.156987 -0.187920 0.812000 12030101
0.155440 -0.181474 0.804000 10578483
0.154087 -0.175340 0.797000 10647659
0.154087 -0.170786 0.797000 10055794
0.154087 -0.166231 0.797000 10123117
0.154667 -0.162286 0.800000 9137005
0.154280 -0.157320 0.798000 9662062
0.154667 -0.153143 0.800000 8283521
0.155827 -0.149686 0.806000 9336950
0.155827 -0.145080 0.806000 9403002
0.156600 -0.141171 0.810000 7554097
0.160290 -0.199386 0.821000 11772884
0.159510 -0.193746 0.817000 12162434
0.157752 -0.186994 0.808000 12103057
0.156190 -0.180571 0.800000 8671490
0.155800 -0.175560 0.798000 9403278
0.155800 -0.171000 0.798000 9272728
0.155605 -0.166231 0.797000 9338778
0.155800 -0.161880 0.798000 8745598
0.155800 -0.157320 0.798000 9269370
0.156190 -0.153143 0.800000 8483729
0.156581 -0.148943 0.802000 9273212
0.156971 -0.144720 0.804000 9335162
0.157362 -0.140474 0.806000 6962738
0.161854 -0.199386 0.821000 11838402
0.160474 -0.193034 0.814000 12623233
0.159291 -0.186994 0.808000 12100780
0.157714 -0.180571 0.800000 6684984
0.157123 -0.175340 0.797000 8159087
0.157123 -0.170786 0.797000 8555426
0.157123 -0.166231 0.797000 8487564
0.157320 -0.161880 0.798000 8419962
0.157320 -0.157320 0.798000 8811131
0.157320 -0.152760 0.798000 8683647
0.158109 -0.148943 0.802000 9207180
0.158503 -0.144720 0.804000 9271928
0.158897 -0.140474 0.806000 6376774
0.163020 -0.198900 0.819000 12033711
0.162025 -0.193034 0.814000 12295551
0.160432 -0.186531 0.806000 10527176
0.158840 -0.180120 0.798000 6237293
0.158641 -0.175340 0.797000 8358737
0.158641 -0.170786 0.797000 8683691
0.158641 -0.166231 0.797000 8616318
0.158641 -0.161677 0.797000 8807285
0.158840 -0.157320 0.798000 8742268
0.158840 -0.152760 0.798000 8547692
0.159636 -0.148943 0.802000 9275804
0.160034 -0.144720 0.804000 9533301
0.160432 -0.140474 0.806000 8090971
0.164580 -0.198900 0.819000 12164532
0.163575 -0.193034 0.814000 11967679
0.162370 -0.186994 0.808000 8883906
0.160360 -0.180120 0.798000 5726084
0.160159 -0.175340 0.797000 8472381
0.160159 -0.170786 0.797000 8869211
0.160159 -0.166231 0.797000 8734275
0.160159 -0.161677 0.797000 9187902
0.160159 -0.157123 0.797000 8599876
0.160360 -0.152760 0.798000 8408119
0.160762 -0.148571 0.800000 9340299
0.161164 -0.144360 0.802000 9730939
0.161968 -0.140474 0.806000 9726040
0.164720 -0.192560 0.812000 12368638
0.163503 -0.186531 0.806000 8487100
0.161880 -0.180120 0.798000 6248859
0.161677 -0.175340 0.797000 5964328
0.161677 -0.170786 0.797000 7088650
0.161677 -0.166231 0.797000 9046279
0.161677 -0.161677 0.797000 9048070
0.161677 -0.157123 0.797000 8455179
0.161880 -0.152760 0.798000 7872257
0.162286 -0.148571 0.800000 9341306
0.162286 -0.144000 0.800000 9600129
0.163503 -0.140474 0.806000 8078421
0.166267 -0.192560 0.812000 12832236
0.165038 -0.186531 0.806000 8081033
0.163400 -0.180120 0.798000 6839162
0.163195 -0.175340 0.797000 3479084
0.163195 -0.170786 0.797000 5317394
0.163195 -0.166231 0.797000 9308178
0.163195 -0.161677 0.797000 8914957
0.163195 -0.157123 0.797000 8324887
0.163400 -0.152760 0.798000 7405827
0.163400 -0.148200 0.798000 9340534
0.163810 -0.144000 0.800000 9534845
0.165038 -0.140474 0.806000 6367794
0.167400 -0.192086 0.810000 12491482
0.166160 -0.186069 0.804000 6554455
0.164920 -0.180120 0.798000 5719896
0.164713 -0.175340 0.797000 3417647
0.164713 -0.170786 0.797000 5509145
0.164713 -0.166231 0.797000 9374237
0.164713 -0.161677 0.797000 9046292
0.164713 -0.157123 0.797000 8456227
0.164920 -0.152760 0.798000 8062468
0.164920 -0.148200 0.798000 9276787
0.164920 -0.143640 0.798000 8745336
0.166160 -0.140126 0.804000 6422800
0.168943 -0.192086 0.810000 12213390
0.167691 -0.186069 0.804000 4989282
0.166440 -0.180120 0.798000 4606569
0.166231 -0.175340 0.797000 3355463
0.166231 -0.170786 0.797000 5768225
0.166231 -0.166231 0.797000 9374226
0.166231 -0.161677 0.797000 9177611
0.166231 -0.157123 0.797000 8522273
0.166440 -0.152760 0.798000 8718604
0.166440 -0.148200 0.798000 9209473
0.166440 -0.143640 0.798000 8026229
0.168109 -0.140474 0.806000 6489615
0.170065 -0.191611 0.808000 12337729
0.169223 -0.186069 0.804000 5387374
0.168381 -0.180571 0.800000 5590905
0.167750 -0.175340 0.797000 5593439
0.167750 -0.170786 0.797000 6889513
0.167750 -0.166231 0.797000 8913160
0.167750 -0.161677 0.797000 8782850
0.167750 -0.157123 0.797000 7865887
0.167750 -0.152569 0.797000 8789267
0.167960 -0.148200 0.798000 9013136
0.167960 -0.143640 0.798000 8087665
0.169223 -0.140126 0.804000 6095631
0.171604 -0.191611 0.808000 12533321
0.170754 -0.186069 0.804000 5719396
0.169905 -0.180571 0.800000 6639737
0.169268 -0.175340 0.797000 7756381
0.169268 -0.170786 0.797000 8010839
0.168843 -0.165814 0.795000 8466770
0.169268 -0.161677 0.797000 8388933
0.169268 -0.157123 0.797000 7145767
0.169268 -0.152569 0.797000 8784436
0.169480 -0.148200 0.798000 8814216
0.169480 -0.143640 0.798000 8222067
0.170754 -0.140126 0.804000 5703194
0.173571 -0.192086 0.810000 11087953
0.172286 -0.186069 0.804000 5717594
0.171429 -0.180571 0.800000 6710137
0.170786 -0.175340 0.797000 8018523
0.170357 -0.170357 0.795000 9073285
0.170357 -0.165814 0.795000 9013149
0.170357 -0.161271 0.795000 8870791
0.170786 -0.157123 0.797000 7736367
0.170786 -0.152569 0.797000 8402773
0.170786 -0.148014 0.797000 8416640
0.170786 -0.143460 0.797000 8351349
0.171857 -0.139777 0.802000 6293797
0.175114 -0.192086 0.810000 9711170
0.173817 -0.186069 0.804000 5650042
0.172952 -0.180571 0.800000 6783628
0.171871 -0.174900 0.795000 8279142
0.171871 -0.170357 0.795000 10126210
0.171871 -0.165814 0.795000 9534857
0.171871 -0.161271 0.795000 9406332
0.172304 -0.157123 0.797000 8336716
0.172304 -0.152569 0.797000 8081240
0.172304 -0.148014 0.797000 7954277
0.172304 -0.143460 0.797000 8485234
0.172952 -0.139429 0.800000 6822436
0.176657 -0.192086 0.810000 10304563
0.175349 -0.186069 0.804000 5716122
0.174040 -0.180120 0.798000 8483999
0.172950 -0.174460 0.793000 9199730
0.172950 -0.169929 0.793000 9274238
0.173386 -0.165814 0.795000 8020340
0.173386 -0.161271 0.795000 7891313
0.173386 -0.156729 0.795000 8017769
0.173822 -0.152569 0.797000 7166043
0.173822 -0.148014 0.797000 6438731
0.173822 -0.143460 0.797000 8612206
0.174040 -0.139080 0.798000 6626852
0.178200 -0.192086 0.810000 10969717
0.176440 -0.185606 0.802000 5798327
0.175340 -0.179894 0.797000 10259358
0.174460 -0.174460 0.793000 10127981
0.174460 -0.169929 0.793000 8487511
0.174460 -0.165397 0.793000 6442071
0.174900 -0.161271 0.795000 6381135
0.174900 -0.156729 0.795000 7693158
0.174900 -0.152186 0.795000 6249558
0.175340 -0.148014 0.797000 4867396
0.175340 -0.143460 0.797000 8746354
0.176000 -0.139429 0.800000 6363940
0.177320 -0.135869 0.806000 7356464
0.180187 -0.192560 0.812000 11243446
0.178411 -0.186069 0.804000 7182548
0.176858 -0.179894 0.797000 9206941
0.175970 -0.174460 0.793000 10461288
0.175527 -0.169500 0.791000 7565103
0.175970 -0.165397 0.793000 4859707
0.176414 -0.161271 0.795000 5519661
0.176414 -0.156729 0.795000 6776163
0.176414 -0.152186 0.795000 5656912
0.176858 -0.148014 0.797000 5063998
0.176858 -0.143460 0.797000 8744054
0.177080 -0.139080 0.798000 6161187
0.178855 -0.135869 0.806000 6822695
0.181733 -0.192560 0.812000 11513266
0.178600 -0.184680 0.798000 8491214
0.178376 -0.179894 0.797000 8159155
0.177033 -0.174020 0.791000 10774640
0.177033 -0.169500 0.791000 6643531
0.177033 -0.164980 0.791000 3286072
0.177481 -0.160866 0.793000 4598066
0.177929 -0.156729 0.795000 5854809
0.177929 -0.152186 0.795000 5131347
0.178376 -0.148014 0.797000 5262171
0.178376 -0.143460 0.797000 8746612
0.178600 -0.139080 0.798000 5968174
0.179943 -0.135531 0.804000 6295084
0.183280 -0.192560 0.812000 10457773
0.180571 -0.185143 0.800000 10461128
0.179894 -0.179894 0.797000 9936841
0.178540 -0.174020 0.791000 8147576
0.178540 -0.169500 0.791000 6050919
0.178540 -0.164980 0.791000 2099509
0.178991 -0.160866 0.793000 5192247
0.178991 -0.156334 0.793000 5918031
0.179443 -0.152186 0.795000 5526869
0.179443 -0.147643 0.795000 5459832
0.179894 -0.143460 0.797000 9007729
0.180120 -0.139080 0.798000 6489400
0.181474 -0.135531 0.804000 7223600
0.184827 -0.192560 0.812000 9409991
0.182095 -0.185143 0.800000 12431828
0.181412 -0.179894 0.797000 11781841
0.180502 -0.174460 0.793000 5464191
0.180047 -0.169500 0.791000 5461375
0.180047 -0.164980 0.791000 926277
0.180047 -0.160460 0.791000 5848376
0.180502 -0.156334 0.793000 5920859
0.180502 -0.151803 0.793000 5921140
0.180957 -0.147643 0.795000 5595778
0.181412 -0.143460 0.797000 9271159
0.181640 -0.139080 0.798000 6954554
0.183006 -0.135531 0.804000 8146721
0.185914 -0.192086 0.810000 9870305
0.183619 -0.185143 0.800000 13550816
0.182930 -0.179894 0.797000 11777497
0.182012 -0.174460 0.793000 5790343
0.181553 -0.169500 0.791000 5924503
0.181553 -0.164980 0.791000 3159892
0.181553 -0.160460 0.791000 6373688
0.182012 -0.156334 0.793000 6450024
0.182012 -0.151803 0.793000 6779538
0.182471 -0.147643 0.795000 6976140
0.182930 -0.143460 0.797000 9336700
0.183619 -0.139429 0.800000 6621244
0.184537 -0.135531 0.804000 7683601
0.187457 -0.192086 0.810000 10334952
0.185606 -0.185606 0.802000 14668011
0.184449 -0.179894 0.797000 11775179
0.183060 -0.174020 0.791000 6120330
0.183060 -0.169500 0.791000 6454428
0.183060 -0.164980 0.791000 5393523
0.183060 -0.160460 0.791000 6896444
0.183060 -0.155940 0.791000 6974818
0.183523 -0.151803 0.793000 7699857
0.183523 -0.147271 0.793000 8288651
0.184449 -0.143460 0.797000 9401718
0.184680 -0.139080 0.798000 6237249
0.186069 -0.135531 0.804000 7289370
0.188533 -0.191611 0.808000 11976943
0.186667 -0.185143 0.800000 14605301
0.185500 -0.179443 0.795000 10650556
0.184567 -0.174020 0.791000 6976653
0.184100 -0.169071 0.789000 6980001
0.184100 -0.164563 0.789000 5594002
0.184567 -0.160460 0.791000 7420736
0.184567 -0.155940 0.791000 7304284
0.184567 -0.151420 0.791000 7831695
0.184567 -0.146900 0.791000 8290443
0.185500 -0.143100 0.795000 9664880
0.186200 -0.139080 0.798000 7357767
0.187600 -0.135531 0.804000 7747362
0.190072 -0.191611 0.808000 13621746
0.188661 -0.185606 0.802000 14535912
0.187014 -0.179443 0.795000 9589717
0.186073 -0.174020 0.791000 7764102
0.185603 -0.169071 0.789000 7439526
0.185603 -0.164563 0.789000 5728400
0.186073 -0.160460 0.791000 8005442
0.186073 -0.155940 0.791000 7628116
0.186073 -0.151420 0.791000 7963290
0.186073 -0.146900 0.791000 8289161
0.187014 -0.143100 0.795000 9991780
0.187720 -0.139080 0.798000 8474676
0.191137 -0.191137 0.806000 13750516
0.190189 -0.185606 0.802000 13074908
0.188054 -0.178991 0.793000 10061806
0.187106 -0.173580 0.789000 8029568
0.187106 -0.169071 0.789000 7504555
0.187106 -0.164563 0.789000 6713997
0.187580 -0.160460 0.791000 7883332
0.187580 -0.155940 0.791000 7753548
0.187580 -0.151420 0.791000 9078436
0.187580 -0.146900 0.791000 8221575
0.188054 -0.142740 0.793000 9202519
0.189003 -0.138906 0.797000 8601889
0.192672 -0.191137 0.806000 13947640
0.191716 -0.185606 0.802000 11581161
0.189565 -0.178991 0.793000 10598878
0.188609 -0.173580 0.789000 8225163
0.188609 -0.169071 0.789000 7572128
0.188609 -0.164563 0.789000 7698580
0.188609 -0.160054 0.789000 7753817
0.189087 -0.155940 0.791000 7886144
0.188609 -0.151037 0.789000 10260376
0.189087 -0.146900 0.791000 8157317
0.189565 -0.142740 0.793000 8478795
0.190521 -0.138906 0.797000 8669216
0.191238 -0.134857 0.800000 8606471
0.194208 -0.191137 0.806000 14474235
0.192762 -0.185143 0.800000 13953783
0.190593 -0.178540 0.791000 11516622
0.190111 -0.173580 0.789000 9603990
0.190111 -0.169071 0.789000 8816789
0.190111 -0.164563 0.789000 8686491
0.190111 -0.160054 0.789000 7295086
0.190593 -0.155940 0.791000 8739124
0.190111 -0.151037 0.789000 9667723
0.190593 -0.146900 0.791000 8420483
0.190593 -0.142380 0.791000 8279870
0.192039 -0.138906 0.797000 8997920
0.192762 -0.134857 0.800000 8012033
0.197200 -0.197200 0.812000 10663903
0.195743 -0.191137 0.806000 15000259
0.194286 -0.185143 0.800000 16246778
0.192100 -0.178540 0.791000 12499659
0.191614 -0.173580 0.789000 10978182
0.191371 -0.168857 0.788000 10128536
0.191614 -0.164563 0.789000 9669532
0.191614 -0.160054 0.789000 6901904
0.191614 -0.155546 0.789000 9588253
0.191614 -0.151037 0.789000 9009478
0.191614 -0.146529 0.789000 8683140
0.192100 -0.142380 0.791000 8147778
0.193557 -0.138906 0.797000 9325599
0.194286 -0.134857 0.800000 7485972
0.198747 -0.197200 0.812000 12044261
0.197278 -0.191137 0.806000 13216651
0.196299 -0.185606 0.802000 16251389
0.193607 -0.178540 0.791000 11311304
0.193117 -0.173580 0.789000 9075062
0.192872 -0.168857 0.788000 10327707
0.193117 -0.164563 0.789000 9930910
0.193117 -0.160054 0.789000 7497394
0.193117 -0.155546 0.789000 9854982
0.193117 -0.151037 0.789000 8674049
0.193117 -0.146529 0.789000 8747653
0.193607 -0.142380 0.791000 8280389
0.194586 -0.138557 0.795000 8801822
0.195320 -0.134520 0.798000 6827558
0.198320 -0.190663 0.804000 11429532
0.197827 -0.185606 0.802000 16239043
0.195607 -0.178991 0.793000 10112666
0.194620 -0.173580 0.789000 7166043
0.194620 -0.169071 0.789000 10594464
0.194620 -0.164563 0.789000 10193818
0.194620 -0.160054 0.789000 8160165
0.194620 -0.155546 0.789000 10109714
0.194373 -0.150846 0.788000 8408080
0.194620 -0.146529 0.789000 8810086
0.195113 -0.142380 0.791000 8479297
0.196100 -0.138557 0.795000 8205089
0.196840 -0.134520 0.798000 6171454
0.199851 -0.190663 0.804000 10647468
0.198857 -0.185143 0.800000 12618632
0.197117 -0.178991 0.793000 8205163
0.196123 -0.173580 0.789000 7419968
0.196123 -0.169071 0.789000 9868197
0.195874 -0.164354 0.788000 9210775
0.195874 -0.159851 0.788000 7170711
0.195874 -0.155349 0.788000 8860446
0.195874 -0.150846 0.788000 8539678
0.196123 -0.146529 0.789000 5983304
0.196620 -0.142380 0.791000 8476732
0.197614 -0.138557 0.795000 7479843
0.198360 -0.134520 0.798000 6042709
0.200381 -0.189714 0.800000 9931441
0.199630 -0.184449 0.797000 8944786
0.198127 -0.178540 0.791000 6357347
0.196874 -0.172920 0.786000 7619659
0.196874 -0.168429 0.786000 9134980
0.196874 -0.163937 0.786000 8217467
0.196874 -0.159446 0.786000 6185075
0.197375 -0.155349 0.788000 7611674
0.197375 -0.150846 0.788000 8741177
0.197375 -0.146343 0.788000 3098174
0.197626 -0.142020 0.789000 8477767
0.198127 -0.137860 0.791000 6695469
0.199630 -0.134351 0.797000 5912906
0.201905 -0.189714 0.800000 10918582
0.201400 -0.184680 0.798000 9406876
0.199633 -0.178540 0.791000 7028314
0.198371 -0.172920 0.786000 5908566
0.198371 -0.168429 0.786000 6640483
0.198371 -0.163937 0.786000 5978718
0.198371 -0.159446 0.786000 7418446
0.198371 -0.154954 0.786000 7933462
0.198371 -0.150463 0.786000 9396564
0.198876 -0.146343 0.788000 4539701
0.199129 -0.142020 0.789000 8084050
0.199633 -0.137860 0.791000 6232888
0.201148 -0.134351 0.797000 5650750
0.203429 -0.189714 0.800000 11969974
0.202920 -0.184680 0.798000 9794959
0.200631 -0.178089 0.789000 7754367
0.199869 -0.172920 0.786000 4145754
0.199869 -0.168429 0.786000 4151666
0.199869 -0.163937 0.786000 3688807
0.199360 -0.159040 0.784000 8661601
0.199869 -0.154954 0.786000 8264235
0.199869 -0.150463 0.786000 10116144
0.200377 -0.146343 0.788000 5915698
0.200631 -0.142020 0.789000 7757893
0.201140 -0.137860 0.791000 5712965
0.202666 -0.134351 0.797000 5388099
0.204952 -0.189714 0.800000 12164789
0.204440 -0.184680 0.798000 8530818
0.202134 -0.178089 0.789000 8745380
0.201366 -0.172920 0.786000 4938590
0.200853 -0.168000 0.784000 5135744
0.200853 -0.163520 0.784000 4411504
0.200853 -0.159040 0.784000 7883892
0.200853 -0.154560 0.784000 8134721
0.201366 -0.150463 0.786000 8334604
0.201878 -0.146343 0.788000 7946288
0.201878 -0.141840 0.788000 7755063
0.202134 -0.137511 0.789000 5585747
0.204184 -0.134351 0.797000 5256775
0.206476 -0.189714 0.800000 12431770
0.205702 -0.184449 0.797000 7228551
0.204153 -0.178540 0.791000 9792632
0.202863 -0.172920 0.786000 5724771
0.202347 -0.168000 0.784000 6118756
0.202347 -0.163520 0.784000 5067372
0.202347 -0.159040 0.784000 7102830
0.202347 -0.154560 0.784000 7944787
0.202347 -0.150080 0.784000 6629951
0.202863 -0.145971 0.786000 9979439
0.203379 -0.141840 0.788000 7820339
0.203637 -0.137511 0.789000 5391434
0.205186 -0.134014 0.795000 5124934
0.207220 -0.184449 0.797000 7424140
0.205140 -0.178089 0.789000 7159628
0.203840 -0.172480 0.784000 5593961
0.203320 -0.167571 0.782000 5524295
0.203840 -0.163520 0.784000 5524329
0.203840 -0.159040 0.784000 6377064
0.203840 -0.154560 0.784000 8019813
0.203840 -0.150080 0.784000 6767218
0.204360 -0.145971 0.786000 9789229
0.204880 -0.141840 0.788000 8544047
0.205140 -0.137511 0.789000 5588033
0.206180 -0.133677 0.793000 4994885
0.208738 -0.184449 0.797000 7560084
0.206643 -0.178089 0.789000 4526955
0.205857 -0.172920 0.786000 5461095
0.204810 -0.167571 0.782000 4924501
0.205333 -0.163520 0.784000 5985903
0.205333 -0.159040 0.784000 5656433
0.205333 -0.154560 0.784000 8020600
0.205333 -0.150080 0.784000 6969186
0.205333 -0.145600 0.784000 9524015
0.205857 -0.141480 0.786000 9331000
0.206643 -0.137511 0.789000 5719619
0.207690 -0.133677 0.793000 4863295
0.211575 -0.190189 0.802000 8163271
0.210520 -0.184680 0.798000 8282525
0.207882 -0.177863 0.788000 5658761
0.207354 -0.172920 0.786000 5461862
0.206299 -0.167571 0.782000 5588834
0.206827 -0.163520 0.784000 6318965
0.206827 -0.159040 0.784000 6051706
0.206827 -0.154560 0.784000 7632267
0.206827 -0.150080 0.784000 7163985
0.206827 -0.145600 0.784000 9787185
0.207354 -0.141480 0.786000 9265729
0.208146 -0.137511 0.789000 5189188
0.209201 -0.133677 0.793000 4599608
0.212571 -0.189714 0.800000 9874879
0.211774 -0.184449 0.797000 8941730
0.209383 -0.177863 0.788000 6779546
0.208320 -0.172480 0.784000 5397615
0.207789 -0.167571 0.782000 6313844
0.207789 -0.163103 0.782000 6646142
0.208320 -0.159040 0.784000 6509676
0.208320 -0.154560 0.784000 7234948
0.207789 -0.149697 0.782000 7360361
0.207789 -0.145229 0.782000 9983567
0.208320 -0.141120 0.784000 9265491
0.209383 -0.137337 0.788000 4597309
0.210711 -0.133677 0.793000 4268593
0.214095 -0.189714 0.800000 9669558
0.213292 -0.184449 0.797000 9998246
0.211151 -0.178089 0.789000 8025002
0.209813 -0.172480 0.784000 7041656
0.209278 -0.167571 0.782000 6578822
0.209278 -0.163103 0.782000 6712711
0.209278 -0.158634 0.782000 6312030
0.209278 -0.154166 0.782000 7037054
0.209278 -0.149697 0.782000 7430528
0.209278 -0.145229 0.782000 9066861
0.209813 -0.141120 0.784000 8937828
0.210884 -0.137337 0.788000 4000823
0.212222 -0.133677 0.793000 3677225
0.215619 -0.189714 0.800000 9534918
0.214810 -0.184449 0.797000 10982825
0.212385 -0.177863 0.788000 9337263
0.211307 -0.172480 0.784000 8675699
0.210768 -0.167571 0.782000 6840704
0.210768 -0.163103 0.782000 6712458
0.210768 -0.158634 0.782000 6113138
0.210768 -0.154166 0.782000 6842758
0.210768 -0.149697 0.782000 7564670
0.210768 -0.145229 0.782000 8150897
0.211307 -0.141120 0.784000 8610907
0.212385 -0.137337 0.788000 3348021
0.213193 -0.133340 0.791000 3019804
0.217143 -0.189714 0.800000 10193622
0.216329 -0.184449 0.797000 10722733
0.214157 -0.178089 0.789000 9726644
0.212257 -0.172040 0.782000 8607854
0.212257 -0.167571 0.782000 8158073
0.212257 -0.163103 0.782000 7698573
0.212257 -0.158634 0.782000 7102853
0.212257 -0.154166 0.782000 7958927
0.211714 -0.149314 0.780000 7431803
0.212257 -0.145229 0.782000 7693686
0.212800 -0.141120 0.784000 8675409
0.213343 -0.136989 0.786000 3737907
0.214700 -0.133340 0.791000 3542542
0.218667 -0.189714 0.800000 10780621
0.217847 -0.184449 0.797000 10393274
0.215387 -0.177863 0.788000 10066886
0.213747 -0.172040 0.782000 8480896
0.213747 -0.167571 0.782000 9542285
0.213747 -0.163103 0.782000 8616840
0.213747 -0.158634 0.782000 8089217
0.213747 -0.154166 0.782000 9075604
0.213200 -0.149314 0.780000 7301513
0.213747 -0.145229 0.782000 7229018
0.214293 -0.141120 0.784000 8740425
0.214840 -0.136989 0.786000 4149596
0.216753 -0.133677 0.793000 4131622
0.220190 -0.189714 0.800000 10322116
0.218814 -0.183986 0.795000 11313608
0.216888 -0.177863 0.788000 10655704
0.215236 -0.172040 0.782000 9668755
0.214686 -0.167143 0.780000 10328481
0.214686 -0.162686 0.780000 10125699
0.214686 -0.158229 0.780000 8481661
0.214686 -0.153771 0.780000 9340314
0.214686 -0.149314 0.780000 7233175
0.215236 -0.145229 0.782000 5646398
0.215787 -0.141120 0.784000 9133376
0.216888 -0.137337 0.788000 6852997
0.218264 -0.133677 0.793000 5191485
0.221160 -0.189240 0.798000 9794450
0.220329 -0.183986 0.795000 12160962
0.217834 -0.177411 0.786000 11244471
0.216171 -0.171600 0.780000 10850957
0.216171 -0.167143 0.780000 11179163
0.216171 -0.162686 0.780000 11567748
0.216171 -0.158229 0.780000 8807277
0.216171 -0.153771 0.780000 9525612
0.216171 -0.149314 0.780000 7238535
0.216726 -0.145229 0.782000 4068410
0.216726 -0.140760 0.782000 9588515
0.217834 -0.136989 0.786000 9464161
0.219774 -0.133677 0.793000 6246467
0.222680 -0.189240 0.798000 9979232
0.221285 -0.183523 0.793000 11897276
0.219890 -0.177863 0.788000 10254486
0.217657 -0.171600 0.780000 10654600
0.217657 -0.167143 0.780000 11109780
0.217657 -0.162686 0.780000 11633286
0.217657 -0.158229 0.780000 9132124
0.217657 -0.153771 0.780000 9507134
0.217657 -0.149314 0.780000 8548982
0.218215 -0.145229 0.782000 5706037
0.218215 -0.140760 0.782000 9195525
0.219331 -0.136989 0.786000 7284285
0.220727 -0.133340 0.791000 6311752
0.224200 -0.189240 0.798000 10229321
0.222233 -0.183060 0.791000 11571891
0.220829 -0.177411 0.786000 9340593
0.219143 -0.171600 0.780000 10388358
0.218862 -0.166929 0.779000 11108500
0.219143 -0.162686 0.780000 11702154
0.219143 -0.158229 0.780000 9396334
0.219143 -0.153771 0.780000 9527907
0.219143 -0.149314 0.780000 9870201
0.219143 -0.144857 0.780000 7358537
0.219705 -0.140760 0.782000 8869401
0.220267 -0.136640 0.784000 5061168
0.222233 -0.133340 0.791000 6442831
0.225437 -0.189003 0.797000 10170162
0.223740 -0.183060 0.791000 11440041
0.222326 -0.177411 0.786000 10257867
0.220629 -0.171600 0.780000 10715780
0.220346 -0.166929 0.779000 11637651
0.220346 -0.162477 0.779000 10920079
0.220629 -0.158229 0.780000 8808064
0.220629 -0.153771 0.780000 9607816
0.220629 -0.149314 0.780000 9865084
0.220629 -0.144857 0.780000 6777948
0.221194 -0.140760 0.782000 8474924
0.221760 -0.136640 0.784000 5780003
0.223174 -0.133003 0.789000 6376534
0.226955 -0.189003 0.797000 10168881
0.225247 -0.183060 0.791000 11311019
0.223823 -0.177411 0.786000 11240907
0.222114 -0.171600 0.780000 10971746
0.222114 -0.167143 0.780000 12160608
0.222114 -0.162686 0.780000 10054999
0.221830 -0.158026 0.779000 8220543
0.221830 -0.153574 0.779000 9592169
0.221830 -0.149123 0.779000 9854271
0.222114 -0.144857 0.780000 6108733
0.222114 -0.140400 0.780000 8014899
0.222684 -0.136291 0.782000 6439712
0.225247 -0.133340 0.791000 6376533
0.228473 -0.189003 0.797000 10565680
0.226753 -0.183060 0.791000 12429486
0.225320 -0.177411 0.786000 11039179
0.223600 -0.171600 0.780000 10112064
0.223600 -0.167143 0.780000 8798252
0.223600 -0.162686 0.780000 8412191
0.223313 -0.158026 0.779000 7627646
0.223313 -0.153574 0.779000 5636683
0.223313 -0.149123 0.779000 6497537
0.223313 -0.144671 0.779000 5972509
0.223600 -0.140400 0.780000 7754042
0.224173 -0.136291 0.782000 6700573
0.226180 -0.133003 0.789000 6179156
0.229991 -0.189003 0.797000 10951234
0.228260 -0.183060 0.791000 13539754
0.226817 -0.177411 0.786000 10779080
0.225086 -0.171600 0.780000 9192529
0.224797 -0.166929 0.779000 5505307
0.224797 -0.162477 0.779000 6768693
0.224797 -0.158026 0.779000 7037050
0.224797 -0.153574 0.779000 1714251
0.224797 -0.149123 0.779000 3145995
0.225086 -0.144857 0.780000 5842968
0.225086 -0.140400 0.780000 7490608
0.225663 -0.136291 0.782000 6968873
0.227683 -0.133003 0.789000 6048609
0.231510 -0.189003 0.797000 11689044
0.230348 -0.183523 0.793000 12556711
0.228314 -0.177411 0.786000 10715845
0.226571 -0.171600 0.780000 6828641
0.226571 -0.167143 0.780000 5117193
0.226281 -0.162477 0.779000 6574155
0.226281 -0.158026 0.779000 6902645
0.226281 -0.153574 0.779000 5458251
0.226281 -0.149123 0.779000 4726804
0.226571 -0.144857 0.780000 3680531
0.226571 -0.140400 0.780000 6702629
0.227152 -0.136291 0.782000 6776374
0.228895 -0.132834 0.788000 6775406
0.233028 -0.189003 0.797000 12414586
0.231858 -0.183523 0.793000 11507888
0.229811 -0.177411 0.786000 10725054
0.228057 -0.171600 0.780000 4405320
0.227765 -0.166929 0.779000 4655645
0.227180 -0.162060 0.777000 6308414
0.227180 -0.157620 0.777000 6831980
0.227180 -0.153180 0.777000 9200978
0.228057 -0.149314 0.780000 6314294
0.227765 -0.144671 0.779000 1446465
0.228057 -0.140400 0.780000 5984107
0.228642 -0.136291 0.782000 6572089
0.230396 -0.132834 0.788000 7568200
0.234546 -0.189003 0.797000 11567520
0.232780 -0.183060 0.791000 11308985
0.231309 -0.177411 0.786000 10454454
0.229249 -0.171380 0.779000 7427376
0.228660 -0.166500 0.777000 7490353
0.228071 -0.161643 0.775000 7220018
0.228660 -0.157620 0.777000 8941667
0.228660 -0.153180 0.777000 10255450
0.229249 -0.149123 0.779000 8808024
0.229543 -0.144857 0.780000 5898607
0.229543 -0.140400 0.780000 8614065
0.230131 -0.136291 0.782000 5834044
0.231897 -0.132834 0.788000 6047778
0.236064 -0.193557 0.797000 13611465
0.236064 -0.189003 0.797000 10714504
0.234287 -0.183060 0.791000 11116208
0.232806 -0.177411 0.786000 10253749
0.230732 -0.171380 0.779000 10444605
0.230140 -0.166500 0.777000 10318152
0.229548 -0.161643 0.775000 8086368
0.229548 -0.157214 0.775000 11051398
0.230140 -0.153180 0.777000 11238026
0.230732 -0.149123 0.779000 11305353
0.230732 -0.144671 0.779000 10324648
0.231029 -0.140400 0.780000 11324114
0.231621 -0.136291 0.782000 5142929
0.232806 -0.132497 0.786000 4533120
0.237582 -0.193557 0.797000 14071233
0.237582 -0.189003 0.797000 11695727
0.235793 -0.183060 0.791000 12298662
0.233707 -0.176960 0.784000 11638195
0.232216 -0.171380 0.779000 10510667
0.231620 -0.166500 0.777000 10645854
0.231024 -0.161643 0.775000 10657679
0.231024 -0.157214 0.775000 11705256
0.231620 -0.153180 0.777000 12029882
0.231620 -0.148740 0.777000 12494265
0.232514 -0.144857 0.780000 12573409
0.232514 -0.140400 0.780000 13229042
0.233707 -0.136640 0.784000 10212327
0.234303 -0.132497 0.786000 9606622
0.239100 -0.193557 0.797000 14533057
0.239100 -0.189003 0.797000 12747682
0.237300 -0.183060 0.791000 13480618
0.235200 -0.176960 0.784000 13020866
0.233100 -0.170940 0.777000 10518933
0.232500 -0.166071 0.775000 11047577
0.232500 -0.161643 0.775000 13153456
0.232500 -0.157214 0.775000 12364477
0.233100 -0.153180 0.777000 12826824
0.233100 -0.148740 0.777000 13611201
0.234000 -0.144857 0.780000 14730963
0.234000 -0.140400 0.780000 15126235
0.235200 -0.136640 0.784000 15256792
0.240618 -0.193557 0.797000 15395777
0.240618 -0.189003 0.797000 14009300
0.238807 -0.183060 0.791000 12628142
0.236693 -0.176960 0.784000 13812176
0.234580 -0.170940 0.777000 12768222
0.234580 -0.166500 0.777000 12299219
0.233976 -0.161643 0.775000 13550290
0.233976 -0.157214 0.775000 13285841
0.234580 -0.153180 0.777000 13551574
0.234580 -0.148740 0.777000 13876168
0.235486 -0.144857 0.780000 14465989
0.236090 -0.140760 0.782000 14663364
0.236693 -0.136640 0.784000 14859977
0.241529 -0.188529 0.795000 15321547
0.239706 -0.182597 0.789000 11772607
0.237579 -0.176509 0.782000 14670285
0.235452 -0.170500 0.775000 14994387
0.236060 -0.166500 0.777000 13546957
0.235452 -0.157214 0.775000 14204108
0.236060 -0.153180 0.777000 14270415
0.236060 -0.148740 0.777000 14138311
0.236971 -0.144857 0.780000 14203844
0.237579 -0.140760 0.782000 14202815
0.243043 -0.188529 0.795000 14463937
0.240291 -0.181903 0.786000 13019344
0.239069 -0.176509 0.782000 14207177
0.236929 -0.170500 0.775000 14464968
0.237540 -0.166500 0.777000 13940166
0.241789 -0.181903 0.786000 14202308
0.241173 -0.176960 0.784000 13743295
0.239020 -0.170940 0.777000 13873600
0.243286 -0.181903 0.786000 14333625
0.099302 -0.155599 0.821000 13478322
0.101111 -0.155978 0.823000 13018801
0.101849 -0.152378 0.829000 11570816
0.102094 -0.147997 0.831000 10915699
0.102180 -0.159900 0.819000 13741441
0.102430 -0.155599 0.821000 12489845
0.102929 -0.151643 0.825000 9718876
0.103677 -0.147997 0.831000 9065812
0.103233 -0.177748 0.815000 12625054
0.103740 -0.164580 0.819000 10193041
0.103740 -0.159900 0.819000 10256966
0.103993 -0.155599 0.821000 10321978
0.104500 -0.151643 0.825000 8735544
0.105513 -0.148353 0.833000 8798262
0.104786 -0.182405 0.815000 11965875
0.104786 -0.177748 0.815000 10781857
0.104786 -0.173090 0.815000 9727357
0.105043 -0.164178 0.817000 5856918
0.105300 -0.159900 0.819000 6840171
0.105300 -0.155220 0.819000 8092234
0.105557 -0.150908 0.821000 7690050
0.106843 -0.147997 0.831000 8544066
0.106208 -0.182181 0.814000 9536446
0.106338 -0.177748 0.815000 8616355
0.106338 -0.173090 0.815000 8213862
0.106338 -0.168433 0.815000 7102337
0.106599 -0.164178 0.817000 6189210
0.106599 -0.159510 0.817000 7041167
0.106860 -0.155220 0.819000 8290394
0.107382 -0.151275 0.823000 7758155
0.108426 -0.147997 0.831000 8483149
0.110009 -0.195483 0.831000 9801392
0.108155 -0.187521 0.817000 9350838
0.107890 -0.182405 0.815000 7047332
0.107890 -0.177748 0.815000 6456221
0.107890 -0.173090 0.815000 6648200
0.107890 -0.168433 0.815000 6124677
0.108155 -0.164178 0.817000 6519196
0.108155 -0.159510 0.817000 7305622
0.108420 -0.155220 0.819000 8483925
0.108685 -0.150908 0.821000 7822383
0.109744 -0.147641 0.829000 8350262
0.111591 -0.195483 0.831000 10133933
0.109711 -0.187521 0.817000 9348781
0.109443 -0.182405 0.815000 7505291
0.109443 -0.177748 0.815000 6982039
0.109443 -0.173090 0.815000 7113130
0.109443 -0.168433 0.815000 6913416
0.109711 -0.164178 0.817000 6651039
0.109711 -0.159510 0.817000 6912413
0.109711 -0.154841 0.817000 7100753
0.110249 -0.150908 0.821000 7232530
0.111054 -0.147285 0.827000 8282911
0.113991 -0.201677 0.837000 9205168
0.113174 -0.195483 0.831000 10401689
0.111268 -0.187521 0.817000 9413041
0.110995 -0.182405 0.815000 7896933
0.110995 -0.177748 0.815000 7572602
0.110995 -0.173090 0.815000 7506075
0.110995 -0.168433 0.815000 7700877
0.110995 -0.163776 0.815000 6717091
0.111268 -0.159510 0.817000 6519965
0.111268 -0.154841 0.817000 5663605
0.111812 -0.150908 0.821000 6642219
0.112357 -0.146929 0.825000 8216609
0.115586 -0.201677 0.837000 9800855
0.114757 -0.195483 0.831000 11983749
0.112548 -0.187062 0.815000 9149365
0.112410 -0.182181 0.814000 7697215
0.112410 -0.177530 0.814000 8752989
0.112410 -0.172878 0.814000 7374733
0.112410 -0.168227 0.814000 7570322
0.112410 -0.163575 0.814000 7045288
0.112548 -0.159119 0.815000 6651549
0.112548 -0.154462 0.815000 6257306
0.112824 -0.150172 0.817000 7234627
0.113929 -0.146929 0.825000 8019236
0.116620 -0.200713 0.833000 10462639
0.116060 -0.195012 0.829000 13489067
0.114100 -0.187062 0.815000 8948403
0.113960 -0.182181 0.814000 7499311
0.113960 -0.177530 0.814000 9932607
0.113960 -0.172878 0.814000 7243642
0.113960 -0.168227 0.814000 7505049
0.113960 -0.163575 0.814000 7308194
0.113960 -0.158924 0.814000 6848409
0.114100 -0.154462 0.815000 6847382
0.114380 -0.150172 0.817000 7825502
0.115220 -0.146572 0.823000 7822622
0.118490 -0.201195 0.835000 10596039
0.117071 -0.194071 0.825000 11781840
0.115652 -0.187062 0.815000 8622000
0.115510 -0.182181 0.814000 6645535
0.115227 -0.177093 0.812000 8880416
0.115227 -0.172453 0.812000 7505511
0.115510 -0.168227 0.814000 7373728
0.115510 -0.163575 0.814000 7504797
0.115510 -0.158924 0.814000 7111060
0.115652 -0.154462 0.815000 7109778
0.115936 -0.150172 0.817000 7695481
0.116504 -0.146216 0.821000 8148760
0.117071 -0.142214 0.825000 8939045
0.120081 -0.201195 0.835000 10794681
0.118643 -0.194071 0.825000 10072529
0.117205 -0.187062 0.815000 8358821
0.117061 -0.182181 0.814000 5793331
0.116773 -0.177093 0.812000 7895351
0.116773 -0.172453 0.812000 7767625
0.117061 -0.168227 0.814000 7242402
0.117061 -0.163575 0.814000 7701390
0.117061 -0.158924 0.814000 7438192
0.117061 -0.154272 0.814000 7372434
0.117492 -0.150172 0.817000 7501955
0.118068 -0.146216 0.821000 8477215
0.118643 -0.142214 0.825000 8807985
0.121671 -0.201195 0.835000 11189674
0.120214 -0.194071 0.825000 9999314
0.118757 -0.187062 0.815000 9014426
0.118611 -0.182181 0.814000 5794376
0.118320 -0.177093 0.812000 7039822
0.118320 -0.172453 0.812000 8292140
0.118320 -0.167813 0.812000 6848676
0.118611 -0.163575 0.814000 8160639
0.118611 -0.158924 0.814000 7700043
0.118611 -0.154272 0.814000 7176339
0.118757 -0.149805 0.815000 8025996
0.119631 -0.146216 0.821000 9330725
0.120214 -0.142214 0.825000 7493180
0.121490 -0.193601 0.823000 9939870
0.120162 -0.186832 0.814000 9733268
0.119867 -0.181733 0.812000 5795683
0.119867 -0.177093 0.812000 6249543
0.119867 -0.172453 0.812000 8745270
0.119867 -0.167813 0.812000 6455454
0.120162 -0.163575 0.814000 8618634
0.120162 -0.158924 0.814000 8027179
0.120162 -0.154272 0.814000 6979474
0.120310 -0.149805 0.815000 8551564
0.120900 -0.145860 0.819000 10181928
0.121786 -0.142214 0.825000 6114104
0.123058 -0.193601 0.823000 11645545
0.121862 -0.187062 0.815000 10524302
0.121413 -0.181733 0.812000 5799294
0.121413 -0.177093 0.812000 7101247
0.121413 -0.172453 0.812000 9265472
0.121413 -0.167813 0.812000 6585239
0.121712 -0.163575 0.814000 7438229
0.121712 -0.158924 0.814000 8027147
0.121712 -0.154272 0.814000 6913426
0.121862 -0.149805 0.815000 8287115
0.122460 -0.145860 0.819000 9394987
0.123357 -0.142214 0.825000 6705716
0.124626 -0.193601 0.823000 13280602
0.123414 -0.187062 0.815000 11312256
0.122960 -0.181733 0.812000 5730683
0.122960 -0.177093 0.812000 7949122
0.122960 -0.172453 0.812000 9729067
0.122960 -0.167813 0.812000 6714737
0.123263 -0.163575 0.814000 6185574
0.123263 -0.158924 0.814000 8091169
0.123263 -0.154272 0.814000 6848397
0.123263 -0.149621 0.814000 8092813
0.123717 -0.145504 0.817000 8607272
0.124929 -0.142214 0.825000 7298116
0.126193 -0.193601 0.823000 13478476
0.124967 -0.187062 0.815000 11576177
0.124507 -0.181733 0.812000 5663608
0.124507 -0.177093 0.812000 8676933
0.124507 -0.172453 0.812000 9599255
0.124507 -0.167813 0.812000 7567435
0.124507 -0.163173 0.812000 7088184
0.124507 -0.158533 0.812000 8026167
0.124507 -0.153893 0.812000 6324105
0.124813 -0.149621 0.814000 8156046
0.125273 -0.145504 0.817000 8935206
0.126193 -0.141870 0.823000 8019283
0.127761 -0.193601 0.823000 13670256
0.126519 -0.187062 0.815000 11840627
0.126053 -0.181733 0.812000 5592914
0.125743 -0.176657 0.810000 9468986
0.125743 -0.172029 0.810000 9459745
0.126053 -0.167813 0.812000 8417835
0.126053 -0.163173 0.812000 8013871
0.126053 -0.158533 0.812000 7956764
0.126053 -0.153893 0.812000 5796985
0.126364 -0.149621 0.814000 8289421
0.126830 -0.145504 0.817000 9191211
0.127761 -0.141870 0.823000 8739121
0.129014 -0.193130 0.821000 13542036
0.127914 -0.186832 0.814000 12430708
0.127286 -0.181286 0.810000 5327405
0.126971 -0.176221 0.808000 9601326
0.127286 -0.172029 0.810000 7405867
0.127600 -0.167813 0.812000 8089866
0.127600 -0.163173 0.812000 8343335
0.127600 -0.158533 0.812000 8475393
0.127600 -0.153893 0.812000 7567464
0.127914 -0.149621 0.814000 8156300
0.128386 -0.145504 0.817000 7932207
0.129329 -0.141870 0.823000 8077582
0.131532 -0.199268 0.827000 11839592
0.130578 -0.193130 0.821000 13405832
0.129465 -0.186832 0.814000 13023857
0.128829 -0.181286 0.810000 4997163
0.128510 -0.176221 0.808000 9804338
0.128829 -0.172029 0.810000 5385768
0.128829 -0.167400 0.810000 7831583
0.128829 -0.162771 0.810000 8607535
0.128829 -0.158143 0.810000 8988417
0.129147 -0.153893 0.812000 9338462
0.129465 -0.149621 0.814000 8094094
0.129624 -0.145148 0.815000 6693181
0.130896 -0.141870 0.823000 7416596
0.133108 -0.199268 0.827000 12689011
0.131820 -0.192660 0.819000 13271933
0.131015 -0.186832 0.814000 12159085
0.130371 -0.181286 0.810000 5522986
0.130050 -0.176221 0.808000 9598517
0.130050 -0.171604 0.808000 6698278
0.130050 -0.166987 0.808000 7959092
0.130050 -0.162370 0.808000 8408887
0.130371 -0.158143 0.810000 10316033
0.130371 -0.153514 0.810000 8614484
0.130693 -0.149253 0.812000 8158352
0.131176 -0.145148 0.815000 7024715
0.132142 -0.141525 0.821000 6491930
0.134683 -0.199268 0.827000 13529689
0.133380 -0.192660 0.819000 13067369
0.132566 -0.186832 0.814000 11299690
0.131589 -0.180838 0.808000 5973021
0.131589 -0.176221 0.808000 9402923
0.131589 -0.171604 0.808000 7950118
0.131589 -0.166987 0.808000 8149574
0.131914 -0.162771 0.810000 8145716
0.131589 -0.157752 0.808000 11696899
0.131914 -0.153514 0.810000 7828309
0.131914 -0.148886 0.810000 8293012
0.132566 -0.144970 0.814000 7358293
0.133706 -0.141525 0.821000 5572166
0.136258 -0.199268 0.827000 11349823
0.134940 -0.192660 0.819000 11490645
0.133787 -0.186373 0.812000 9913959
0.133128 -0.180838 0.808000 4522256
0.132798 -0.175785 0.806000 9588001
0.133128 -0.171604 0.808000 9524518
0.133128 -0.166987 0.808000 7625815
0.133128 -0.162370 0.808000 8466224
0.133128 -0.157752 0.808000 11697157
0.133128 -0.153135 0.808000 6711638
0.133457 -0.148886 0.810000 8749976
0.134116 -0.144970 0.814000 6768992
0.135270 -0.141525 0.821000 7228530
0.137833 -0.199268 0.827000 9187696
0.136500 -0.192660 0.819000 9854623
0.135333 -0.186373 0.812000 8540077
0.134333 -0.180390 0.806000 3025493
0.134333 -0.175785 0.806000 9780497
0.134333 -0.171179 0.806000 11027490
0.134667 -0.166987 0.808000 7098934
0.134667 -0.162370 0.808000 8736040
0.134667 -0.157752 0.808000 11696156
0.134667 -0.153135 0.808000 5534319
0.135000 -0.148886 0.810000 9141655
0.135667 -0.144970 0.814000 6108761
0.136833 -0.141525 0.821000 8809541
0.139409 -0.199268 0.827000 8610977
0.138060 -0.192660 0.819000 9867242
0.136543 -0.185914 0.810000 8422643
0.135869 -0.180390 0.806000 5075610
0.135869 -0.175785 0.806000 7021313
0.135869 -0.171179 0.806000 8985118
0.136206 -0.166987 0.808000 7548437
0.136206 -0.162370 0.808000 8471841
0.136206 -0.157752 0.808000 10247731
0.136206 -0.153135 0.808000 6388103
0.136543 -0.148886 0.810000 8944021
0.137217 -0.144970 0.814000 4981074
0.138060 -0.141180 0.819000 7884311
0.139620 -0.192660 0.819000 9810420
0.138086 -0.185914 0.810000 8368371
0.137404 -0.180390 0.806000 7042980
0.137404 -0.175785 0.806000 4336722
0.137404 -0.171179 0.806000 6895201
0.137745 -0.166987 0.808000 8067651
0.137745 -0.162370 0.808000 8207399
0.137745 -0.157752 0.808000 8802340
0.137745 -0.153135 0.808000 7239313
0.137745 -0.148518 0.808000 8813969
0.138427 -0.144613 0.812000 3879003
0.139620 -0.141180 0.819000 7020321
0.140835 -0.192190 0.817000 9681406
0.139629 -0.185914 0.810000 8431090
0.138939 -0.180390 0.806000 7111853
0.138939 -0.175785 0.806000 5990306
0.138939 -0.171179 0.806000 7372965
0.138939 -0.166573 0.806000 6701169
0.138939 -0.161968 0.806000 5519917
0.139284 -0.157752 0.808000 8535573
0.139284 -0.153135 0.808000 7306394
0.139284 -0.148518 0.808000 8879500
0.139973 -0.144613 0.812000 6903908
0.141180 -0.141180 0.819000 5509162
0.142391 -0.192190 0.817000 9549822
0.141171 -0.185914 0.810000 8560365
0.140474 -0.180390 0.806000 7110572
0.140474 -0.175785 0.806000 7700898
0.140474 -0.171179 0.806000 7766948
0.140474 -0.166573 0.806000 5401228
0.140474 -0.161968 0.806000 2766435
0.140474 -0.157362 0.806000 8335692
0.140823 -0.153135 0.808000 7372188
0.140823 -0.148518 0.808000 9010316
0.141520 -0.144613 0.812000 9858674
0.142391 -0.140835 0.817000 4065878
0.143948 -0.192190 0.817000 10008574
0.142714 -0.185914 0.810000 9152487
0.142010 -0.180390 0.806000 7568044
0.142010 -0.175785 0.806000 7832226
0.142010 -0.171179 0.806000 7832739
0.142010 -0.166573 0.806000 6651815
0.142010 -0.161968 0.806000 4475289
0.142010 -0.157362 0.806000 7691651
0.142010 -0.152756 0.806000 7634590
0.142362 -0.148518 0.808000 9075852
0.142714 -0.144257 0.810000 9731712
0.143595 -0.140490 0.815000 5782657
0.145148 -0.191719 0.815000 10402301
0.144613 -0.186373 0.812000 9810929
0.143545 -0.180390 0.806000 7962278
0.143545 -0.175785 0.806000 7963815
0.143545 -0.171179 0.806000 7898532
0.143545 -0.166573 0.806000 7963812
0.143545 -0.161968 0.806000 6125219
0.143545 -0.157362 0.806000 7107479
0.143545 -0.152756 0.806000 7832223
0.143901 -0.148518 0.808000 9206668
0.144613 -0.144613 0.812000 9599353
0.145148 -0.140490 0.815000 7434354
0.146700 -0.191719 0.815000 10664188
0.146160 -0.186373 0.812000 10072826
0.145080 -0.180390 0.806000 8159136
0.145080 -0.175785 0.806000 8292524
0.145080 -0.171179 0.806000 8161189
0.144720 -0.166160 0.804000 8160417
0.144720 -0.161566 0.804000 7311022
0.145080 -0.157362 0.806000 7833002
0.145080 -0.152756 0.806000 8095648
0.145440 -0.148518 0.808000 9272716
0.145800 -0.144257 0.810000 9861235
0.146700 -0.140490 0.815000 8548963
0.148252 -0.191719 0.815000 10927098
0.147707 -0.186373 0.812000 10341116
0.146615 -0.180390 0.806000 8355498
0.146251 -0.175349 0.804000 8555680
0.146615 -0.171179 0.806000 8358820
0.146251 -0.166160 0.804000 8357284
0.146251 -0.161566 0.804000 8488604
