# .PCD v.7 - Point Cloud Data file format
VERSION .7
FIELDS x y z rgb
SIZE 4 4 4 4
TYPE F F F I
COUNT 1 1 1 1
WIDTH 1325
HEIGHT 1
POINTS 1325
DATA ascii
0.047366 -0.013450 0.614000 13879251
0.046980 -0.009860 0.609000 10913923
0.045977 -0.006244 0.596000 13874266
0.045823 -0.002829 0.594000 12950354
0.045360 0.000560 0.588000 13412014
0.044897 0.003880 0.582000 14011889
0.044666 0.007169 0.579000 14603493
0.044280 0.010387 0.574000 10785158
0.043817 0.013524 0.568000 3822514
0.043663 0.016710 0.566000 5069995
0.043509 0.019874 0.564000 5405126
0.042969 0.022810 0.557000 7046599
0.042891 0.025947 0.556000 8943459
0.042814 0.029071 0.555000 4144762
0.042891 0.032301 0.556000 8552071
0.043046 0.035606 0.558000 12289407
0.043277 0.039003 0.561000 12811918
0.043509 0.042434 0.564000 12882573
0.043663 0.045819 0.566000 11907468
0.044049 0.049487 0.571000 11569031
0.044126 0.052842 0.572000 11563129
0.044357 0.056405 0.575000 11368298
0.044357 0.059690 0.575000 12813685
0.044280 0.062867 0.574000 11108729
0.044743 0.066838 0.580000 14200750
0.048693 -0.017013 0.616000 12888260
0.048535 -0.013450 0.614000 13812949
0.048140 -0.009860 0.609000 12220297
0.047112 -0.006244 0.596000 14066004
0.046954 -0.002829 0.594000 13407316
0.046480 0.000560 0.588000 12824747
0.046006 0.003880 0.582000 14267349
0.045769 0.007169 0.579000 14863065
0.045452 0.010405 0.575000 11900830
0.044899 0.013524 0.568000 3042217
0.044662 0.016681 0.565000 5135535
0.044583 0.019874 0.564000 5536201
0.044267 0.022933 0.560000 7704001
0.044030 0.025993 0.557000 7956845
0.044030 0.029176 0.557000 3489665
0.044030 0.032359 0.557000 10582916
0.044109 0.035606 0.558000 12289922
0.044662 0.039281 0.565000 13012878
0.044662 0.042510 0.565000 12753804
0.045057 0.046143 0.570000 12159096
0.045215 0.049573 0.572000 12354429
0.045294 0.052934 0.573000 11570046
0.045610 0.056601 0.577000 11706230
0.045610 0.059898 0.577000 12354926
0.045927 0.063633 0.581000 11171982
0.049867 -0.017013 0.616000 13681106
0.049705 -0.013450 0.614000 13482968
0.049300 -0.009860 0.609000 12753039
0.048248 -0.006244 0.596000 12880719
0.048005 -0.002824 0.593000 13144662
0.047600 0.000560 0.588000 13022631
0.047114 0.003880 0.582000 13675704
0.046790 0.007156 0.578000 15191246
0.046548 0.010405 0.575000 12362422
0.045981 0.013524 0.568000 6781344
0.045819 0.016710 0.566000 4743090
0.045657 0.019874 0.564000 5208524
0.045333 0.022933 0.560000 8622011
0.045171 0.026040 0.558000 5788792
0.045090 0.029176 0.557000 3816071
0.045090 0.032359 0.557000 11179138
0.045738 0.036052 0.565000 11899269
0.045738 0.039281 0.565000 11766414
0.045900 0.042660 0.567000 12686218
0.046224 0.046224 0.571000 11823461
0.046386 0.049660 0.573000 12158578
0.046548 0.053119 0.575000 12558212
0.046710 0.056601 0.577000 12361858
0.046790 0.060002 0.578000 11304551
0.047033 0.063633 0.581000 11835298
0.051040 -0.017013 0.616000 14405086
0.050874 -0.013450 0.614000 13155544
0.050460 -0.009860 0.609000 13214357
0.049383 -0.006244 0.596000 11634765
0.049134 -0.002824 0.593000 12878157
0.048803 0.000561 0.589000 13152146
0.048223 0.003880 0.582000 13150912
0.047974 0.007169 0.579000 15453127
0.047643 0.010405 0.575000 12820171
0.047146 0.013548 0.569000 10524055
0.046897 0.016710 0.566000 4283326
0.046731 0.019874 0.564000 4881873
0.046483 0.022974 0.561000 9542289
0.046317 0.026087 0.559000 3558014
0.046151 0.029176 0.557000 4144000
0.046151 0.032359 0.557000 11764608
0.046814 0.036052 0.565000 11510420
0.046897 0.039350 0.566000 10458517
0.047146 0.042810 0.569000 12688775
0.047394 0.046305 0.572000 11434100
0.047477 0.049660 0.573000 12032117
0.047726 0.053211 0.576000 13540997
0.047974 0.056797 0.579000 13082751
0.048140 0.060313 0.581000 10248306
0.048306 0.063852 0.583000 12502706
0.052213 -0.017013 0.616000 14470890
0.052044 -0.013450 0.614000 13417945
0.051620 -0.009860 0.609000 12886682
0.050603 -0.006254 0.597000 11497547
0.050264 -0.002824 0.593000 12879940
0.049925 0.000561 0.589000 13348220
0.049331 0.003880 0.582000 13547464
0.049077 0.007169 0.579000 15255489
0.048738 0.010405 0.575000 12890335
0.048230 0.013548 0.569000 12368783
0.047975 0.016710 0.566000 5402569
0.047890 0.019910 0.565000 5996759
0.047551 0.022974 0.561000 8289127
0.047467 0.026133 0.560000 3883139
0.047382 0.029281 0.559000 5062520
0.047467 0.032533 0.560000 11633023
0.047890 0.036052 0.565000 12494243
0.047975 0.039350 0.566000 11968669
0.048314 0.042886 0.570000 12030339
0.048569 0.046386 0.573000 11438978
0.048653 0.049747 0.574000 12753016
0.048908 0.053304 0.577000 13343878
0.049247 0.056993 0.581000 12619388
0.049416 0.060521 0.583000 8006013
0.049586 0.064071 0.585000 13155265
0.053213 -0.013450 0.614000 13615325
0.052693 -0.009844 0.608000 12625308
0.051740 -0.006254 0.597000 11303247
0.051307 -0.002819 0.592000 12815931
0.051047 0.000561 0.589000 13544311
0.050527 0.003887 0.583000 14014156
0.050180 0.007169 0.579000 14992574
0.049833 0.010405 0.575000 13028819
0.049313 0.013548 0.569000 14129566
0.049053 0.016710 0.566000 6455487
0.048880 0.019874 0.564000 7113677
0.048707 0.023015 0.562000 7102837
0.048620 0.026180 0.561000 4211335
0.048620 0.029386 0.561000 5977721
0.048793 0.032708 0.563000 11437186
0.048967 0.036052 0.565000 13544091
0.049140 0.039420 0.567000 13475471
0.049487 0.042961 0.571000 11432825
0.049660 0.046386 0.573000 11369330
0.049833 0.049833 0.575000 13475706
0.049920 0.053211 0.576000 13147521
0.050440 0.057091 0.582000 12156030
0.050613 0.060625 0.584000 5726335
0.054383 -0.013450 0.614000 13614562
0.053851 -0.009844 0.608000 12954013
0.053409 -0.006317 0.603000 11302739
0.052434 -0.002819 0.592000 12947761
0.052080 0.000560 0.588000 13609331
0.051637 0.003887 0.583000 14470096
0.051283 0.007169 0.579000 15058108
0.050929 0.010405 0.575000 13878727
0.050486 0.013571 0.570000 11958445
0.050220 0.016740 0.567000 8294068
0.050043 0.019910 0.565000 7966148
0.049866 0.023056 0.563000 5852547
0.049777 0.026227 0.562000 4080522
0.049954 0.029543 0.564000 6179193
0.049866 0.032708 0.563000 11368325
0.050043 0.036052 0.565000 13541778
0.050220 0.039420 0.567000 13342082
0.050574 0.042961 0.571000 11300719
0.050751 0.046386 0.573000 11430499
0.050840 0.049747 0.574000 13475451
0.051106 0.053304 0.577000 13278588
0.051549 0.057091 0.582000 10448256
0.051814 0.060729 0.585000 8875394
0.055462 -0.013428 0.613000 13615317
0.054829 -0.009811 0.606000 13350562
0.054557 -0.006317 0.603000 11303761
0.053562 -0.002819 0.592000 13013039
0.053200 0.000560 0.588000 13676410
0.052748 0.003887 0.583000 14929094
0.052386 0.007169 0.579000 15123386
0.052024 0.010405 0.575000 14665923
0.051571 0.013571 0.570000 9804473
0.051300 0.016740 0.567000 10066836
0.051029 0.019874 0.564000 8813995
0.050938 0.023056 0.563000 4600714
0.051029 0.026320 0.564000 3883660
0.051119 0.029595 0.565000 6437258
0.050938 0.032708 0.563000 11306886
0.051119 0.036052 0.565000 13606282
0.051752 0.039768 0.572000 13210242
0.051843 0.043111 0.573000 11176312
0.051933 0.046467 0.574000 11439733
0.051933 0.049747 0.574000 13539964
0.052567 0.053673 0.581000 13406841
0.052838 0.057288 0.584000 8683370
0.053019 0.060832 0.586000 11963025
0.056630 -0.013428 0.613000 13417160
0.055890 -0.009795 0.605000 11176359
0.055706 -0.006317 0.603000 11039568
0.054690 -0.002819 0.592000 13276460
0.054320 0.000560 0.588000 13874305
0.053766 0.003880 0.582000 14926267
0.053489 0.007169 0.579000 15188665
0.053027 0.010387 0.574000 14993598
0.052657 0.013571 0.570000 11578822
0.052380 0.016740 0.567000 10916723
0.052195 0.019910 0.565000 8349843
0.052010 0.023056 0.563000 5982864
0.052195 0.026367 0.565000 5983886
0.052195 0.029595 0.565000 8283802
0.052010 0.032708 0.563000 11436680
0.052842 0.036499 0.572000 13606785
0.052934 0.039837 0.573000 11963778
0.053119 0.043262 0.575000 11306881
0.053027 0.046467 0.574000 12557959
0.053027 0.049747 0.574000 13475197
0.053766 0.053766 0.582000 12485238
0.053950 0.057288 0.584000 8931667
0.054228 0.060936 0.587000 13220769
0.057891 -0.013450 0.614000 13150919
0.056949 -0.009779 0.604000 9001584
0.056760 -0.006307 0.602000 10777434
0.055911 -0.002824 0.593000 13544232
0.055440 0.000560 0.588000 14071169
0.054969 0.003887 0.583000 14859955
0.054497 0.007156 0.578000 15254198
0.054120 0.010387 0.574000 15385017
0.053743 0.013571 0.570000 13352653
0.053554 0.016770 0.568000 11833240
0.053271 0.019910 0.565000 7896960
0.053177 0.023097 0.564000 7437175
0.053271 0.026367 0.565000 8023668
0.053366 0.029648 0.566000 10188430
0.054026 0.033289 0.573000 11569285
0.054026 0.036563 0.573000 13606536
0.054309 0.040046 0.576000 10711411
0.054309 0.043337 0.576000 11437184
0.054309 0.046629 0.576000 13605000
0.054120 0.049747 0.574000 13344630
0.055063 0.053950 0.584000 11567482
0.055157 0.057386 0.585000 9182047
0.059061 -0.013450 0.614000 13217221
0.058099 -0.009779 0.604000 9201208
0.057810 -0.006296 0.601000 11173220
0.057233 -0.002833 0.595000 14134819
0.056560 0.000560 0.588000 13939842
0.056079 0.003887 0.583000 14990762
0.055694 0.007169 0.579000 15254196
0.055213 0.010387 0.574000 15320244
0.054829 0.013571 0.570000 14274260
0.054636 0.016770 0.568000 12231613
0.054348 0.019910 0.565000 9999469
0.054348 0.023138 0.565000 9338718
0.054348 0.026367 0.565000 9272410
0.054540 0.029700 0.567000 10716034
0.055117 0.033289 0.573000 11566466
0.055213 0.036627 0.574000 13672847
0.055406 0.040046 0.576000 10304613
0.055406 0.043337 0.576000 11899263
0.055502 0.046710 0.577000 13474953
0.055213 0.049747 0.574000 12817519
0.056271 0.054043 0.585000 10252927
0.056271 0.057386 0.585000 10115946
0.060230 -0.013450 0.614000 13217738
0.059250 -0.009779 0.604000 9400710
0.058955 -0.006296 0.601000 11505525
0.058465 -0.002838 0.596000 14792732
0.057680 0.000560 0.588000 13808790
0.057288 0.003893 0.584000 15188653
0.056895 0.007181 0.580000 15188660
0.056405 0.010405 0.575000 15320499
0.055914 0.013571 0.570000 15124161
0.055718 0.016770 0.568000 12629712
0.055424 0.019910 0.565000 12031877
0.055424 0.023138 0.565000 11304562
0.055620 0.026460 0.567000 10521226
0.055816 0.029805 0.569000 11309218
0.056209 0.033289 0.573000 11568255
0.056405 0.036690 0.575000 13738373
0.056601 0.040115 0.577000 9860460
0.056601 0.043412 0.577000 12360041
0.056601 0.046710 0.577000 13278597
0.057680 0.050960 0.588000 12291968
0.057582 0.054228 0.587000 8875906
0.057974 0.057974 0.591000 11047820
0.061400 -0.013450 0.614000 13942222
0.060500 -0.009795 0.605000 11510484
0.060000 -0.006286 0.600000 11832455
0.059700 -0.002843 0.597000 14594836
0.058800 0.000560 0.588000 13937579
0.058300 0.003887 0.583000 14596527
0.058000 0.007181 0.580000 15253941
0.057600 0.010423 0.576000 14463154
0.057100 0.013595 0.571000 14992558
0.056800 0.016770 0.568000 13286627
0.056500 0.019910 0.565000 12296861
0.056500 0.023138 0.565000 11900038
0.056700 0.026460 0.567000 11974586
0.057000 0.029857 0.570000 12099010
0.057300 0.033289 0.573000 11238011
0.057600 0.036754 0.576000 13146747
0.057700 0.040115 0.577000 10384500
0.057900 0.043563 0.579000 12093522
0.058500 0.047357 0.585000 13213057
0.058800 0.050960 0.588000 11172241
0.058900 0.054412 0.589000 10254212
0.059200 0.058072 0.592000 11904174
0.062468 -0.013428 0.613000 14597061
0.061754 -0.009811 0.606000 13615055
0.061143 -0.006286 0.600000 12164769
0.060837 -0.002843 0.597000 14400326
0.059920 0.000560 0.588000 14070963
0.059410 0.003887 0.583000 14069670
0.059105 0.007181 0.580000 15319217
0.058697 0.010423 0.576000 13610400
0.058188 0.013595 0.571000 14860727
0.057984 0.016799 0.569000 13939359
0.057780 0.019980 0.567000 12557415
0.057780 0.023220 0.567000 12556631
0.057984 0.026553 0.569000 13347499
0.058290 0.029962 0.572000 12820666
0.058493 0.033347 0.574000 10910078
0.058799 0.036818 0.577000 12557960
0.059003 0.040254 0.579000 10913405
0.059105 0.043638 0.580000 11904878
0.059614 0.047357 0.585000 13143683
0.059920 0.050960 0.588000 10058116
0.060022 0.054412 0.589000 11636644
0.060328 0.058072 0.592000 12762808
0.063531 -0.013406 0.612000 14333372
0.063116 -0.009844 0.608000 13614282
0.062286 -0.006286 0.600000 12494523
0.061974 -0.002843 0.597000 14465656
0.061040 0.000560 0.588000 14399931
0.060521 0.003887 0.583000 14068637
0.060106 0.007169 0.579000 15321006
0.059690 0.010405 0.575000 13541774
0.059275 0.013595 0.571000 14666945
0.058964 0.016770 0.568000 13016667
0.058860 0.019980 0.567000 11630897
0.058860 0.023220 0.567000 11765031
0.059068 0.026553 0.569000 12292509
0.059379 0.029962 0.572000 12755890
0.059794 0.033463 0.576000 10571393
0.060106 0.036946 0.579000 13083028
0.060106 0.040254 0.579000 12366214
0.060313 0.043713 0.581000 12163721
0.060832 0.047438 0.586000 11961222
0.061144 0.051047 0.589000 11044215
0.061351 0.054597 0.591000 12693699
0.061559 0.058170 0.593000 13089986
0.064697 -0.013406 0.612000 14005437
0.064274 -0.009844 0.608000 13612747
0.063323 -0.006275 0.599000 12758204
0.062900 -0.002833 0.595000 14601645
0.062054 0.000559 0.587000 14662838
0.061631 0.003887 0.583000 14002341
0.061209 0.007169 0.579000 15320497
0.060786 0.010405 0.575000 13539478
0.060363 0.013595 0.571000 14403015
0.060151 0.016799 0.569000 12091735
0.059940 0.019980 0.567000 10648379
0.060046 0.023261 0.568000 10974521
0.060363 0.026647 0.571000 11239811
0.060574 0.030014 0.573000 12754839
0.060891 0.033463 0.576000 10256007
0.061209 0.036946 0.579000 13540730
0.061209 0.040254 0.579000 13736577
0.061314 0.043638 0.580000 12422026
0.061949 0.047438 0.586000 10780818
0.062266 0.051047 0.589000 12033190
0.062477 0.054597 0.591000 13745864
0.062794 0.058269 0.594000 13484468
0.065432 -0.009844 0.608000 13875660
0.064464 -0.006275 0.599000 12559038
0.064033 -0.002833 0.595000 14601698
0.063172 0.000559 0.587000 14727602
0.062742 0.003887 0.583000 14528940
0.062311 0.007169 0.579000 14994101
0.061989 0.010423 0.576000 13873054
0.061450 0.013595 0.571000 14531532
0.061343 0.016829 0.570000 12029010
0.061128 0.020015 0.568000 11174213
0.061235 0.023302 0.569000 10517578
0.061558 0.026693 0.572000 9722217
0.061881 0.030119 0.575000 11305083
0.061989 0.033463 0.576000 11966093
0.062634 0.037137 0.582000 12219487
0.062527 0.040393 0.581000 12610428
0.062419 0.043638 0.580000 12159627
0.063280 0.047600 0.588000 11568286
0.063603 0.051220 0.591000 13022676
0.063710 0.054690 0.592000 13746126
0.065605 -0.006275 0.599000 12299459
0.065167 -0.002833 0.595000 14669532
0.064290 0.000559 0.587000 14727347
0.063852 0.003887 0.583000 15054508
0.063414 0.007169 0.579000 14660008
0.063086 0.010423 0.576000 14203830
0.062538 0.013595 0.571000 14599895
0.062319 0.016799 0.569000 11967371
0.062210 0.020015 0.568000 11636335
0.062429 0.023343 0.570000 10060898
0.062648 0.026693 0.572000 8150627
0.062976 0.030119 0.575000 9922157
0.063414 0.033637 0.579000 13673375
0.063852 0.037201 0.583000 10911624
0.063962 0.040602 0.584000 11505307
0.064400 0.044240 0.588000 11900832
0.064619 0.047762 0.590000 12363692
0.064838 0.051307 0.592000 14073553
0.064948 0.054782 0.593000 13745088
0.066523 -0.006254 0.597000 12495560
0.066300 -0.002833 0.595000 14666453
0.065409 0.000559 0.587000 14924724
0.064963 0.003887 0.583000 15055019
0.064517 0.007169 0.579000 13605275
0.064183 0.010423 0.576000 14074318
0.063737 0.013619 0.572000 14142177
0.063514 0.016829 0.570000 12495811
0.063514 0.020086 0.570000 11706777
0.063626 0.023384 0.571000 10058873
0.063849 0.026740 0.573000 8611420
0.064294 0.030224 0.577000 9790815
0.064963 0.033870 0.583000 13349808
0.064963 0.037201 0.583000 11966640
0.065520 0.040880 0.588000 12561849
0.065631 0.044315 0.589000 12362164
0.065854 0.047843 0.591000 12563131
0.066077 0.051393 0.593000 13744845
0.066300 0.054967 0.595000 14006195
0.067660 -0.006254 0.597000 12629193
0.067433 -0.002833 0.595000 14734547
0.066527 0.000559 0.587000 15122359
0.066187 0.003893 0.584000 15123127
0.065507 0.007156 0.578000 12492962
0.065167 0.010405 0.575000 14013403
0.064827 0.013619 0.572000 13612232
0.064713 0.016858 0.571000 12955073
0.064713 0.020121 0.571000 11705238
0.064827 0.023425 0.572000 10061720
0.065167 0.026833 0.575000 9006190
0.065620 0.030329 0.579000 9658739
0.066187 0.033928 0.584000 12955320
0.066413 0.037392 0.586000 13020081
0.066640 0.040880 0.588000 13547956
0.066980 0.044466 0.591000 12822715
0.067207 0.048005 0.593000 12758209
0.067433 0.051567 0.595000 13350808
0.067547 0.055059 0.596000 14200730
0.068797 -0.006254 0.597000 13020618
0.068682 -0.002838 0.596000 14994896
0.067760 0.000560 0.588000 15253433
0.067299 0.003893 0.584000 14861506
0.066723 0.007169 0.579000 13080233
0.066262 0.010405 0.575000 13880807
0.065916 0.013619 0.572000 12424367
0.065801 0.016858 0.571000 12296895
0.065916 0.020156 0.572000 11636626
0.066262 0.023548 0.575000 10851255
0.066608 0.026973 0.578000 9928576
0.066953 0.030433 0.581000 10914182
0.067184 0.033870 0.583000 12823743
0.067645 0.037456 0.587000 13020337
0.067990 0.041019 0.590000 13548719
0.068221 0.044541 0.592000 13021634
0.068451 0.048086 0.594000 12825031
0.068682 0.051653 0.596000 13214562
0.068797 0.055151 0.597000 12824706
0.069817 -0.002838 0.596000 15257807
0.068880 0.000560 0.588000 15319737
0.068411 0.003893 0.584000 14600630
0.067826 0.007169 0.579000 13611442
0.067474 0.010423 0.576000 13815518
0.067123 0.013643 0.573000 11179181
0.067240 0.016947 0.574000 11706788
0.067240 0.020227 0.574000 11505796
0.067826 0.023711 0.579000 11641499
0.067943 0.027067 0.580000 10782334
0.068177 0.030486 0.582000 12236199
0.068411 0.033928 0.584000 12693181
0.068880 0.037520 0.588000 13019804
0.069114 0.041019 0.590000 13547449
0.069349 0.044541 0.592000 13284540
0.069700 0.048167 0.595000 12887988
0.069934 0.051740 0.597000 13144693
0.070169 0.055336 0.599000 11431012
0.070000 -0.002800 0.588000 15323085
0.070000 0.000560 0.588000 15450553
0.069762 0.003907 0.586000 14136233
0.068810 0.007156 0.578000 13876666
0.068571 0.010423 0.576000 13418452
0.068452 0.013690 0.575000 11243691
0.068571 0.017006 0.576000 11373705
0.068452 0.020262 0.575000 12227702
0.068929 0.023711 0.579000 12166015
0.069286 0.027160 0.582000 11440253
0.069405 0.030538 0.583000 12366535
0.069881 0.034102 0.587000 12363707
0.070119 0.037584 0.589000 12426119
0.070357 0.041089 0.591000 13614275
0.070595 0.044616 0.593000 12622518
0.070952 0.048248 0.596000 12551584
0.071190 0.051827 0.598000 12754312
0.071310 0.055336 0.599000 9649222
0.071120 -0.002800 0.588000 15453900
0.071120 0.000560 0.588000 15517628
0.070878 0.003907 0.586000 13740695
0.070031 0.007169 0.579000 14073285
0.069790 0.010441 0.577000 13087166
0.069669 0.013714 0.576000 11242138
0.069790 0.017035 0.577000 11112049
0.070031 0.020403 0.579000 12949598
0.070273 0.023793 0.581000 12691283
0.070515 0.027207 0.583000 12030837
0.070636 0.030590 0.584000 12561059
0.070999 0.034102 0.587000 12030619
0.071241 0.037584 0.589000 11831948
0.071483 0.041089 0.591000 13606305
0.071846 0.044691 0.594000 12031927
0.072330 0.048410 0.598000 12231602
0.072571 0.052000 0.600000 12426644
0.072240 0.000560 0.588000 15649471
0.071994 0.003907 0.586000 13476484
0.071134 0.007169 0.579000 14537681
0.070889 0.010441 0.577000 12623271
0.071011 0.013762 0.578000 10977417
0.071134 0.017094 0.579000 12030553
0.071257 0.020438 0.580000 12885319
0.071626 0.023875 0.583000 12490279
0.071749 0.027253 0.584000 11965549
0.071994 0.030695 0.586000 11830398
0.072240 0.034160 0.588000 11823740
0.072486 0.037648 0.590000 11175057
0.072854 0.041228 0.593000 11228031
0.073223 0.044842 0.596000 12954551
0.073714 0.048571 0.600000 13157316
0.073837 0.052087 0.601000 11565727
0.073360 0.000560 0.588000 15780545
0.073235 0.003913 0.587000 13277074
0.072237 0.007169 0.579000 14928592
0.072112 0.010459 0.578000 12167089
0.072237 0.013786 0.579000 10651268
0.072362 0.017124 0.580000 13014113
0.072487 0.020473 0.581000 12752992
0.072861 0.023916 0.584000 12356707
0.072986 0.027300 0.585000 11901320
0.073235 0.030748 0.587000 11109781
0.073610 0.034276 0.590000 11572629
0.073859 0.037775 0.592000 10592400
0.074233 0.041367 0.595000 8883859
0.074358 0.044842 0.596000 13875388
0.074857 0.048571 0.600000 14006198
0.075107 0.052173 0.602000 10773622
0.074607 0.000561 0.589000 15780548
0.074353 0.003913 0.587000 13412255
0.073720 0.007206 0.582000 14073552
0.073467 0.010495 0.580000 12032187
0.073467 0.013810 0.580000 11504511
0.073593 0.017153 0.581000 12817256
0.073847 0.020544 0.583000 12883321
0.074227 0.023998 0.586000 12622750
0.074227 0.027347 0.586000 12233891
0.074480 0.030800 0.588000 11771052
0.074860 0.034334 0.591000 12233391
0.075113 0.037839 0.593000 10654094
0.075367 0.041367 0.595000 11514280
0.075873 0.045068 0.599000 13875137
0.076253 0.048733 0.602000 13281192
0.076380 0.052260 0.603000 11566924
0.075729 0.000561 0.589000 15715262
0.075471 0.003913 0.587000 13475501
0.074829 0.007206 0.582000 13155277
0.074571 0.010495 0.580000 11961787
0.074571 0.013810 0.580000 12295325
0.074829 0.017183 0.582000 12621681
0.075086 0.020579 0.584000 12949876
0.075343 0.023998 0.586000 12889207
0.075471 0.027393 0.587000 12556932
0.075729 0.030852 0.589000 12426151
0.076114 0.034392 0.592000 12888499
0.076371 0.037903 0.594000 10782113
0.076629 0.041436 0.596000 14134960
0.077143 0.045143 0.600000 13940668
0.077529 0.048814 0.603000 12559786
0.077657 0.052347 0.604000 12419939
0.076981 0.000562 0.590000 15716281
0.076590 0.003913 0.587000 13610427
0.076068 0.007218 0.583000 13419466
0.075807 0.010513 0.581000 12888506
0.075807 0.013833 0.581000 12169404
0.076068 0.017212 0.583000 11899258
0.076329 0.020614 0.585000 11178607
0.076590 0.024039 0.587000 11039311
0.076720 0.027440 0.588000 11893862
0.076981 0.030905 0.590000 12294305
0.077372 0.034450 0.593000 13153463
0.077633 0.037967 0.595000 12033204
0.077894 0.041506 0.597000 13874617
0.078416 0.045218 0.601000 13809079
0.078808 0.048895 0.604000 12363181
0.078808 0.052347 0.604000 11368826
0.078105 0.000562 0.590000 15713467
0.077575 0.003907 0.586000 13812925
0.077178 0.007218 0.583000 13676732
0.077046 0.010531 0.582000 13738135
0.077046 0.013857 0.582000 12028775
0.077310 0.017242 0.584000 11108434
0.077575 0.020650 0.586000 9395783
0.077708 0.024039 0.587000 9261140
0.077972 0.027487 0.589000 11240565
0.078237 0.030957 0.591000 12228257
0.078767 0.034567 0.595000 13346737
0.078899 0.038030 0.596000 13280697
0.079296 0.041645 0.599000 13612992
0.079693 0.045293 0.602000 13743804
0.080090 0.048976 0.605000 12097952
0.079229 0.000562 0.590000 14792894
0.078691 0.003907 0.586000 13351614
0.078289 0.007218 0.583000 12028335
0.078020 0.010513 0.581000 12420980
0.078289 0.013881 0.583000 11165202
0.078557 0.017271 0.585000 10573098
0.078826 0.020685 0.587000 9655584
0.078826 0.024039 0.587000 10054233
0.079363 0.027580 0.591000 11176836
0.079631 0.031062 0.593000 12030624
0.079900 0.034567 0.595000 12358316
0.080034 0.038030 0.596000 13479102
0.080437 0.041645 0.599000 13876167
0.080974 0.045369 0.603000 12756673
0.081243 0.048976 0.605000 11436435
0.080489 0.000563 0.591000 13809591
0.079808 0.003907 0.586000 12956610
0.079399 0.007218 0.583000 10321824
0.079127 0.010513 0.581000 11176060
0.079399 0.013881 0.583000 10316837
0.079808 0.017301 0.586000 10048303
0.079944 0.020685 0.587000 9921316
0.080080 0.024080 0.588000 10844749
0.080761 0.027673 0.593000 11111294
0.081033 0.031167 0.595000 11834022
0.081170 0.034625 0.596000 11375277
0.081306 0.038094 0.597000 13676993
0.081850 0.041784 0.601000 14134185
0.082395 0.045519 0.605000 11766661
0.082668 0.049138 0.607000 10781848
0.081614 0.000563 0.591000 14135472
0.080786 0.003900 0.585000 13021126
0.080510 0.007218 0.583000 10714258
0.080371 0.010531 0.582000 11636611
0.080648 0.013905 0.584000 10974520
0.081062 0.017330 0.587000 10710067
0.081062 0.020685 0.587000 10582568
0.081614 0.024203 0.591000 10253889
0.082167 0.027767 0.595000 10650489
0.082443 0.031271 0.597000 12032683
0.082719 0.034799 0.599000 12229295
0.082719 0.038222 0.599000 13546947
0.083548 0.042062 0.605000 11894156
0.083962 0.045745 0.608000 10843208
0.082740 0.000563 0.591000 14400701
0.082180 0.003913 0.587000 13092556
0.081620 0.007218 0.583000 11111069
0.081620 0.010550 0.583000 12166824
0.082040 0.013952 0.586000 11633465
0.082320 0.017360 0.588000 11435840
0.082320 0.020720 0.588000 11239500
0.082740 0.024203 0.591000 9665133
0.083720 0.027907 0.598000 10120269
0.083860 0.031376 0.599000 12230050
0.084000 0.034857 0.600000 13019066
0.085120 0.038796 0.608000 13415324
0.084980 0.042201 0.607000 9662830
0.085260 0.045820 0.609000 9926768
0.083866 0.000563 0.591000 14730954
0.083298 0.003913 0.587000 13022673
0.083014 0.007243 0.585000 11966888
0.083014 0.010586 0.585000 12101581
0.083440 0.014000 0.588000 11570235
0.083582 0.017390 0.589000 11635789
0.083582 0.020755 0.589000 11371887
0.084859 0.024490 0.598000 10191512
0.085001 0.027953 0.599000 9918753
0.085143 0.031429 0.600000 12557976
0.085427 0.034973 0.602000 13218501
0.085994 0.038669 0.606000 12291700
0.086136 0.042201 0.607000 10249296
0.086420 0.045820 0.609000 11111064
0.084991 0.000563 0.591000 15054527
0.084560 0.003920 0.588000 13020112
0.084416 0.007268 0.587000 12823998
0.084560 0.010640 0.588000 12100534
0.084704 0.014024 0.589000 11500871
0.084991 0.017449 0.591000 11833715
0.084991 0.020826 0.591000 11437952
0.085998 0.024490 0.598000 10723731
0.086142 0.027953 0.599000 9663326
0.086430 0.031481 0.601000 12820649
0.086573 0.034973 0.602000 13412534
0.087005 0.038605 0.605000 11241614
0.087292 0.042201 0.607000 10849157
0.087580 0.045820 0.609000 12231082
0.085680 0.003920 0.588000 13481167
0.085680 0.007280 0.588000 13288660
0.085826 0.010658 0.589000 11308447
0.086263 0.014095 0.592000 10841170
0.086554 0.017537 0.594000 11768472
0.086409 0.020896 0.593000 11240337
0.087283 0.024530 0.599000 11507085
0.087429 0.028000 0.600000 11440795
0.087720 0.031533 0.602000 13084346
0.087866 0.035031 0.603000 13410728
0.088449 0.038732 0.607000 12557991
0.088449 0.042201 0.607000 12628666
0.089031 0.045970 0.611000 13283515
0.086652 0.003913 0.587000 13941718
0.086800 0.007280 0.588000 13744585
0.086948 0.010658 0.589000 10522524
0.087538 0.014119 0.593000 10189944
0.087833 0.017567 0.595000 11703193
0.087981 0.021002 0.596000 11046551
0.088424 0.024530 0.599000 12361879
0.088719 0.028047 0.601000 13149601
0.089014 0.031586 0.603000 13280947
0.089162 0.035090 0.604000 13411241
0.089605 0.038732 0.607000 13871017
0.089605 0.042201 0.607000 14332854
0.090195 0.045970 0.611000 14333112
0.087770 0.003913 0.587000 14138588
0.087920 0.007280 0.588000 13478847
0.088070 0.010658 0.589000 11636889
0.088518 0.014095 0.592000 11702941
0.088967 0.017567 0.595000 12360858
0.088668 0.020896 0.593000 12033181
0.089565 0.024530 0.599000 12755361
0.089864 0.028047 0.601000 13084327
0.090163 0.031586 0.603000 13280427
0.090462 0.035148 0.605000 13477034
0.090761 0.038732 0.607000 13805995
0.090761 0.042201 0.607000 14135729
0.091359 0.045970 0.611000 14135733
0.088889 0.003913 0.587000 14269637
0.089040 0.007280 0.588000 13150644
0.089343 0.010676 0.590000 12687517
0.089646 0.014095 0.592000 13147042
0.089949 0.017537 0.594000 13016732
0.089797 0.020896 0.593000 12950685
0.090706 0.024530 0.599000 13214112
0.091009 0.028047 0.601000 12952229
0.091463 0.031638 0.604000 13214634
0.091614 0.035148 0.605000 13477290
0.092523 0.045970 0.611000 14004151
0.090007 0.003913 0.587000 14069166
0.090160 0.007280 0.588000 13345193
0.090467 0.010676 0.590000 13016992
0.090620 0.014071 0.591000 13278375
0.090927 0.017508 0.593000 12950685
0.090773 0.020861 0.592000 12818846
0.091847 0.024530 0.599000 13082527
0.092153 0.028047 0.601000 12951459
0.092613 0.031638 0.604000 13214376
0.091125 0.007268 0.587000 13476519
0.091590 0.010676 0.590000 13279137
0.091746 0.014071 0.591000 13409443
0.092056 0.017508 0.593000 12884891
0.091901 0.020861 0.592000 12688027
0.092871 0.020826 0.591000 12687769
-0.049600 0.040000 0.560000 13675413
-0.050043 0.043586 0.565000 13410970
-0.050043 0.046814 0.565000 13214107
-0.050131 0.050131 0.566000 12885659
-0.050309 0.053554 0.568000 12425113
-0.048620 0.040071 0.561000 11897729
-0.048880 0.043509 0.564000 12164240
-0.048967 0.046814 0.565000 12293786
-0.049053 0.050131 0.566000 12361885
-0.049227 0.053554 0.568000 12162714
-0.049313 0.056900 0.569000 11899800
-0.049487 0.060363 0.571000 11768212
-0.047212 0.036603 0.557000 9530211
-0.047551 0.040071 0.561000 10114375
-0.047721 0.043431 0.563000 10908784
-0.047806 0.046731 0.564000 11435893
-0.047890 0.050043 0.565000 11829880
-0.048060 0.053460 0.567000 11964794
-0.048145 0.056800 0.568000 11895924
-0.048399 0.060363 0.571000 11899764
-0.049077 0.067826 0.579000 11242088
-0.045903 0.030074 0.554000 7884592
-0.045986 0.033300 0.555000 8605485
-0.046069 0.036537 0.556000 9593929
-0.046317 0.039929 0.559000 9322508
-0.046566 0.043354 0.562000 9720913
-0.046649 0.046649 0.563000 9987408
-0.046814 0.050043 0.565000 9854547
-0.046980 0.053460 0.567000 9989721
-0.047063 0.056800 0.568000 10052177
-0.047229 0.060257 0.570000 9857875
-0.047477 0.063849 0.573000 9329221
-0.047891 0.067709 0.578000 9201744
-0.044767 0.026860 0.553000 5656415
-0.044767 0.030020 0.553000 5123613
-0.044767 0.033180 0.553000 7491645
-0.044848 0.036406 0.554000 9596491
-0.045010 0.039714 0.556000 8548167
-0.045414 0.043277 0.561000 8478046
-0.045495 0.046566 0.562000 8544348
-0.045657 0.049954 0.564000 7888217
-0.045900 0.053460 0.567000 8085596
-0.045900 0.056700 0.567000 8216408
-0.046062 0.060151 0.569000 7885396
-0.046386 0.063849 0.573000 7030334
-0.046710 0.067591 0.577000 7228457
-0.046710 0.070889 0.577000 8281934
-0.043713 0.026860 0.553000 7433358
-0.043634 0.029966 0.552000 2819339
-0.043476 0.033000 0.550000 6241100
-0.043634 0.036274 0.552000 9467982
-0.043713 0.039500 0.553000 9338241
-0.044267 0.043200 0.560000 8741739
-0.044346 0.046483 0.561000 8610408
-0.044504 0.049866 0.563000 8018527
-0.044741 0.053366 0.566000 8150366
-0.044741 0.056600 0.566000 8413792
-0.044899 0.060046 0.568000 8346452
-0.045294 0.063849 0.573000 7486519
-0.045531 0.067474 0.576000 7420929
-0.045531 0.070766 0.576000 8083768
-0.042814 0.023786 0.555000 13217185
-0.042660 0.026860 0.553000 9213844
-0.042429 0.029857 0.550000 460855
-0.042351 0.032940 0.549000 5058126
-0.042429 0.036143 0.550000 9264961
-0.042583 0.039429 0.552000 10191997
-0.043123 0.043123 0.559000 9007216
-0.043123 0.046317 0.559000 8675167
-0.043431 0.049866 0.563000 8149595
-0.043586 0.053271 0.565000 8149590
-0.043586 0.056500 0.565000 8610137
-0.043663 0.059834 0.566000 8806484
-0.043894 0.063403 0.569000 7884870
-0.044357 0.067357 0.575000 7551790
-0.044434 0.070766 0.576000 7885632
-0.041757 0.023786 0.555000 13153698
-0.041607 0.026860 0.553000 11183769
-0.041306 0.029803 0.549000 3343459
-0.041230 0.032880 0.548000 6177103
-0.041230 0.036011 0.548000 8013620
-0.041381 0.039286 0.550000 9401721
-0.041682 0.042737 0.554000 9535350
-0.041908 0.046151 0.557000 8809046
-0.042058 0.049511 0.559000 8083031
-0.042133 0.052800 0.560000 8149581
-0.042434 0.056400 0.564000 8675923
-0.042510 0.059729 0.565000 8412500
-0.042735 0.063291 0.568000 8083285
-0.043036 0.067006 0.572000 8017242
-0.043111 0.070397 0.573000 7030855
-0.040700 0.023786 0.555000 13021856
-0.040553 0.026860 0.553000 13153705
-0.040187 0.029749 0.548000 6254730
-0.040187 0.032880 0.548000 7361867
-0.040187 0.036011 0.548000 6771266
-0.040260 0.039214 0.549000 8611678
-0.040553 0.042660 0.553000 10056798
-0.040700 0.045986 0.555000 8877404
-0.040847 0.049334 0.557000 8017999
-0.040920 0.052611 0.558000 8149568
-0.041213 0.056200 0.562000 8674889
-0.041360 0.059623 0.564000 8018257
-0.041507 0.063069 0.566000 8280659
-0.041727 0.066654 0.569000 8416865
-0.041873 0.070151 0.571000 6181447
-0.039643 0.023786 0.555000 12822175
-0.039500 0.026860 0.553000 13747129
-0.039214 0.029803 0.549000 9087665
-0.039143 0.032880 0.548000 7431239
-0.039071 0.035946 0.547000 7101008
-0.039143 0.039143 0.548000 7887683
-0.039429 0.042583 0.552000 8673863
-0.039500 0.045820 0.553000 8348257
-0.039643 0.049157 0.555000 8084039
-0.039714 0.052423 0.556000 8280883
-0.039929 0.055900 0.559000 8674624
-0.040214 0.059517 0.563000 8280653
-0.040286 0.062846 0.564000 8346193
-0.040429 0.066303 0.566000 8217447
-0.040714 0.070029 0.570000 7035208
-0.040857 0.073543 0.572000 7951171
-0.038586 0.023786 0.555000 12559509
-0.038447 0.026860 0.553000 14335936
-0.038099 0.029749 0.548000 11901338
-0.038030 0.032820 0.547000 7562058
-0.038030 0.035946 0.547000 7360343
-0.037960 0.039000 0.546000 7231310
-0.038169 0.042351 0.549000 7293777
-0.038308 0.045654 0.551000 7756118
-0.038516 0.049069 0.554000 8081741
-0.038586 0.052329 0.555000 8412227
-0.038725 0.055700 0.557000 8607819
-0.039003 0.059306 0.561000 8542280
-0.039142 0.062734 0.563000 8345924
-0.039281 0.066186 0.565000 8084306
-0.039490 0.069783 0.568000 7820107
-0.039698 0.073414 0.571000 8279108
-0.037529 0.023786 0.555000 12426635
-0.037393 0.026860 0.553000 13811911
-0.037055 0.029749 0.548000 10256514
-0.036920 0.032760 0.546000 5123917
-0.036785 0.035749 0.544000 5450846
-0.036852 0.038929 0.545000 5322585
-0.036988 0.042197 0.547000 5319772
-0.037055 0.045406 0.548000 5584971
-0.037326 0.048891 0.552000 5779796
-0.037461 0.052234 0.554000 6043474
-0.037596 0.055600 0.556000 6965846
-0.037867 0.059200 0.560000 8739907
-0.037934 0.062511 0.561000 8476471
-0.038205 0.066186 0.565000 7687996
-0.038340 0.069660 0.567000 6766415
-0.038408 0.073029 0.568000 6899268
-0.036471 0.023786 0.555000 12290681
-0.036340 0.026860 0.553000 13353161
-0.036011 0.029749 0.548000 8612229
-0.035814 0.032700 0.545000 2698880
-0.035683 0.035683 0.543000 3483994
-0.035749 0.038857 0.544000 3419223
-0.035814 0.042043 0.545000 3354457
-0.035946 0.045323 0.547000 3419471
-0.036011 0.048537 0.548000 3485778
-0.036274 0.052046 0.552000 3746641
-0.036471 0.055500 0.555000 5258069
-0.036669 0.058989 0.558000 8937538
-0.036800 0.062400 0.560000 8542015
-0.036997 0.065951 0.563000 7361867
-0.037260 0.069660 0.567000 5649995
-0.037260 0.072900 0.567000 5518919
-0.035733 0.020800 0.560000 9669299
-0.035414 0.023786 0.555000 10843495
-0.035287 0.026860 0.553000 12958154
-0.034968 0.029749 0.548000 8473992
-0.034712 0.032640 0.544000 6518194
-0.034585 0.035617 0.542000 3681879
-0.034649 0.038786 0.543000 3682900
-0.034712 0.041966 0.544000 3683925
-0.034776 0.045157 0.545000 3748434
-0.034968 0.048537 0.548000 3814481
-0.035095 0.051857 0.550000 3878992
-0.035223 0.055200 0.552000 4861013
-0.035478 0.058777 0.556000 9134144
-0.035606 0.062177 0.558000 8737864
-0.035861 0.065834 0.562000 8478041
-0.036116 0.069537 0.566000 5647944
-0.036116 0.072771 0.566000 4598858
-0.034667 0.020800 0.560000 9675443
-0.034357 0.023786 0.555000 9394779
-0.034233 0.026860 0.553000 12632782
-0.033986 0.029803 0.549000 8286608
-0.033676 0.032640 0.544000 10336441
-0.033552 0.035617 0.542000 3813984
-0.033552 0.038714 0.542000 3945038
-0.033614 0.041889 0.543000 3946067
-0.033614 0.044991 0.543000 4142160
-0.033800 0.048360 0.546000 4141905
-0.033924 0.051669 0.548000 4076111
-0.034110 0.055100 0.551000 4403027
-0.034233 0.058460 0.553000 9329980
-0.034357 0.061843 0.555000 8869189
-0.034667 0.065600 0.560000 9527372
-0.034729 0.068923 0.561000 5654597
-0.034914 0.072514 0.564000 3681869
-0.033600 0.020800 0.560000 9672115
-0.033420 0.023871 0.557000 7219792
-0.033180 0.026860 0.553000 12565457
-0.032940 0.029803 0.549000 7626393
-0.032580 0.032580 0.543000 10986687
-0.032520 0.035617 0.542000 3815528
-0.032520 0.038714 0.542000 4010824
-0.032520 0.041811 0.542000 4011345
-0.032580 0.044991 0.543000 4010830
-0.032700 0.048271 0.545000 4076368
-0.032820 0.051574 0.547000 4010574
-0.033000 0.055000 0.550000 4006226
-0.033060 0.058249 0.551000 8607287
-0.033240 0.061731 0.554000 8737858
-0.033540 0.065483 0.559000 9066814
-0.033540 0.068677 0.559000 7430978
-0.033660 0.072129 0.561000 4141392
-0.032533 0.020800 0.560000 9610664
-0.032359 0.023871 0.557000 4994122
-0.032127 0.026860 0.553000 12571355
-0.031894 0.029803 0.549000 6973563
-0.031546 0.032580 0.543000 11710661
-0.031430 0.035551 0.541000 3748717
-0.031371 0.038571 0.540000 4075860
-0.031255 0.041503 0.538000 4076882
-0.031488 0.044909 0.542000 3944783
-0.031546 0.048094 0.543000 4010831
-0.031662 0.051386 0.545000 3945296
-0.031836 0.054800 0.548000 3549521
-0.031952 0.058143 0.550000 7886139
-0.032069 0.061509 0.552000 8606268
-0.032359 0.065249 0.557000 8671797
-0.032301 0.068309 0.556000 9198912
-0.032417 0.071743 0.558000 4599880
-0.032359 0.074797 0.557000 3549260
-0.031467 0.020800 0.560000 9539741
-0.031242 0.023829 0.556000 3866949
-0.031017 0.026811 0.552000 12764644
-0.030792 0.029749 0.548000 6050398
-0.030511 0.032580 0.543000 11248842
-0.030343 0.035486 0.540000 3421297
-0.030174 0.038357 0.537000 3814239
-0.030118 0.041349 0.536000 3945556
-0.030230 0.044577 0.538000 3944784
-0.030455 0.048006 0.542000 3945294
-0.030568 0.051291 0.544000 3945041
-0.030792 0.054800 0.548000 3811920
-0.030792 0.057931 0.548000 6963263
-0.030905 0.061286 0.550000 8999734
-0.030961 0.064546 0.551000 8344363
-0.031242 0.068309 0.556000 8804158
-0.031298 0.071614 0.557000 5982015
-0.031298 0.074797 0.557000 3484749
-0.031467 0.078400 0.560000 6438721
-0.030400 0.020800 0.560000 9407603
-0.030183 0.023829 0.556000 2764128
-0.029966 0.026811 0.552000 12968945
-0.029749 0.029749 0.548000 5138296
-0.029477 0.032580 0.543000 10791859
-0.029260 0.035420 0.539000 3096952
-0.029097 0.038286 0.536000 3617115
-0.029097 0.041349 0.536000 3814228
-0.029097 0.044411 0.536000 3944784
-0.029206 0.047651 0.538000 3813968
-0.029423 0.051103 0.542000 3879249
-0.029640 0.054600 0.546000 4075087
-0.029749 0.057931 0.548000 6042439
-0.029803 0.061174 0.549000 9328182
-0.029911 0.064546 0.551000 8082229
-0.030129 0.068186 0.555000 8344639
-0.030237 0.071614 0.557000 7428672
-0.030237 0.074797 0.557000 3418700
-0.030400 0.078400 0.560000 5318973
-0.029281 0.020763 0.559000 9010248
-0.029124 0.023829 0.556000 4459643
-0.028914 0.026811 0.552000 14214142
-0.028705 0.029749 0.548000 7432083
-0.028443 0.032580 0.543000 9274780
-0.028233 0.035420 0.539000 5985151
-0.028076 0.038286 0.536000 4209494
-0.028024 0.041271 0.535000 3814228
-0.028076 0.044411 0.536000 3879504
-0.028129 0.047563 0.537000 3813971
-0.028338 0.051009 0.541000 3878992
-0.028443 0.054300 0.543000 3879247
-0.028652 0.057826 0.547000 4861774
-0.028705 0.061063 0.548000 9263158
-0.028757 0.064311 0.549000 8345663
-0.029019 0.068063 0.554000 8213312
-0.029124 0.071486 0.556000 8083009
-0.029124 0.074663 0.556000 3286092
-0.029229 0.078120 0.558000 4205368
-0.028216 0.020763 0.559000 8613720
-0.028065 0.023829 0.556000 6117522
-0.027812 0.026763 0.551000 15530237
-0.027661 0.029749 0.548000 9672893
-0.027358 0.032520 0.542000 7829352
-0.027156 0.035354 0.538000 8876167
-0.027055 0.038286 0.536000 4800622
-0.026954 0.041194 0.534000 3814229
-0.027005 0.044329 0.535000 3879248
-0.027055 0.047474 0.536000 3748176
-0.027257 0.050914 0.540000 3878992
-0.027358 0.054200 0.542000 3682383
-0.027510 0.057614 0.545000 3680331
-0.027661 0.061063 0.548000 9129534
-0.027661 0.064194 0.548000 8608844
-0.027913 0.067940 0.553000 8082497
-0.027964 0.071229 0.554000 8803134
-0.028065 0.074663 0.556000 3095116
-0.028166 0.078120 0.558000 3091776
-0.027200 0.020800 0.560000 8548455
-0.027006 0.023829 0.556000 7888554
-0.026763 0.026763 0.551000 15460348
-0.026617 0.029749 0.548000 12241639
-0.026374 0.032580 0.543000 7365939
-0.026131 0.035354 0.538000 9535120
-0.026034 0.038286 0.536000 5724806
-0.025937 0.041194 0.534000 3813975
-0.025937 0.044246 0.534000 3813968
-0.025986 0.047386 0.535000 3879502
-0.026229 0.050914 0.540000 4010319
-0.026326 0.054200 0.542000 3813711
-0.026423 0.057509 0.544000 3615304
-0.026569 0.060951 0.547000 6635334
-0.026520 0.063960 0.546000 9068377
-0.026714 0.067571 0.550000 8410179
-0.026811 0.070971 0.552000 8870459
-0.026957 0.074529 0.555000 5524299
-0.027054 0.077980 0.557000 3352904
-0.027103 0.081309 0.558000 6177851
-0.026367 0.017757 0.565000 10520713
-0.026133 0.020800 0.560000 8481635
-0.025947 0.023829 0.556000 9667488
-0.025760 0.026811 0.552000 15459067
-0.025527 0.029694 0.547000 14798057
-0.025293 0.032520 0.542000 6963787
-0.025060 0.035289 0.537000 10191742
-0.025013 0.038286 0.536000 6711951
-0.024873 0.041117 0.533000 3812957
-0.024873 0.044163 0.533000 3814226
-0.024920 0.047297 0.534000 3945041
-0.025200 0.050914 0.540000 4141394
-0.025107 0.053800 0.538000 3944785
-0.025387 0.057509 0.544000 3551052
-0.025480 0.060840 0.546000 4140614
-0.025433 0.063843 0.545000 9593421
-0.025433 0.066957 0.545000 8738365
-0.025620 0.070586 0.549000 9002300
-0.025853 0.074394 0.554000 7885385
-0.025947 0.077840 0.556000 3614784
-0.025947 0.081017 0.556000 3880004
-0.025290 0.017757 0.565000 8221821
-0.025067 0.020800 0.560000 8548190
-0.024888 0.023829 0.556000 9599126
-0.024619 0.026714 0.550000 15327738
-0.024395 0.029586 0.545000 14803435
-0.024261 0.032520 0.542000 7556706
-0.024037 0.035289 0.537000 10123372
-0.023903 0.038143 0.534000 8356247
-0.023813 0.041040 0.532000 3155811
-0.023769 0.043997 0.531000 3878740
-0.023813 0.047120 0.532000 4141140
-0.024037 0.050631 0.537000 4009556
-0.023992 0.053600 0.536000 3944276
-0.023903 0.056451 0.534000 3615568
-0.024440 0.060840 0.546000 3936838
-0.024261 0.063491 0.542000 7950144
-0.024261 0.066589 0.542000 8607542
-0.024440 0.070200 0.546000 9001788
-0.024574 0.073723 0.549000 8346951
-0.024843 0.077700 0.555000 3614264
-0.024843 0.080871 0.555000 3152461
-0.024171 0.017726 0.564000 5856104
-0.023957 0.020763 0.559000 8677216
-0.023786 0.023786 0.555000 9535104
-0.023571 0.026714 0.550000 15199471
-0.023357 0.029586 0.545000 14733797
-0.023229 0.032520 0.542000 8138075
-0.022971 0.035223 0.536000 9997157
-0.022886 0.038143 0.534000 10066307
-0.022757 0.040963 0.531000 2439788
-0.022671 0.043831 0.529000 3877705
-0.022714 0.046943 0.530000 4274761
-0.022586 0.049689 0.527000 3943504
-0.022843 0.053300 0.533000 3946058
-0.022843 0.056346 0.533000 3680325
-0.022971 0.059726 0.536000 3680320
-0.023229 0.063491 0.542000 6371908
-0.023229 0.066589 0.542000 8476734
-0.023357 0.070071 0.545000 8936002
-0.023486 0.073589 0.548000 8805443
-0.023614 0.077140 0.551000 3679806
-0.023700 0.080580 0.553000 2435399
-0.023743 0.083891 0.554000 7426374
-0.023138 0.017757 0.565000 5583699
-0.022851 0.020726 0.558000 8679265
-0.022729 0.023786 0.555000 9788778
-0.022524 0.026714 0.550000 14603748
-0.022319 0.029586 0.545000 14471646
-0.022114 0.032400 0.540000 9988435
-0.021950 0.035223 0.536000 11969374
-0.021869 0.038143 0.534000 10655087
-0.021705 0.040886 0.530000 6316406
-0.021623 0.043749 0.528000 6181181
-0.021664 0.046854 0.529000 6511165
-0.021582 0.049689 0.527000 6311756
-0.021787 0.053200 0.532000 6182209
-0.021828 0.056346 0.533000 5785146
-0.021910 0.059614 0.535000 5654586
-0.022114 0.063257 0.540000 6897735
-0.022196 0.066589 0.542000 8411205
-0.022237 0.069814 0.543000 8870215
-0.022360 0.073320 0.546000 8805440
-0.022442 0.076720 0.548000 5126212
-0.022565 0.080289 0.551000 4668480
-0.022647 0.083740 0.553000 7488082
-0.022062 0.017757 0.565000 5261403
-0.021828 0.020763 0.559000 8680286
-0.021671 0.023786 0.555000 10060405
-0.021515 0.026763 0.551000 14076875
-0.021281 0.029586 0.545000 14207709
-0.021086 0.032400 0.540000 11831113
-0.020930 0.035223 0.536000 13871169
-0.020812 0.038071 0.533000 11311719
-0.020695 0.040886 0.530000 10125451
-0.020617 0.043749 0.528000 8543571
-0.020617 0.046766 0.528000 8741200
-0.020578 0.049689 0.527000 8675664
-0.020773 0.053200 0.532000 8346179
-0.020773 0.056240 0.532000 7884340
-0.020930 0.059726 0.536000 7557171
-0.021008 0.063023 0.538000 7488825
-0.021125 0.066466 0.541000 8280912
-0.021164 0.069686 0.542000 8804941
-0.021281 0.073186 0.545000 8804937
-0.021320 0.076440 0.546000 6570053
-0.021437 0.079997 0.549000 6897730
-0.021554 0.083589 0.552000 7486797
-0.021097 0.014606 0.568000 10587542
-0.020986 0.017757 0.565000 5657444
-0.020689 0.020689 0.557000 8744538
-0.020614 0.023786 0.555000 11440512
-0.020466 0.026763 0.551000 13679282
-0.020206 0.029531 0.544000 14077403
-0.020094 0.032460 0.541000 12688959
-0.019909 0.035223 0.536000 13606693
-0.019797 0.038071 0.533000 11374431
-0.019649 0.040809 0.529000 10785184
-0.019574 0.043666 0.527000 8941417
-0.019574 0.046677 0.527000 8809572
-0.019574 0.049689 0.527000 8741716
-0.019649 0.052900 0.529000 8939334
-0.019760 0.056240 0.532000 8805934
-0.019909 0.059726 0.536000 8741420
-0.019946 0.062906 0.537000 8609066
-0.019983 0.066097 0.538000 9137755
-0.020131 0.069686 0.542000 8938578
-0.020169 0.072917 0.543000 8672593
-0.020243 0.076300 0.545000 6308166
-0.020354 0.079851 0.548000 6438467
-0.020429 0.083286 0.550000 7952967
-0.020015 0.014606 0.568000 9732511
-0.019910 0.017757 0.565000 5987939
-0.019628 0.020689 0.557000 8809047
-0.019557 0.023786 0.555000 12819581
-0.019416 0.026763 0.551000 13281978
-0.019170 0.029531 0.544000 13879247
-0.019029 0.032400 0.540000 13608004
-0.018888 0.035223 0.536000 13341498
-0.018782 0.038071 0.533000 11438170
-0.018641 0.040809 0.529000 11442077
-0.018570 0.043666 0.527000 9336193
-0.018535 0.046589 0.526000 8809054
-0.018535 0.049594 0.526000 8873307
-0.018606 0.052800 0.528000 9529431
-0.018676 0.056029 0.530000 9724990
-0.018747 0.059280 0.532000 9922106
-0.018888 0.062789 0.536000 9726016
-0.018923 0.065974 0.537000 9989986
-0.018958 0.069171 0.538000 9070942
-0.019064 0.072649 0.541000 8477536
-0.019205 0.076300 0.545000 6044975
-0.019275 0.079706 0.547000 5913392
-0.019310 0.082983 0.548000 8416081
-0.019416 0.086586 0.551000 8808537
-0.018900 0.014580 0.567000 9600680
-0.018833 0.017757 0.565000 7299427
-0.018567 0.020689 0.557000 8677460
-0.018500 0.023786 0.555000 12427387
-0.018367 0.026763 0.551000 13086914
-0.018067 0.029423 0.542000 14076868
-0.018033 0.032460 0.541000 12816201
-0.017867 0.035223 0.536000 12287568
-0.017733 0.038000 0.532000 11438421
-0.017633 0.040809 0.529000 11574426
-0.017533 0.043583 0.526000 9798553
-0.017500 0.046500 0.525000 8743257
-0.017500 0.049500 0.525000 8808289
-0.017567 0.052700 0.527000 9333352
-0.017600 0.055817 0.528000 9397069
-0.017700 0.059169 0.531000 10053704
-0.017767 0.062437 0.533000 9595222
-0.017833 0.065729 0.535000 9662313
-0.017867 0.068914 0.536000 9203305
-0.018000 0.072514 0.540000 8482159
-0.018100 0.076020 0.543000 6109976
-0.018200 0.079560 0.546000 5781277
-0.018267 0.082983 0.548000 8479322
-0.018300 0.086271 0.549000 9005669
-0.017883 0.014631 0.569000 9470382
-0.017757 0.017757 0.565000 8612711
-0.017506 0.020689 0.557000 8611406
-0.017443 0.023786 0.555000 12030563
-0.017380 0.026860 0.553000 12891331
-0.017034 0.029423 0.542000 14267300
-0.017003 0.032460 0.541000 12023097
-0.016846 0.035223 0.536000 11172683
-0.016720 0.038000 0.532000 11500622
-0.016594 0.040731 0.528000 11641242
-0.016531 0.043583 0.526000 10262689
-0.016469 0.046411 0.524000 8675144
-0.016469 0.049406 0.524000 8808285
-0.016500 0.052500 0.525000 9136740
-0.016531 0.055606 0.526000 9068884
-0.016626 0.058946 0.529000 10186841
-0.016720 0.062320 0.532000 9464156
-0.016814 0.065729 0.535000 9268841
-0.016846 0.068914 0.536000 9269606
-0.016940 0.072380 0.539000 8481127
-0.017034 0.075880 0.542000 6245691
-0.017097 0.079269 0.544000 5586223
-0.017160 0.082680 0.546000 8608864
-0.017223 0.086114 0.548000 9137255
-0.016770 0.014606 0.568000 9866419
-0.016681 0.017757 0.565000 8945516
-0.016445 0.020689 0.557000 8477768
-0.016386 0.023786 0.555000 11632972
-0.016268 0.026763 0.551000 12626627
-0.016002 0.029423 0.542000 13607044
-0.015972 0.032460 0.541000 11696425
-0.015825 0.035223 0.536000 11041606
-0.015707 0.038000 0.532000 11236934
-0.015559 0.040654 0.527000 12037274
-0.015500 0.043500 0.525000 11115177
-0.015470 0.046411 0.524000 8080696
-0.015441 0.049311 0.523000 8610648
-0.015470 0.052400 0.524000 9005664
-0.015500 0.055500 0.525000 8872282
-0.015559 0.058723 0.527000 9861226
-0.015707 0.062320 0.532000 9334369
-0.015736 0.065483 0.533000 9072232
-0.015795 0.068786 0.535000 9136995
-0.015884 0.072246 0.538000 8413792
-0.015943 0.075600 0.540000 7297373
