# .PCD v.7 - Point Cloud Data file format
VERSION .7
FIELDS x y z rgb
SIZE 4 4 4 4
TYPE F F F I
COUNT 1 1 1 1
WIDTH 1290
HEIGHT 1
POINTS 1290
DATA ascii
-0.256414 0.012683 0.579000 13157843
-0.254200 0.015853 0.574000 10988741
-0.252429 0.019000 0.570000 14408931
-0.249771 0.022023 0.564000 13880021
-0.249329 0.025201 0.563000 12231541
-0.248000 0.028267 0.560000 10449449
-0.248000 0.031467 0.560000 11571077
-0.248886 0.034790 0.562000 12097661
-0.249771 0.038137 0.564000 12360058
-0.251100 0.041580 0.567000 12228731
-0.251543 0.044899 0.568000 12228478
-0.252429 0.048314 0.570000 12228222
-0.254200 0.051933 0.574000 12293498
-0.256414 0.055694 0.579000 12227450
-0.256857 0.059105 0.580000 12227444
-0.257300 0.062527 0.581000 12096888
-0.267217 -0.007503 0.606000 12035747
-0.265453 -0.004013 0.602000 12496843
-0.263249 -0.000569 0.597000 11313584
-0.261485 0.002824 0.593000 12097706
-0.259280 0.006160 0.588000 12365244
-0.257516 0.009455 0.584000 12495802
-0.255752 0.012705 0.580000 13353160
-0.253107 0.015853 0.574000 12369614
-0.250902 0.018967 0.569000 13089493
-0.249138 0.022062 0.565000 12760773
-0.248256 0.025201 0.563000 11967052
-0.246933 0.028267 0.560000 10313501
-0.246933 0.031467 0.560000 11506057
-0.247815 0.034790 0.562000 12228734
-0.248697 0.038137 0.564000 12360315
-0.249579 0.041507 0.566000 12294268
-0.250461 0.044899 0.568000 12228477
-0.251784 0.048399 0.571000 12293757
-0.253107 0.051933 0.574000 12293757
-0.254870 0.055598 0.578000 12162171
-0.255752 0.059105 0.580000 12227448
-0.256193 0.062527 0.581000 12162680
-0.266063 -0.007503 0.606000 10983326
-0.264307 -0.004013 0.602000 12366535
-0.262111 -0.000569 0.597000 12174019
-0.260794 0.002829 0.594000 11640487
-0.258160 0.006160 0.588000 12298942
-0.256404 0.009455 0.584000 12496034
-0.255087 0.012727 0.581000 13547882
-0.251574 0.015826 0.573000 13748670
-0.249818 0.018967 0.569000 11769289
-0.248062 0.022062 0.565000 11577017
-0.247623 0.025246 0.564000 11770459
-0.246306 0.028317 0.561000 10186797
-0.246306 0.031523 0.561000 11507080
-0.246745 0.034790 0.562000 12294525
-0.247623 0.038137 0.564000 12294780
-0.248940 0.041580 0.567000 12294269
-0.249379 0.044899 0.568000 12294012
-0.250696 0.048399 0.571000 12294012
-0.252013 0.051933 0.574000 12294014
-0.254209 0.055694 0.579000 12096891
-0.254648 0.059105 0.580000 12227705
-0.255526 0.062634 0.582000 12162936
-0.266220 -0.011020 0.609000 10323861
-0.264909 -0.007503 0.606000 10852249
-0.262723 -0.004007 0.601000 12761028
-0.260974 -0.000569 0.597000 12631510
-0.259226 0.002824 0.593000 12428453
-0.257477 0.006170 0.589000 12892863
-0.255729 0.009471 0.585000 12691849
-0.253543 0.012705 0.580000 13613323
-0.250920 0.015853 0.574000 13879982
-0.249171 0.019000 0.570000 12101820
-0.247860 0.022140 0.567000 11640236
-0.246986 0.025290 0.565000 11770729
-0.245237 0.028317 0.561000 10843708
-0.244800 0.031467 0.560000 11769479
-0.245674 0.034790 0.562000 12294524
-0.246986 0.038205 0.565000 12294525
-0.247860 0.041580 0.567000 12294013
-0.249171 0.045057 0.570000 12294011
-0.249609 0.048399 0.571000 12359291
-0.250483 0.051843 0.573000 12294014
-0.253106 0.055694 0.579000 12162683
-0.253543 0.059105 0.580000 12228218
-0.254417 0.062634 0.582000 12294007
-0.264625 -0.011002 0.608000 10521238
-0.264190 -0.007515 0.607000 10722739
-0.261578 -0.004007 0.601000 13153222
-0.259837 -0.000569 0.597000 13027024
-0.258096 0.002824 0.593000 13218485
-0.256355 0.006170 0.589000 13550273
-0.254179 0.009455 0.584000 12824440
-0.252438 0.012705 0.580000 13745203
-0.249827 0.015853 0.574000 13942669
-0.248521 0.019033 0.571000 12367292
-0.246780 0.022140 0.567000 11639972
-0.245910 0.025290 0.565000 11772526
-0.244169 0.028317 0.561000 11501369
-0.243733 0.031467 0.560000 12099726
-0.244604 0.034790 0.562000 12228732
-0.245910 0.038205 0.565000 12294528
-0.246780 0.041580 0.567000 12293756
-0.247650 0.044978 0.569000 12294011
-0.248521 0.048399 0.571000 12424826
-0.249827 0.051933 0.574000 12359551
-0.252003 0.055694 0.579000 12228731
-0.252438 0.059105 0.580000 12294522
-0.253309 0.062634 0.582000 12425081
-0.263467 -0.011002 0.608000 10124951
-0.262600 -0.007503 0.606000 11839948
-0.260433 -0.004007 0.601000 13549000
-0.258700 -0.000569 0.597000 13288394
-0.257400 0.002829 0.594000 13155270
-0.255233 0.006170 0.589000 12826306
-0.253067 0.009455 0.584000 13085799
-0.252200 0.012749 0.582000 13085018
-0.248733 0.015853 0.574000 12887661
-0.247433 0.019033 0.571000 11316412
-0.245700 0.022140 0.567000 11374237
-0.244833 0.025290 0.565000 11903091
-0.243100 0.028317 0.561000 11765558
-0.242667 0.031467 0.560000 12033941
-0.243533 0.034790 0.562000 12359805
-0.244833 0.038205 0.565000 12359810
-0.245700 0.041580 0.567000 12293499
-0.246567 0.044978 0.569000 12294011
-0.247867 0.048484 0.572000 12293754
-0.248733 0.051933 0.574000 12359808
-0.250900 0.055694 0.579000 12294011
-0.251333 0.059105 0.580000 12294522
-0.252200 0.062634 0.582000 12359547
-0.262309 -0.011002 0.608000 9670811
-0.261877 -0.007515 0.607000 12963536
-0.258857 -0.004000 0.600000 13942216
-0.257563 -0.000569 0.597000 13550277
-0.256269 0.002829 0.594000 13089737
-0.253680 0.006160 0.588000 12170182
-0.251954 0.009455 0.584000 13347676
-0.251091 0.012749 0.582000 12490561
-0.247640 0.015853 0.574000 11834988
-0.246346 0.019033 0.571000 10327671
-0.244189 0.022101 0.566000 11112571
-0.243326 0.025246 0.564000 12034944
-0.242031 0.028317 0.561000 11965754
-0.242031 0.031523 0.561000 12035461
-0.242894 0.034852 0.563000 12424571
-0.243757 0.038205 0.565000 12490619
-0.245051 0.041653 0.568000 12228215
-0.245914 0.045057 0.570000 12228474
-0.246777 0.048484 0.572000 12162939
-0.247640 0.051933 0.574000 12359549
-0.249797 0.055694 0.579000 12294267
-0.250660 0.059207 0.581000 12294265
-0.251091 0.062634 0.582000 12294012
-0.261150 -0.011002 0.608000 11840928
-0.260721 -0.007515 0.607000 13355987
-0.258144 -0.004007 0.601000 12827592
-0.255996 -0.000568 0.596000 12825792
-0.255137 0.002829 0.594000 12958157
-0.252990 0.006170 0.589000 12365257
-0.250842 0.009455 0.584000 13480273
-0.249124 0.012705 0.580000 11304743
-0.246547 0.015853 0.574000 12360299
-0.245258 0.019033 0.571000 7950386
-0.243540 0.022140 0.567000 11311194
-0.242681 0.025290 0.565000 11310988
-0.240963 0.028317 0.561000 12231231
-0.240963 0.031523 0.561000 11506292
-0.241822 0.034852 0.563000 11505274
-0.242681 0.038205 0.565000 12359795
-0.243970 0.041653 0.568000 12294259
-0.244829 0.045057 0.570000 12228473
-0.245688 0.048484 0.572000 12228476
-0.246547 0.051933 0.574000 12359546
-0.248694 0.055694 0.579000 12294268
-0.249553 0.059207 0.581000 12294264
-0.259992 -0.011002 0.608000 13940916
-0.259565 -0.007515 0.607000 13813435
-0.256999 -0.004007 0.601000 11642554
-0.255716 -0.000570 0.598000 12037315
-0.253578 0.002824 0.593000 12761289
-0.251868 0.006170 0.589000 12563400
-0.249730 0.009455 0.584000 13608506
-0.248019 0.012705 0.580000 10120476
-0.245453 0.015853 0.574000 12819312
-0.243743 0.019000 0.570000 5651994
-0.241605 0.022062 0.565000 11441533
-0.241177 0.025246 0.564000 10523541
-0.239467 0.028267 0.560000 12491361
-0.239467 0.031467 0.560000 10918264
-0.240322 0.034790 0.562000 10518382
-0.241177 0.038137 0.564000 12228982
-0.242460 0.041580 0.567000 12293491
-0.243315 0.044978 0.569000 12228727
-0.244170 0.048399 0.571000 12228473
-0.245453 0.051933 0.574000 12359801
-0.247591 0.055694 0.579000 12294268
-0.248447 0.059207 0.581000 12294266
-0.258834 -0.011002 0.608000 13023687
-0.258409 -0.007515 0.607000 12690594
-0.255854 -0.004007 0.601000 10518444
-0.254151 -0.000569 0.597000 11577030
-0.252023 0.002819 0.592000 12761542
-0.249894 0.006150 0.587000 12561606
-0.248191 0.009439 0.583000 12754723
-0.246489 0.012683 0.579000 9923089
-0.244360 0.015853 0.574000 13019765
-0.242657 0.019000 0.570000 7622145
-0.240529 0.022062 0.565000 11642017
-0.239677 0.025201 0.563000 10786974
-0.238400 0.028267 0.560000 11307139
-0.238400 0.031467 0.560000 11178107
-0.239251 0.034790 0.562000 10712162
-0.240103 0.038137 0.564000 11701625
-0.241380 0.041580 0.567000 11570802
-0.242657 0.045057 0.570000 12162932
-0.243509 0.048484 0.572000 12293751
-0.244360 0.051933 0.574000 12359544
-0.246489 0.055694 0.579000 12293756
-0.246914 0.059105 0.580000 12294523
-0.257252 -0.010984 0.607000 12103091
-0.256829 -0.007503 0.606000 11560870
-0.255133 -0.004013 0.602000 9409446
-0.253438 -0.000570 0.598000 11051697
-0.251319 0.002824 0.593000 12692662
-0.248776 0.006150 0.587000 12560066
-0.247505 0.009455 0.584000 11897390
-0.245386 0.012683 0.579000 9726238
-0.243267 0.015853 0.574000 13216374
-0.241571 0.019000 0.570000 9578568
-0.239452 0.022062 0.565000 11839400
-0.238605 0.025201 0.563000 10984884
-0.236910 0.028216 0.559000 10127754
-0.237333 0.031467 0.560000 11376258
-0.238181 0.034790 0.562000 10912621
-0.239029 0.038137 0.564000 11241843
-0.240300 0.041580 0.567000 10846827
-0.241571 0.045057 0.570000 12097137
-0.242419 0.048484 0.572000 12294006
-0.243690 0.052024 0.575000 12424827
-0.245386 0.055694 0.579000 12294010
-0.245810 0.059105 0.580000 12294779
-0.256096 -0.010984 0.607000 11442848
-0.254830 -0.007478 0.604000 11571882
-0.253565 -0.004007 0.601000 9599648
-0.251877 -0.000569 0.597000 10388635
-0.249768 0.002819 0.592000 12693925
-0.247658 0.006150 0.587000 12430526
-0.246392 0.009455 0.584000 10646073
-0.244283 0.012683 0.579000 9923626
-0.242595 0.015881 0.575000 13154166
-0.240486 0.019000 0.570000 10911887
-0.238376 0.022062 0.565000 11904688
-0.236689 0.025111 0.561000 11380938
-0.236267 0.028267 0.560000 9994898
-0.236267 0.031467 0.560000 11967880
-0.237110 0.034790 0.562000 11705207
-0.238376 0.038205 0.565000 11569773
-0.239642 0.041653 0.568000 10448740
-0.240486 0.045057 0.570000 11438958
-0.241330 0.048484 0.572000 12031860
-0.242595 0.052024 0.575000 12360061
-0.244283 0.055694 0.579000 12228216
-0.244705 0.059105 0.580000 12360059
-0.254940 -0.010984 0.607000 10785695
-0.254100 -0.007490 0.605000 11571111
-0.252420 -0.004007 0.601000 9734036
-0.250740 -0.000569 0.597000 9659256
-0.248220 0.002814 0.591000 12691105
-0.246540 0.006150 0.587000 12366779
-0.245280 0.009455 0.584000 9400119
-0.243180 0.012683 0.579000 10123096
-0.241500 0.015881 0.575000 13087109
-0.239820 0.019033 0.571000 12296624
-0.237300 0.022062 0.565000 11904176
-0.235620 0.025111 0.561000 11714236
-0.235200 0.028267 0.560000 9798548
-0.235200 0.031467 0.560000 12624000
-0.236460 0.034852 0.563000 12491639
-0.237300 0.038205 0.565000 11897975
-0.238560 0.041653 0.568000 9994088
-0.239820 0.045136 0.571000 10783082
-0.240240 0.048484 0.572000 11768429
-0.241500 0.052024 0.575000 12360564
-0.243180 0.055694 0.579000 12162934
-0.244020 0.059207 0.581000 12359802
-0.254202 -0.011002 0.608000 10849183
-0.252530 -0.007478 0.604000 10916771
-0.251275 -0.004007 0.601000 9598600
-0.250021 -0.000570 0.598000 9136724
-0.247094 0.002814 0.591000 11901086
-0.245422 0.006150 0.587000 12234423
-0.244168 0.009455 0.584000 9200692
-0.242077 0.012683 0.579000 11178373
-0.239987 0.015853 0.574000 13152149
-0.238314 0.019000 0.570000 12233681
-0.237060 0.022140 0.567000 11772337
-0.234133 0.025067 0.560000 11512237
-0.234133 0.028267 0.560000 9994646
-0.234551 0.031523 0.561000 11768440
-0.235388 0.034852 0.563000 11703928
-0.236224 0.038205 0.565000 12161921
-0.237478 0.041653 0.568000 11178605
-0.238732 0.045136 0.571000 11110246
-0.239569 0.048569 0.573000 11439206
-0.240405 0.052024 0.575000 11241579
-0.242077 0.055694 0.579000 11965813
-0.242913 0.059207 0.581000 12359800
-0.253044 -0.011002 0.608000 10916259
-0.251379 -0.007478 0.604000 10263455
-0.250130 -0.004007 0.601000 9469066
-0.249298 -0.000570 0.599000 8609105
-0.245969 0.002814 0.591000 11115937
-0.244304 0.006150 0.587000 12171968
-0.243055 0.009455 0.584000 8939864
-0.240974 0.012683 0.579000 12305838
-0.238893 0.015853 0.574000 13219499
-0.237229 0.019000 0.570000 12169414
-0.235980 0.022140 0.567000 11641787
-0.233899 0.025156 0.562000 11313073
-0.233483 0.028317 0.561000 10193821
-0.233483 0.031523 0.561000 10979444
-0.234315 0.034852 0.563000 10849140
-0.235148 0.038205 0.565000 12425079
-0.236396 0.041653 0.568000 12359791
-0.237645 0.045136 0.571000 11440757
-0.238477 0.048569 0.573000 11043431
-0.239310 0.052024 0.575000 10188889
-0.240558 0.055598 0.578000 11766891
-0.241807 0.059207 0.581000 12294264
-0.251471 -0.010984 0.607000 11112360
-0.249814 -0.007466 0.603000 9801115
-0.248986 -0.004007 0.601000 10323085
-0.247743 -0.000570 0.598000 8677198
-0.244843 0.002814 0.591000 11974052
-0.243186 0.006150 0.587000 12432840
-0.241529 0.009439 0.583000 8542077
-0.239871 0.012683 0.579000 12699607
-0.237800 0.015853 0.574000 13482946
-0.236557 0.019033 0.571000 12101050
-0.234900 0.022140 0.567000 11707845
-0.232829 0.025156 0.562000 11376820
-0.232414 0.028317 0.561000 10587813
-0.232414 0.031523 0.561000 10781808
-0.233243 0.034852 0.563000 10781041
-0.234071 0.038205 0.565000 11701101
-0.235314 0.041653 0.568000 12032370
-0.236557 0.045136 0.571000 11900036
-0.237386 0.048569 0.573000 11436392
-0.238214 0.052024 0.575000 10121031
-0.239457 0.055598 0.578000 11698018
-0.240700 0.059207 0.581000 12294263
-0.250315 -0.010984 0.607000 11245730
-0.249078 -0.007478 0.604000 9343361
-0.248253 -0.004013 0.602000 11177359
-0.245367 -0.000567 0.595000 8807272
-0.244542 0.002824 0.593000 12819608
-0.242068 0.006150 0.587000 12755350
-0.240418 0.009439 0.583000 8159366
-0.238769 0.012683 0.579000 13094861
-0.236707 0.015853 0.574000 13746634
-0.235470 0.019033 0.571000 12027059
-0.233820 0.022140 0.567000 11707325
-0.230933 0.025067 0.560000 11441332
-0.231346 0.028317 0.561000 10983085
-0.231758 0.031579 0.562000 10584685
-0.232170 0.034852 0.563000 10649195
-0.232995 0.038205 0.565000 10910311
-0.234645 0.041727 0.569000 11701869
-0.235882 0.045215 0.572000 12359801
-0.236294 0.048569 0.573000 11832173
-0.237119 0.052024 0.575000 10054752
-0.238356 0.055598 0.578000 11635565
-0.240006 0.059309 0.582000 12294262
-0.248749 -0.010966 0.606000 11244700
-0.247928 -0.007478 0.604000 9929575
-0.247107 -0.004013 0.602000 11841937
-0.244644 -0.000568 0.596000 9797249
-0.242591 0.002814 0.591000 12088205
-0.240950 0.006150 0.587000 12029283
-0.239308 0.009439 0.583000 9998736
-0.237666 0.012683 0.579000 12433346
-0.235613 0.015853 0.574000 13682387
-0.234382 0.019033 0.571000 11439020
-0.232740 0.022140 0.567000 11572148
-0.229867 0.025067 0.560000 12168883
-0.229867 0.028267 0.560000 9998517
-0.230688 0.031579 0.562000 10716778
-0.231098 0.034852 0.563000 10582886
-0.231919 0.038205 0.565000 10583137
-0.233561 0.041727 0.569000 11174248
-0.234382 0.045136 0.571000 12359021
-0.235203 0.048569 0.573000 12228723
-0.236024 0.052024 0.575000 11242361
-0.237255 0.055598 0.578000 12096377
-0.239308 0.059410 0.583000 12359797
-0.247594 -0.010966 0.606000 11246205
-0.246777 -0.007478 0.604000 10522679
-0.246369 -0.004020 0.603000 12495002
-0.242691 -0.000566 0.594000 10847890
-0.241466 0.002814 0.591000 11310741
-0.239831 0.006150 0.587000 11311232
-0.238197 0.009439 0.583000 11834760
-0.236563 0.012683 0.579000 11774893
-0.234929 0.015881 0.575000 13551574
-0.232886 0.019000 0.570000 10848448
-0.231251 0.022101 0.566000 11380668
-0.229209 0.025111 0.561000 12960966
-0.228800 0.028267 0.560000 8945818
-0.229617 0.031579 0.562000 10912867
-0.230434 0.034914 0.564000 10452583
-0.230843 0.038205 0.565000 10256231
-0.232477 0.041727 0.569000 10584679
-0.233703 0.045215 0.572000 12292970
-0.234111 0.048569 0.573000 12622194
-0.234929 0.052024 0.575000 12425340
-0.236563 0.055694 0.579000 12490361
-0.238197 0.059410 0.583000 12425080
-0.245627 -0.007478 0.604000 12299527
-0.245220 -0.004020 0.603000 12037796
-0.241560 -0.000566 0.594000 11309474
-0.240340 0.002814 0.591000 12694174
-0.238713 0.006150 0.587000 12429213
-0.237087 0.009439 0.583000 12036223
-0.235867 0.012705 0.580000 11505304
-0.233427 0.015853 0.574000 13682137
-0.231393 0.018967 0.569000 12300755
-0.230173 0.022101 0.566000 12564933
-0.228140 0.025111 0.561000 12762840
-0.227733 0.028267 0.560000 6499967
-0.228953 0.031635 0.563000 11043419
-0.229360 0.034914 0.564000 10322281
-0.229767 0.038205 0.565000 10322284
-0.231800 0.041800 0.570000 10649703
-0.232207 0.045136 0.571000 11570023
-0.233020 0.048569 0.573000 12360049
-0.233833 0.052024 0.575000 12425086
-0.235867 0.055790 0.580000 12556410
-0.237087 0.059410 0.583000 12425338
-0.244476 -0.007478 0.604000 14006805
-0.243667 -0.004013 0.602000 11576465
-0.240833 -0.000567 0.595000 11771550
-0.239619 0.002819 0.592000 14069146
-0.237595 0.006150 0.587000 13613720
-0.235976 0.009439 0.583000 12228239
-0.234762 0.012705 0.580000 11303551
-0.231929 0.015826 0.573000 13748951
-0.230310 0.018967 0.569000 13748940
-0.229095 0.022101 0.566000 13746885
-0.228286 0.025246 0.564000 12565947
-0.226667 0.028267 0.560000 4015987
-0.227881 0.031635 0.563000 11241331
-0.228286 0.034914 0.564000 10191984
-0.228690 0.038205 0.565000 10452578
-0.230310 0.041727 0.569000 10716265
-0.231119 0.045136 0.571000 10846313
-0.231929 0.048569 0.573000 12029807
-0.232738 0.052024 0.575000 12424824
-0.234357 0.055694 0.579000 12621943
-0.235976 0.059410 0.583000 12425334
-0.243326 -0.007478 0.604000 13742370
-0.242520 -0.004013 0.602000 11506303
-0.239700 -0.000567 0.595000 12164506
-0.238491 0.002819 0.592000 13153942
-0.236477 0.006150 0.587000 13414546
-0.234866 0.009439 0.583000 12025503
-0.234060 0.012727 0.581000 11043174
-0.231240 0.015853 0.574000 13880021
-0.228823 0.018933 0.568000 13681348
-0.228017 0.022101 0.566000 12372677
-0.227211 0.025246 0.564000 11380637
-0.226406 0.028368 0.562000 4986982
-0.226809 0.031635 0.563000 12099467
-0.227614 0.034976 0.565000 11374712
-0.228017 0.038272 0.566000 10779736
-0.229226 0.041727 0.569000 10782572
-0.230031 0.045136 0.571000 10648938
-0.231240 0.048653 0.574000 11041645
-0.232046 0.052114 0.576000 11504497
-0.234060 0.055887 0.581000 12621684
-0.234866 0.059410 0.583000 12425586
-0.242175 -0.007478 0.604000 13478185
-0.241373 -0.004013 0.602000 11378033
-0.238968 -0.000568 0.596000 12620956
-0.237364 0.002819 0.592000 12223879
-0.234958 0.006139 0.586000 13151382
-0.233755 0.009439 0.583000 11835030
-0.232151 0.012683 0.579000 10707063
-0.230147 0.015853 0.574000 14010040
-0.227340 0.018900 0.567000 13612229
-0.226538 0.022062 0.565000 10920639
-0.225736 0.025201 0.563000 10195358
-0.225335 0.028368 0.562000 5983084
-0.225736 0.031635 0.563000 12951671
-0.226538 0.034976 0.565000 12556154
-0.227340 0.038340 0.567000 11108977
-0.228142 0.041727 0.569000 10847341
-0.229345 0.045215 0.572000 10452316
-0.230548 0.048738 0.575000 10058602
-0.230949 0.052114 0.576000 10583137
-0.232953 0.055887 0.581000 12620907
-0.233755 0.059410 0.583000 12490865
-0.241025 -0.007478 0.604000 13017647
-0.239828 -0.004007 0.601000 10851172
-0.237832 -0.000568 0.596000 12032157
-0.236236 0.002819 0.592000 10887800
-0.234241 0.006150 0.587000 13479833
-0.232645 0.009439 0.583000 11899790
-0.231049 0.012683 0.579000 9724808
-0.229053 0.015853 0.574000 14207131
-0.226659 0.018933 0.568000 13746374
-0.225462 0.022062 0.565000 10853305
-0.224664 0.025201 0.563000 8748958
-0.224265 0.028368 0.562000 7691889
-0.224664 0.031635 0.563000 11832418
-0.225462 0.034976 0.565000 11835260
-0.226260 0.038340 0.567000 11835530
-0.227058 0.041727 0.569000 11372398
-0.228255 0.045215 0.572000 10517069
-0.229452 0.048738 0.575000 9665639
-0.230250 0.052205 0.577000 10517329
-0.232246 0.055983 0.582000 11766370
-0.233044 0.059512 0.584000 12030832
-0.239874 -0.007478 0.604000 12623653
-0.238683 -0.004007 0.601000 10326624
-0.236697 -0.000568 0.596000 11509661
-0.235506 0.002824 0.593000 9586308
-0.232726 0.006139 0.586000 13812378
-0.231534 0.009439 0.583000 11968143
-0.230343 0.012705 0.580000 8745093
-0.227563 0.015826 0.573000 14401438
-0.225577 0.018933 0.568000 13878986
-0.224386 0.022062 0.565000 10786484
-0.223591 0.025201 0.563000 7312551
-0.223194 0.028368 0.562000 9400695
-0.223591 0.031635 0.563000 10715238
-0.224386 0.034976 0.565000 11044467
-0.225180 0.038340 0.567000 12623487
-0.225974 0.041727 0.569000 11834479
-0.227166 0.045215 0.572000 10582631
-0.228357 0.048738 0.575000 9205867
-0.229549 0.052295 0.578000 10517598
-0.230740 0.055887 0.581000 10912355
-0.231534 0.059410 0.583000 11570796
-0.239910 -0.010984 0.607000 10516791
-0.238724 -0.007478 0.604000 12557595
-0.237143 -0.004000 0.600000 11179100
-0.235957 -0.000569 0.597000 12429469
-0.234771 0.002829 0.594000 9852048
-0.230424 0.006108 0.583000 13546139
-0.230029 0.009423 0.582000 12624017
-0.229238 0.012705 0.580000 9268354
-0.226471 0.015826 0.573000 14338721
-0.224495 0.018933 0.568000 13550030
-0.223705 0.022101 0.566000 9343152
-0.222124 0.025156 0.562000 7965359
-0.222124 0.028368 0.562000 9861758
-0.222914 0.031691 0.564000 10650473
-0.223310 0.034976 0.565000 10779499
-0.224100 0.038340 0.567000 11702132
-0.225681 0.041873 0.571000 11640688
-0.226471 0.045294 0.573000 11572608
-0.227262 0.048738 0.575000 10450031
-0.228448 0.052295 0.578000 10190186
-0.229633 0.055887 0.581000 10911332
-0.230424 0.059410 0.583000 11175272
-0.238753 -0.010984 0.607000 10186806
-0.237573 -0.007478 0.604000 12558104
-0.236000 -0.004000 0.600000 12031614
-0.234820 -0.000569 0.597000 13416598
-0.234033 0.002833 0.595000 10125969
-0.229313 0.006108 0.583000 13350040
-0.228920 0.009423 0.582000 13215640
-0.228133 0.012705 0.580000 9858961
-0.226167 0.015881 0.575000 14270625
-0.223020 0.018900 0.567000 13286865
-0.222627 0.022101 0.566000 7900339
-0.221447 0.025201 0.563000 8691636
-0.221053 0.028368 0.562000 10254721
-0.221840 0.031691 0.564000 10584429
-0.222233 0.034976 0.565000 10452324
-0.223020 0.038340 0.567000 10783601
-0.224593 0.041873 0.571000 11439213
-0.225773 0.045373 0.574000 12557688
-0.226167 0.048738 0.575000 11636085
-0.226953 0.052205 0.577000 9862758
-0.228133 0.055790 0.580000 10845537
-0.229313 0.059410 0.583000 10847851
-0.238380 -0.011020 0.609000 9724725
-0.236423 -0.007478 0.604000 12161301
-0.234857 -0.004000 0.600000 12161953
-0.233291 -0.000568 0.596000 13415311
-0.232509 0.002829 0.594000 11776402
-0.228203 0.006108 0.583000 13479573
-0.227811 0.009423 0.582000 13482656
-0.227029 0.012705 0.580000 9594784
-0.225071 0.015881 0.575000 14338722
-0.222723 0.018967 0.569000 13419476
-0.221157 0.022062 0.565000 10065079
-0.220374 0.025201 0.563000 8752824
-0.219591 0.028317 0.561000 10583172
-0.220374 0.031635 0.563000 10518896
-0.221157 0.034976 0.565000 10189405
-0.221940 0.038340 0.567000 10716014
-0.223897 0.041947 0.572000 11040618
-0.224680 0.045373 0.574000 11768176
-0.225463 0.048823 0.576000 12099962
-0.225854 0.052205 0.577000 11178081
-0.227811 0.055983 0.582000 10844511
-0.228594 0.059512 0.584000 10781038
-0.237999 -0.011056 0.611000 9200431
-0.236051 -0.007503 0.606000 11766096
-0.234104 -0.004007 0.601000 12229799
-0.232156 -0.000568 0.596000 13416347
-0.230988 0.002824 0.593000 13346197
-0.227482 0.006118 0.584000 13612181
-0.226703 0.009423 0.582000 13741469
-0.225534 0.012683 0.579000 9394336
-0.223976 0.015881 0.575000 14401446
-0.221639 0.018967 0.569000 13619406
-0.220470 0.022101 0.566000 12235453
-0.218912 0.025156 0.562000 8816570
-0.218523 0.028317 0.561000 10845572
-0.219302 0.031635 0.563000 10517867
-0.220081 0.034976 0.565000 9862497
-0.221250 0.038408 0.568000 10649708
-0.222808 0.041947 0.572000 10582888
-0.223976 0.045452 0.575000 10979180
-0.224366 0.048823 0.576000 12490360
-0.225145 0.052295 0.578000 12492647
-0.226703 0.055983 0.582000 10782061
-0.236835 -0.011056 0.611000 9856296
-0.234897 -0.007503 0.606000 11704459
-0.232959 -0.004007 0.601000 12359086
-0.231021 -0.000568 0.596000 13613223
-0.229858 0.002824 0.593000 12359320
-0.226757 0.006129 0.585000 13677205
-0.225594 0.009423 0.582000 13809307
-0.224044 0.012661 0.578000 9991327
-0.222493 0.015853 0.574000 14337707
-0.220943 0.019000 0.570000 13549768
-0.219392 0.022101 0.566000 13221060
-0.217842 0.025156 0.562000 9077180
-0.217842 0.028368 0.562000 11107973
-0.218230 0.031635 0.563000 10584934
-0.219005 0.034976 0.565000 10190693
-0.219780 0.038340 0.567000 10584938
-0.221718 0.041947 0.572000 10255462
-0.222881 0.045452 0.575000 10913128
-0.223269 0.048823 0.576000 11502967
-0.224044 0.052295 0.578000 11702636
-0.225594 0.055983 0.582000 11770235
-0.235671 -0.011056 0.611000 10517603
-0.234129 -0.007515 0.607000 11701636
-0.231429 -0.004000 0.600000 12426912
-0.229886 -0.000568 0.596000 13875361
-0.229114 0.002829 0.594000 11310988
-0.226029 0.006139 0.586000 13743003
-0.224871 0.009439 0.583000 13873049
-0.223329 0.012683 0.579000 10652315
-0.221014 0.015826 0.573000 14270121
-0.219471 0.018967 0.569000 13546674
-0.218314 0.022101 0.566000 14138547
-0.216771 0.025156 0.562000 9335734
-0.216771 0.028368 0.562000 11376540
-0.217929 0.031748 0.565000 10649195
-0.217929 0.034976 0.565000 10452836
-0.218700 0.038340 0.567000 10519663
-0.220629 0.041947 0.572000 9863019
-0.221400 0.045373 0.574000 10781545
-0.222171 0.048823 0.576000 10519151
-0.222943 0.052295 0.578000 10912620
-0.224100 0.055887 0.581000 12751730
-0.234508 -0.011056 0.611000 10719902
-0.232589 -0.007503 0.606000 11898493
-0.230286 -0.004000 0.600000 12886163
-0.228750 -0.000568 0.596000 12495003
-0.227983 0.002829 0.594000 10717568
-0.225296 0.006150 0.587000 13874337
-0.223761 0.009439 0.583000 13940119
-0.221842 0.012661 0.578000 10848662
-0.220307 0.015853 0.574000 14402727
-0.218388 0.018967 0.569000 13808796
-0.217620 0.022140 0.567000 14203811
-0.216085 0.025201 0.563000 10194096
-0.215701 0.028368 0.562000 12302515
-0.216469 0.031691 0.564000 10451055
-0.216852 0.034976 0.565000 10190178
-0.218004 0.038408 0.568000 10650484
-0.219923 0.042020 0.573000 10060401
-0.220307 0.045373 0.574000 10716522
-0.221074 0.048823 0.576000 10584936
-0.221842 0.052295 0.578000 10714987
-0.223377 0.055983 0.582000 11633256
-0.233344 -0.011056 0.611000 10915717
-0.231434 -0.007503 0.606000 12094866
-0.228761 -0.003993 0.599000 13281427
-0.227615 -0.000568 0.596000 11185051
-0.226470 0.002824 0.593000 10128245
-0.224178 0.006150 0.587000 14070689
-0.222650 0.009439 0.583000 14004629
-0.221123 0.012683 0.579000 11049106
-0.219213 0.015853 0.574000 14467756
-0.217304 0.018967 0.569000 14070691
-0.216158 0.022101 0.566000 14203813
-0.215394 0.025246 0.564000 11110833
-0.214630 0.028368 0.562000 13152689
-0.215394 0.031691 0.564000 10255476
-0.216158 0.035038 0.566000 9927784
-0.216922 0.038408 0.568000 10847086
-0.218831 0.042020 0.573000 10255722
-0.219213 0.045373 0.574000 10651238
-0.219977 0.048823 0.576000 10650472
-0.220741 0.052295 0.578000 10517858
-0.222269 0.055983 0.582000 10518372
-0.232180 -0.011056 0.611000 10719597
-0.229900 -0.007490 0.605000 10453670
-0.228000 -0.004000 0.600000 13546899
-0.226100 -0.000567 0.595000 12297882
-0.224960 0.002819 0.592000 10190187
-0.223060 0.006150 0.587000 13939617
-0.221540 0.009439 0.583000 14005395
-0.219640 0.012661 0.578000 11243662
-0.218120 0.015853 0.574000 14599344
-0.216600 0.019000 0.570000 13743529
-0.215080 0.022101 0.566000 14269096
-0.213940 0.025201 0.563000 10915505
-0.213940 0.028418 0.563000 13220527
-0.214320 0.031691 0.564000 10388089
-0.215080 0.035038 0.566000 10189678
-0.215840 0.038408 0.568000 10649959
-0.217360 0.041947 0.572000 9923940
-0.218120 0.045373 0.574000 10650722
-0.218880 0.048823 0.576000 10584936
-0.219640 0.052295 0.578000 10320985
-0.221540 0.056079 0.583000 10518113
-0.231016 -0.011056 0.611000 10519169
-0.228748 -0.007490 0.605000 8878237
-0.226479 -0.003993 0.599000 13741973
-0.225345 -0.000568 0.596000 13416349
-0.223832 0.002819 0.592000 10260366
-0.222320 0.006160 0.588000 13808796
-0.220430 0.009439 0.583000 14005139
-0.218161 0.012639 0.577000 11442573
-0.216649 0.015826 0.573000 14665142
-0.214758 0.018933 0.568000 13480338
-0.213624 0.022062 0.565000 14269869
-0.212868 0.025201 0.563000 10712756
-0.212490 0.028368 0.562000 13218222
-0.213246 0.031691 0.564000 10519673
-0.213624 0.034976 0.565000 10387568
-0.214380 0.038340 0.567000 10452579
-0.215892 0.041873 0.571000 9534314
-0.216649 0.045294 0.573000 10649957
-0.217405 0.048738 0.575000 10519145
-0.218539 0.052295 0.578000 10124384
-0.220430 0.056079 0.583000 10518114
-0.229100 -0.011020 0.609000 6380950
-0.227971 -0.007503 0.606000 9205907
-0.225338 -0.003993 0.599000 13874584
-0.223833 -0.000567 0.595000 13219999
-0.222705 0.002819 0.592000 10785969
-0.220448 0.006139 0.586000 13809047
-0.218943 0.009423 0.582000 14005651
-0.217062 0.012639 0.577000 11638411
-0.215557 0.015826 0.573000 13289659
-0.213676 0.018933 0.568000 9992058
-0.212548 0.022062 0.565000 14401458
-0.211419 0.025156 0.562000 10717622
-0.211419 0.028368 0.562000 12890797
-0.211795 0.031635 0.563000 10452857
-0.212548 0.034976 0.565000 10847346
-0.213676 0.038408 0.568000 10583902
-0.214805 0.041873 0.571000 10126448
-0.215557 0.045294 0.573000 10452583
-0.216310 0.048738 0.575000 10584170
-0.217438 0.052295 0.578000 10321510
-0.218943 0.055983 0.582000 10584419
-0.227566 -0.011002 0.608000 2246294
-0.225694 -0.007466 0.603000 9546136
-0.224197 -0.003993 0.599000 13937558
-0.222700 -0.000567 0.595000 13022108
-0.221577 0.002819 0.592000 11244691
-0.219706 0.006150 0.587000 13743254
-0.217834 0.009423 0.582000 14004884
-0.215963 0.012639 0.577000 11770759
-0.214466 0.015826 0.573000 11902120
-0.212220 0.018900 0.567000 6499687
-0.211471 0.022062 0.565000 14466999
-0.210349 0.025156 0.562000 10774968
-0.210349 0.028368 0.562000 12494763
-0.211097 0.031691 0.564000 10321780
-0.211471 0.034976 0.565000 11241069
-0.212594 0.038408 0.568000 10780772
-0.213717 0.041873 0.571000 10716524
-0.214466 0.045294 0.573000 10256231
-0.215214 0.048738 0.575000 10649449
-0.216337 0.052295 0.578000 10584170
-0.217834 0.055983 0.582000 10584426
-0.226780 -0.011020 0.609000 2508183
-0.224918 -0.007478 0.604000 10459037
-0.223056 -0.003993 0.599000 13082516
-0.221567 -0.000567 0.595000 12620952
-0.220450 0.002819 0.592000 11509109
-0.218588 0.006150 0.587000 13741972
-0.216726 0.009423 0.582000 14137237
-0.214864 0.012639 0.577000 12033155
-0.213747 0.015853 0.574000 9470614
-0.211512 0.018933 0.568000 7232595
-0.210395 0.022062 0.565000 13613244
-0.209278 0.025156 0.562000 10650553
-0.209278 0.028368 0.562000 12298665
-0.210023 0.031691 0.564000 10124143
-0.210768 0.035038 0.566000 10979688
-0.211885 0.038475 0.569000 10650473
-0.212630 0.041873 0.571000 10584936
-0.213374 0.045294 0.573000 10387815
-0.214119 0.048738 0.575000 10911592
-0.215609 0.052386 0.579000 10649965
-0.216726 0.055983 0.582000 10650993
-0.224879 -0.010984 0.607000 2705300
-0.223768 -0.007478 0.604000 11442845
-0.221915 -0.003993 0.599000 12158851
-0.220063 -0.000566 0.594000 12155296
-0.218951 0.002814 0.591000 11701367
-0.217470 0.006150 0.587000 13740170
-0.215617 0.009423 0.582000 14200724
-0.213765 0.012639 0.577000 12296069
-0.212653 0.015853 0.574000 7042186
-0.210060 0.018900 0.567000 7886723
-0.209319 0.022062 0.565000 12694201
-0.208208 0.025156 0.562000 10511286
-0.208208 0.028368 0.562000 12099237
-0.208949 0.031691 0.564000 9992305
-0.209690 0.035038 0.566000 10716261
-0.210801 0.038475 0.569000 10584425
-0.211542 0.041873 0.571000 10452839
-0.212283 0.045294 0.573000 10518368
-0.213024 0.048738 0.575000 11174254
-0.214506 0.052386 0.579000 10780520
-0.215617 0.055983 0.582000 10716270
-0.223723 -0.010984 0.607000 2836113
-0.222249 -0.007466 0.603000 11572380
-0.220774 -0.003993 0.599000 11751538
-0.219669 -0.000568 0.596000 12886440
-0.217457 0.002810 0.590000 11822968
-0.216351 0.006150 0.587000 12221056
-0.214877 0.009439 0.583000 13147283
-0.212666 0.012639 0.577000 12427398
-0.211191 0.015826 0.573000 7959934
-0.209349 0.018933 0.568000 9536691
-0.208243 0.022062 0.565000 10582710
-0.207137 0.025156 0.562000 10651314
-0.207137 0.028368 0.562000 11966882
-0.207874 0.031691 0.564000 9663090
-0.208980 0.035100 0.567000 10452579
-0.209717 0.038475 0.569000 10190697
-0.210454 0.041873 0.571000 10385510
-0.211560 0.045373 0.574000 10320728
-0.212297 0.048823 0.576000 10913396
-0.213403 0.052386 0.579000 10715235
-0.214509 0.055983 0.582000 10715755
-0.222933 -0.011002 0.608000 2901396
-0.221100 -0.007466 0.603000 11770773
-0.219633 -0.003993 0.599000 11363957
-0.217800 -0.000566 0.594000 13615010
-0.216700 0.002814 0.591000 11900298
-0.214867 0.006139 0.586000 10767733
-0.213767 0.009439 0.583000 12096918
-0.212300 0.012683 0.579000 12558989
-0.210100 0.015826 0.573000 8884641
-0.207900 0.018900 0.567000 11125451
-0.206800 0.022023 0.564000 8421801
-0.206067 0.025156 0.562000 10713267
-0.206067 0.028368 0.562000 11771049
-0.207167 0.031748 0.565000 9334136
-0.207533 0.035038 0.566000 10189410
-0.208633 0.038475 0.569000 9796959
-0.209733 0.041947 0.572000 10320999
-0.210467 0.045373 0.574000 10124648
-0.211200 0.048823 0.576000 10584431
-0.212667 0.052476 0.580000 10649701
-0.213400 0.055983 0.582000 10715499
-0.222870 -0.011056 0.611000 2964374
-0.220316 -0.007478 0.604000 12098701
-0.218128 -0.003987 0.598000 12011895
-0.216669 -0.000566 0.594000 12888219
-0.215574 0.002814 0.591000 11971740
-0.213750 0.006139 0.586000 11761258
-0.212656 0.009439 0.583000 13285785
-0.211562 0.012705 0.580000 12493715
-0.209373 0.015853 0.574000 11314628
-0.206820 0.018900 0.567000 12044002
-0.205726 0.022023 0.564000 9072797
-0.204996 0.025156 0.562000 10323635
-0.205361 0.028418 0.563000 12426416
-0.206090 0.031748 0.565000 10451838
-0.206090 0.034976 0.565000 10189153
-0.207550 0.038475 0.569000 9664085
-0.208644 0.041947 0.572000 10386792
-0.209373 0.045373 0.574000 10519416
-0.210468 0.048908 0.577000 10649706
-0.211197 0.052386 0.579000 10584166
-0.212291 0.055983 0.582000 10649194
-0.220980 -0.011020 0.609000 3031957
-0.219529 -0.007490 0.605000 12364691
-0.216989 -0.003987 0.598000 12617868
-0.215537 -0.000566 0.594000 12161407
-0.214811 0.002819 0.592000 11965576
-0.212997 0.006150 0.587000 12816008
-0.211546 0.009439 0.583000 14465175
-0.210094 0.012683 0.579000 12491929
-0.208280 0.015853 0.574000 13747916
-0.205740 0.018900 0.567000 12962008
-0.205014 0.022062 0.565000 9734036
-0.203563 0.025111 0.561000 9922221
-0.204289 0.028418 0.563000 13018018
-0.205014 0.031748 0.565000 11573891
-0.205014 0.034976 0.565000 10127726
-0.206466 0.038475 0.569000 9531235
-0.207554 0.041947 0.572000 10452582
-0.208643 0.045452 0.575000 10978410
-0.209731 0.048992 0.578000 10649446
-0.210094 0.052386 0.579000 10518374
-0.211546 0.056079 0.583000 10518891
-0.220542 -0.014548 0.611000 8688297
-0.219820 -0.011020 0.609000 3029140
-0.218737 -0.007503 0.606000 12558232
-0.215850 -0.003987 0.598000 13015968
-0.214406 -0.000566 0.594000 12030563
-0.213323 0.002814 0.591000 12620149
-0.211879 0.006150 0.587000 12626341
-0.210435 0.009439 0.583000 14069397
-0.208991 0.012683 0.579000 12559518
-0.207187 0.015853 0.574000 13486036
-0.204660 0.018900 0.567000 12432077
-0.203938 0.022062 0.565000 11179915
-0.202494 0.025111 0.561000 9730983
-0.203216 0.028418 0.563000 12754837
-0.203938 0.031748 0.565000 12034696
-0.204299 0.035038 0.566000 11578235
-0.205743 0.038543 0.570000 10716017
-0.206465 0.041947 0.572000 10321253
-0.207909 0.045531 0.576000 10385755
-0.208630 0.048992 0.578000 10584418
-0.208991 0.052386 0.579000 10649445
-0.210435 0.056079 0.583000 10650989
-0.219378 -0.014548 0.611000 8823979
-0.218660 -0.011020 0.609000 2963601
-0.217224 -0.007490 0.605000 12820628
-0.214710 -0.003987 0.598000 13408669
-0.213274 -0.000566 0.594000 11900549
-0.212197 0.002814 0.591000 13214090
-0.210402 0.006139 0.586000 12428687
-0.209325 0.009439 0.583000 13674361
-0.207889 0.012683 0.579000 12688801
-0.206093 0.015853 0.574000 13155784
-0.203939 0.018933 0.568000 11907802
-0.202503 0.022023 0.564000 12559514
-0.201426 0.025111 0.561000 9534876
-0.201785 0.028368 0.562000 12493719
-0.202862 0.031748 0.565000 12493700
-0.203221 0.035038 0.566000 13016179
-0.204298 0.038475 0.569000 11901296
-0.205375 0.041947 0.572000 10191727
-0.206811 0.045531 0.576000 9793383
-0.207530 0.048992 0.578000 10519139
-0.208248 0.052476 0.580000 10779994
-0.209684 0.056175 0.584000 10782313
-0.218571 -0.014571 0.612000 8885420
-0.217500 -0.011020 0.609000 3409039
-0.216429 -0.007503 0.606000 12884624
-0.213571 -0.003987 0.598000 13275802
-0.212143 -0.000566 0.594000 11574439
-0.211429 0.002819 0.592000 12690847
-0.209286 0.006139 0.586000 10313336
-0.208214 0.009439 0.583000 13742173
-0.207143 0.012705 0.580000 12691620
-0.205000 0.015853 0.574000 13281724
-0.203214 0.018967 0.569000 12632038
-0.201429 0.022023 0.564000 13487273
-0.200357 0.025111 0.561000 9142929
-0.201071 0.028418 0.563000 12493210
-0.201786 0.031748 0.565000 11967104
-0.202143 0.035038 0.566000 11698795
-0.203214 0.038475 0.569000 11835759
-0.204286 0.041947 0.572000 11506810
-0.205714 0.045531 0.576000 10649714
-0.206071 0.048908 0.577000 10454372
-0.207143 0.052476 0.580000 10320718
-0.208571 0.056175 0.584000 10650470
-0.217406 -0.014571 0.612000 9019058
-0.216340 -0.011020 0.609000 3815825
-0.214919 -0.007490 0.605000 13016463
-0.212432 -0.003987 0.598000 13144730
-0.211011 -0.000566 0.594000 11312272
-0.210301 0.002819 0.592000 12097170
-0.208170 0.006139 0.586000 8223115
-0.206749 0.009423 0.582000 13805432
-0.205328 0.012661 0.578000 12756648
-0.203907 0.015853 0.574000 13349815
-0.201775 0.018933 0.568000 13422794
-0.200354 0.022023 0.564000 14335920
-0.199644 0.025156 0.562000 8814742
-0.199999 0.028418 0.563000 12425869
-0.200710 0.031748 0.565000 11509366
-0.201065 0.035038 0.566000 10387051
-0.202130 0.038475 0.569000 11767920
-0.203551 0.042020 0.573000 12818292
-0.204617 0.045531 0.576000 11571570
-0.205328 0.048992 0.578000 10389869
-0.206038 0.052476 0.580000 9927255
-0.207459 0.056175 0.584000 10453096
-0.214827 -0.011002 0.608000 4524947
-0.213767 -0.007490 0.605000 13081997
-0.211293 -0.003987 0.598000 13208730
-0.209880 -0.000566 0.594000 12095608
-0.208820 0.002814 0.591000 12891013
-0.206700 0.006129 0.585000 10721181
-0.205287 0.009407 0.581000 13613716
-0.204227 0.012661 0.578000 12561580
-0.202813 0.015853 0.574000 13743282
-0.201047 0.018967 0.569000 13482925
-0.199280 0.022023 0.564000 14210230
-0.198573 0.025156 0.562000 8881819
-0.198927 0.028418 0.563000 10780032
-0.199633 0.031748 0.565000 10979947
-0.199987 0.035038 0.566000 10123628
-0.201400 0.038543 0.570000 11044209
-0.202460 0.042020 0.573000 11767150
-0.203520 0.045531 0.576000 11704690
-0.203873 0.048908 0.577000 11574390
-0.204933 0.052476 0.580000 10453088
-0.206347 0.056175 0.584000 10255211
-0.213317 -0.010984 0.607000 5196690
-0.212966 -0.007503 0.606000 13146512
-0.210506 -0.003993 0.599000 13276568
-0.209100 -0.000567 0.595000 12947601
-0.208046 0.002819 0.592000 13675909
-0.205586 0.006129 0.585000 13281683
-0.204180 0.009407 0.581000 13347475
-0.203126 0.012661 0.578000 12431528
-0.201720 0.015853 0.574000 14071725
-0.199963 0.018967 0.569000 13611943
-0.198206 0.022023 0.564000 14005940
-0.197854 0.025201 0.563000 8952993
-0.197854 0.028418 0.563000 9145472
-0.198557 0.031748 0.565000 10521455
-0.198909 0.035038 0.566000 9795688
-0.200666 0.038610 0.571000 10387309
-0.201369 0.042020 0.573000 10717290
-0.202423 0.045531 0.576000 11832681
-0.203126 0.048992 0.578000 12752756
-0.203829 0.052476 0.580000 11045486
-0.205586 0.056271 0.585000 9993843
-0.212161 -0.010984 0.607000 6311057
-0.211811 -0.007503 0.606000 13147027
-0.209714 -0.004000 0.600000 13276054
-0.207967 -0.000567 0.595000 11824810
-0.206569 0.002814 0.591000 12953477
-0.204471 0.006129 0.585000 11440265
-0.203073 0.009407 0.581000 13282963
-0.202025 0.012661 0.578000 12430756
-0.200627 0.015853 0.574000 14005929
-0.198879 0.018967 0.569000 13743521
-0.197131 0.022023 0.564000 13747889
-0.196432 0.025156 0.562000 9870503
-0.196782 0.028418 0.563000 10518656
-0.197481 0.031748 0.565000 10848627
-0.198879 0.035224 0.569000 10188901
-0.199229 0.038543 0.570000 10321257
-0.200627 0.042093 0.574000 10717285
-0.201326 0.045531 0.576000 11109471
-0.202025 0.048992 0.578000 11699315
-0.203073 0.052567 0.581000 11442043
-0.204122 0.056175 0.584000 11242620
-0.210657 -0.010966 0.606000 7429268
-0.210310 -0.007490 0.605000 13146256
-0.208571 -0.004000 0.600000 13211789
-0.206833 -0.000567 0.595000 10770075
-0.205443 0.002814 0.591000 12226443
-0.203357 0.006129 0.585000 9597073
-0.201967 0.009407 0.581000 13146002
-0.201271 0.012683 0.579000 12371363
-0.199533 0.015853 0.574000 13875628
-0.197795 0.018967 0.569000 13940128
-0.196057 0.022023 0.564000 13415603
-0.195710 0.025201 0.563000 10863020
-0.195710 0.028418 0.563000 11900810
-0.196752 0.031804 0.566000 11245178
-0.197448 0.035162 0.568000 10585200
-0.198143 0.038543 0.570000 10189927
-0.199533 0.042093 0.574000 10716263
-0.200229 0.045531 0.576000 10386794
-0.200924 0.048992 0.578000 10584944
-0.201967 0.052567 0.581000 11898988
-0.203357 0.056271 0.585000 12424563
-0.209503 -0.010966 0.606000 8154774
-0.208811 -0.007478 0.604000 13015948
-0.207429 -0.004000 0.600000 13274756
-0.205354 -0.000566 0.594000 12292748
-0.203971 0.002810 0.590000 12295569
-0.201897 0.006118 0.584000 10384792
-0.200860 0.009407 0.581000 12819601
-0.200169 0.012683 0.579000 12563874
-0.198094 0.015826 0.573000 13875632
-0.195674 0.018867 0.566000 14071454
-0.194983 0.022023 0.564000 12960694
-0.194637 0.025201 0.563000 10988977
-0.194983 0.028469 0.564000 12296597
-0.195329 0.031748 0.565000 11309697
-0.196711 0.035224 0.569000 11114875
-0.197057 0.038543 0.570000 10585957
-0.198440 0.042093 0.574000 10979690
-0.199131 0.045531 0.576000 11504757
-0.199823 0.048992 0.578000 10782062
-0.201206 0.052657 0.582000 11109980
-0.202243 0.056271 0.585000 11504747
-0.208349 -0.010966 0.606000 8875927
-0.207661 -0.007478 0.604000 12951697
-0.206630 -0.004007 0.601000 13276555
-0.204567 -0.000567 0.595000 13808283
-0.202504 0.002805 0.589000 12361878
-0.200785 0.006118 0.584000 11175583
-0.199753 0.009407 0.581000 12493712
-0.198722 0.012661 0.578000 12760486
-0.197003 0.015826 0.573000 13875630
-0.194596 0.018867 0.566000 14136735
-0.193909 0.022023 0.564000 12496310
-0.193565 0.025201 0.563000 11125437
-0.193909 0.028469 0.564000 12624270
-0.194596 0.031804 0.566000 11373688
-0.195628 0.035224 0.569000 11635309
-0.196315 0.038610 0.571000 10914916
-0.197347 0.042093 0.574000 11176812
-0.198034 0.045531 0.576000 12558200
-0.198722 0.048992 0.578000 10981488
-0.200097 0.052657 0.582000 10322794
-0.207194 -0.010966 0.606000 9340312
-0.206169 -0.007466 0.603000 12886166
-0.205485 -0.004007 0.601000 13277842
-0.203433 -0.000567 0.595000 13087402
-0.201382 0.002805 0.589000 12756892
-0.199672 0.006118 0.584000 12493733
-0.198647 0.009407 0.581000 12361360
-0.197621 0.012661 0.578000 12693162
-0.196253 0.015853 0.574000 13809580
-0.193518 0.018867 0.566000 14005664
-0.192834 0.022023 0.564000 12236215
-0.192492 0.025201 0.563000 11514825
-0.193176 0.028519 0.565000 11178120
-0.193518 0.031804 0.566000 11044463
-0.194544 0.035224 0.569000 11042399
-0.195228 0.038610 0.571000 10716259
-0.196253 0.042093 0.574000 11110767
-0.196937 0.045531 0.576000 12230523
-0.197963 0.049077 0.579000 12100210
-0.198647 0.052567 0.581000 11177591
-0.206040 -0.010966 0.606000 9729692
-0.205360 -0.007478 0.604000 12889237
-0.204340 -0.004007 0.601000 13280922
-0.201960 -0.000566 0.594000 12428686
-0.200260 0.002805 0.589000 13149570
-0.198560 0.006118 0.584000 13875622
-0.197540 0.009407 0.581000 12165262
-0.196180 0.012639 0.577000 12625840
-0.194820 0.015826 0.573000 13678255
-0.193460 0.018967 0.569000 13939901
-0.191760 0.022023 0.564000 11905202
-0.191760 0.025246 0.564000 11912106
-0.192100 0.028519 0.565000 9666932
-0.192440 0.031804 0.566000 10716525
-0.193460 0.035224 0.569000 10452071
-0.194140 0.038610 0.571000 10452585
-0.194820 0.042020 0.573000 10979435
-0.195840 0.045531 0.576000 11901050
-0.196860 0.049077 0.579000 13147765
-0.197880 0.052657 0.582000 12097907
-0.204886 -0.010966 0.606000 9932192
-0.204210 -0.007478 0.604000 12889235
-0.203195 -0.004007 0.601000 13546915
-0.200829 -0.000566 0.594000 10966642
-0.199476 0.002810 0.590000 13545576
-0.197786 0.006129 0.585000 13941158
-0.196433 0.009407 0.581000 12228237
-0.195081 0.012639 0.577000 12364982
-0.193729 0.015826 0.573000 13808561
-0.192038 0.018933 0.568000 13223898
-0.190348 0.021984 0.563000 11315886
-0.190686 0.025246 0.564000 9862539
-0.191024 0.028519 0.565000 10182496
-0.191362 0.031804 0.566000 10847338
-0.192376 0.035224 0.569000 10517872
-0.193052 0.038610 0.571000 10518383
-0.194067 0.042093 0.574000 10781800
-0.194743 0.045531 0.576000 11306616
-0.195419 0.048992 0.578000 11767416
-0.196771 0.052657 0.582000 12295535
-0.203731 -0.010966 0.606000 10123423
-0.203059 -0.007478 0.604000 12891545
-0.201714 -0.004000 0.600000 13808800
-0.199361 -0.000565 0.593000 9534864
-0.198352 0.002810 0.590000 13873280
-0.196671 0.006129 0.585000 13941151
-0.195327 0.009407 0.581000 12296588
-0.193646 0.012617 0.576000 12104374
-0.192637 0.015826 0.573000 13877438
-0.190620 0.018900 0.567000 12572882
-0.189275 0.021984 0.563000 10720156
-0.189611 0.025246 0.564000 7739999
-0.189948 0.028519 0.565000 10651511
-0.190284 0.031804 0.566000 10980467
-0.191292 0.035224 0.569000 10585460
-0.191965 0.038610 0.571000 10517874
-0.192973 0.042093 0.574000 10583912
-0.193646 0.045531 0.576000 10713973
-0.194318 0.048992 0.578000 10324077
-0.195999 0.052748 0.583000 12556913
-0.202577 -0.010966 0.606000 10258078
-0.201909 -0.007478 0.604000 12558750
-0.200571 -0.004000 0.600000 13939870
-0.198231 -0.000565 0.593000 11907245
-0.197229 0.002810 0.590000 13874839
-0.195891 0.006139 0.586000 13940632
-0.193886 0.009390 0.580000 11968906
-0.192549 0.012617 0.576000 12168117
-0.191546 0.015826 0.573000 14209226
-0.189540 0.018900 0.567000 10525130
-0.188871 0.022062 0.565000 10655626
-0.188537 0.025246 0.564000 7878962
-0.188871 0.028519 0.565000 11771533
-0.189540 0.031860 0.567000 11177852
-0.190209 0.035224 0.569000 10917753
-0.190877 0.038610 0.571000 10978420
-0.191880 0.042093 0.574000 10187368
-0.192549 0.045531 0.576000 11175794
-0.193217 0.048992 0.578000 10451810
-0.194889 0.052748 0.583000 11635827
-0.195557 0.056271 0.585000 11833979
-0.201423 -0.010966 0.606000 10320796
-0.200426 -0.007466 0.603000 12236960
-0.199096 -0.003993 0.599000 14005667
-0.197434 -0.000566 0.594000 14269075
-0.196105 0.002810 0.590000 13808794
-0.194775 0.006139 0.586000 13940637
-0.193113 0.009407 0.581000 11637134
-0.191451 0.012617 0.576000 12240059
-0.190454 0.015826 0.573000 14469834
-0.188792 0.018933 0.568000 8495313
-0.187795 0.022062 0.565000 10590848
-0.187463 0.025246 0.564000 8065856
-0.187795 0.028519 0.565000 12888204
-0.188460 0.031860 0.567000 11373939
-0.189125 0.035224 0.569000 11176821
-0.190122 0.038678 0.572000 11440236
-0.190787 0.042093 0.574000 9732202
-0.191784 0.045610 0.577000 11702144
-0.192116 0.048992 0.578000 10585963
-0.193778 0.052748 0.583000 10716529
-0.200269 -0.010966 0.606000 10326939
-0.199277 -0.007466 0.603000 12826018
-0.197955 -0.003993 0.599000 13941160
-0.196303 -0.000566 0.594000 11832696
-0.194981 0.002810 0.590000 14071709
-0.193659 0.006139 0.586000 13941153
-0.191676 0.009390 0.580000 10786451
-0.190354 0.012617 0.576000 11973569
-0.189032 0.015798 0.572000 13880009
-0.187380 0.018900 0.567000 8882647
-0.186389 0.022023 0.564000 12107894
-0.186058 0.025201 0.563000 8340045
-0.186719 0.028519 0.565000 12953740
-0.187050 0.031804 0.566000 11176554
-0.187710 0.035162 0.568000 10912625
-0.188371 0.038543 0.570000 11242083
-0.189363 0.042020 0.573000 10785645
-0.190354 0.045531 0.576000 12165005
-0.191015 0.048992 0.578000 11901300
-0.192668 0.052748 0.583000 11241582
-0.199114 -0.010966 0.606000 10256029
-0.197800 -0.007453 0.602000 13419935
-0.196486 -0.003987 0.598000 13809059
-0.194843 -0.000565 0.593000 9327754
-0.193529 0.002805 0.589000 14331287
-0.192543 0.006139 0.586000 13941152
-0.190571 0.009390 0.580000 9861775
-0.189257 0.012617 0.576000 11784892
-0.187614 0.015770 0.571000 13287111
-0.185971 0.018867 0.566000 9343166
-0.185643 0.022062 0.565000 13610627
-0.184986 0.025201 0.563000 8655957
-0.185643 0.028519 0.565000 13017993
