# .PCD v.7 - Point Cloud Data file format
VERSION .7
FIELDS x y z rgb
SIZE 4 4 4 4
TYPE F F F I
COUNT 1 1 1 1
WIDTH 1300
HEIGHT 1
POINTS 1300
DATA ascii
-0.062787 0.035350 0.554000 11241064
-0.062900 0.038586 0.555000 10581616
-0.063127 0.041908 0.557000 9596523
-0.063580 0.045414 0.561000 10715497
-0.063693 0.048707 0.562000 10188646
-0.063693 0.051918 0.562000 10580075
-0.063693 0.055130 0.562000 11306366
-0.063920 0.058549 0.564000 11370870
-0.064071 0.007119 0.575000 13414563
-0.063514 0.010314 0.570000 10382176
-0.063291 0.013524 0.568000 11244964
-0.062957 0.016681 0.565000 11640750
-0.062177 0.019663 0.558000 10589324
-0.061509 0.022606 0.552000 13547966
-0.061286 0.025667 0.550000 12559037
-0.061286 0.028810 0.550000 12163237
-0.061397 0.032010 0.551000 12754833
-0.061731 0.035350 0.554000 11107945
-0.061954 0.038655 0.556000 9859943
-0.062177 0.041983 0.558000 8281700
-0.062734 0.045576 0.563000 10516069
-0.062734 0.048793 0.563000 9861478
-0.062623 0.051918 0.562000 9596770
-0.062734 0.055228 0.563000 10976867
-0.062429 0.010314 0.570000 10648907
-0.062319 0.013548 0.569000 11772311
-0.061771 0.016651 0.564000 11705517
-0.061224 0.019698 0.559000 11312809
-0.060457 0.022606 0.552000 12757928
-0.060348 0.025713 0.551000 11834294
-0.060348 0.028862 0.551000 12229027
-0.060567 0.032127 0.553000 12951693
-0.060786 0.035414 0.555000 10713194
-0.060895 0.038655 0.556000 9663839
-0.061114 0.041983 0.558000 8609884
-0.061662 0.045576 0.563000 10121570
-0.061662 0.048793 0.563000 9595749
-0.061771 0.052103 0.564000 9264986
-0.061881 0.055424 0.565000 9265223
-0.061343 0.010314 0.570000 10979670
-0.061020 0.013500 0.567000 12231594
-0.060697 0.016651 0.564000 11836849
-0.060051 0.019663 0.558000 11968168
-0.059513 0.022647 0.553000 11968415
-0.059298 0.025713 0.551000 11047841
-0.059298 0.028862 0.551000 12294815
-0.059513 0.032127 0.553000 13148040
-0.059729 0.035414 0.555000 10316391
-0.059944 0.038725 0.557000 9398364
-0.060051 0.041983 0.558000 9003613
-0.060590 0.045576 0.563000 9662305
-0.060697 0.048880 0.564000 9398113
-0.060805 0.052195 0.565000 8872281
-0.060912 0.055522 0.566000 7557196
-0.060257 0.010314 0.570000 11375200
-0.059940 0.013500 0.567000 12233148
-0.059623 0.016651 0.564000 11836852
-0.058989 0.019663 0.558000 11770534
-0.058566 0.022688 0.554000 11573141
-0.058354 0.025760 0.552000 11241613
-0.058354 0.028914 0.552000 12360346
-0.058566 0.032185 0.554000 13214083
-0.058883 0.035542 0.557000 10186595
-0.058883 0.038725 0.557000 8805209
-0.059094 0.042058 0.559000 9070429
-0.059517 0.045576 0.563000 9596768
-0.059623 0.048880 0.564000 9267292
-0.059729 0.052195 0.565000 8676953
-0.059834 0.055522 0.566000 7952464
-0.059171 0.010314 0.570000 11769716
-0.058756 0.013476 0.566000 12233147
-0.058549 0.016651 0.564000 11902394
-0.057926 0.019663 0.558000 11507106
-0.057614 0.022729 0.555000 11180191
-0.057303 0.025760 0.552000 11375520
-0.057510 0.029019 0.554000 12426134
-0.057822 0.032359 0.557000 13211519
-0.057926 0.035606 0.558000 10053986
-0.057926 0.038794 0.558000 8151898
-0.058133 0.042133 0.560000 9201761
-0.058652 0.045738 0.565000 9530471
-0.058652 0.048967 0.565000 9201757
-0.058652 0.052195 0.565000 8479320
-0.058860 0.055620 0.567000 8413012
-0.057576 0.013452 0.565000 12364218
-0.057474 0.016651 0.564000 11969727
-0.056863 0.019663 0.558000 11242398
-0.056557 0.022729 0.555000 10848681
-0.056353 0.025807 0.553000 12366003
-0.056557 0.029071 0.555000 12754066
-0.056761 0.032359 0.557000 12685946
-0.056863 0.035606 0.558000 9793121
-0.056863 0.038794 0.558000 8543836
-0.057169 0.042209 0.561000 9333092
-0.057576 0.045738 0.565000 9201006
-0.057576 0.048967 0.565000 9136478
-0.057678 0.052288 0.566000 8479319
-0.057882 0.055718 0.568000 8478551
-0.056500 0.013452 0.565000 12429496
-0.056400 0.016651 0.564000 12104132
-0.055800 0.019663 0.558000 10916007
-0.055500 0.022729 0.555000 10585259
-0.055400 0.025853 0.554000 13347249
-0.055600 0.029124 0.556000 13146766
-0.055800 0.032417 0.558000 12094839
-0.055800 0.035606 0.558000 9597794
-0.055900 0.038864 0.559000 8873564
-0.056200 0.042284 0.562000 9462374
-0.056500 0.045738 0.565000 8810343
-0.056500 0.048967 0.565000 9070431
-0.056800 0.052472 0.568000 8412499
-0.056900 0.055816 0.569000 8544088
-0.055326 0.013429 0.564000 12298423
-0.055228 0.016622 0.563000 12300744
-0.054835 0.019698 0.559000 11178672
-0.054443 0.022729 0.555000 10916269
-0.054443 0.025900 0.555000 13086127
-0.054541 0.029124 0.556000 13147529
-0.054737 0.032417 0.558000 11108980
-0.054835 0.035670 0.559000 9531490
-0.054933 0.038933 0.560000 8873821
-0.055228 0.042359 0.563000 9464935
-0.055424 0.045738 0.565000 9073248
-0.055620 0.049140 0.567000 9004895
-0.055718 0.052472 0.568000 7951438
-0.055816 0.055816 0.569000 8609880
-0.054251 0.013429 0.564000 12165040
-0.054155 0.016622 0.563000 12500680
-0.053578 0.019628 0.557000 11377072
-0.053386 0.022729 0.555000 11308716
-0.053386 0.025900 0.555000 12821931
-0.053578 0.029176 0.557000 13147017
-0.053674 0.032417 0.558000 10059120
-0.053770 0.035670 0.559000 9533024
-0.053963 0.039003 0.561000 8872539
-0.054348 0.042510 0.565000 9468002
-0.054444 0.045819 0.566000 9334879
-0.054540 0.049140 0.567000 8873313
-0.054636 0.052472 0.568000 7428947
-0.053083 0.016622 0.563000 12629704
-0.052517 0.019628 0.557000 11374257
-0.052423 0.022770 0.556000 11310250
-0.052423 0.025947 0.556000 12886695
-0.052611 0.029229 0.558000 13147529
-0.052800 0.032533 0.560000 9858156
-0.052800 0.035733 0.560000 9400157
-0.052989 0.039072 0.562000 8871514
-0.053271 0.042510 0.565000 9335644
-0.053460 0.045900 0.567000 9335135
-0.053460 0.049140 0.567000 8807778
-0.053649 0.052565 0.569000 7822169
-0.051456 0.019628 0.557000 11376054
-0.051364 0.022770 0.556000 11307686
-0.051549 0.026040 0.558000 12951202
-0.051733 0.029333 0.560000 13147276
-0.051826 0.032591 0.561000 9662572
-0.051918 0.035861 0.562000 9271131
-0.052010 0.039142 0.563000 8872287
-0.052195 0.042510 0.565000 9269350
-0.052380 0.045900 0.567000 9268320
-0.052472 0.049227 0.568000 8675680
-0.052565 0.052565 0.569000 8150868
-0.050395 0.019628 0.557000 11245243
-0.050305 0.022770 0.556000 11177121
-0.050395 0.025993 0.557000 13016989
-0.050576 0.029281 0.559000 12688014
-0.050757 0.032591 0.561000 9725035
-0.051029 0.035989 0.564000 9268312
-0.051119 0.039281 0.565000 8938341
-0.051119 0.042510 0.565000 9663088
-0.051300 0.045900 0.567000 9268065
-0.051481 0.049313 0.569000 8479070
-0.051662 0.052750 0.571000 8281936
-0.049246 0.022770 0.556000 11111828
-0.049334 0.025993 0.557000 13081745
-0.049600 0.029333 0.560000 12230540
-0.049689 0.032591 0.561000 9727843
-0.049954 0.035989 0.564000 9331274
-0.050043 0.039281 0.565000 9005152
-0.050043 0.042510 0.565000 10057065
-0.050220 0.045900 0.567000 9202277
-0.050397 0.049313 0.569000 8282464
-0.050486 0.052657 0.570000 8347733
-0.048187 0.022770 0.556000 10716038
-0.048273 0.025993 0.557000 13016710
-0.048533 0.029333 0.560000 11833226
-0.048707 0.032650 0.562000 9465690
-0.048880 0.035989 0.564000 8870460
-0.048967 0.039281 0.565000 9069660
-0.049053 0.042585 0.566000 9596513
-0.049313 0.046062 0.569000 9070697
-0.049400 0.049400 0.570000 8216674
-0.049487 0.052750 0.571000 8347995
-0.047212 0.022810 0.557000 10319745
-0.047297 0.026040 0.558000 12952219
-0.047551 0.029386 0.561000 11440286
-0.047636 0.032650 0.562000 9139845
-0.047806 0.035989 0.564000 8474732
-0.047890 0.039281 0.565000 9071990
-0.047975 0.042585 0.566000 9133681
-0.048314 0.046143 0.570000 8873062
-0.048399 0.049487 0.571000 8215382
-0.048399 0.052750 0.571000 8281171
-0.046151 0.022810 0.557000 11964795
-0.046234 0.026040 0.558000 13414576
-0.046483 0.029386 0.561000 12625073
-0.046566 0.032650 0.562000 11507375
-0.046731 0.035989 0.564000 10781851
-0.046814 0.039281 0.565000 10912400
-0.046897 0.042585 0.566000 10516097
-0.047229 0.046143 0.570000 9854564
-0.047394 0.049573 0.572000 9002057
-0.047394 0.052842 0.572000 8605516
-0.045090 0.022810 0.557000 13673369
-0.045171 0.026040 0.558000 13874099
-0.045414 0.029386 0.561000 13873330
-0.045495 0.032650 0.562000 13873842
-0.045657 0.035989 0.564000 13089453
-0.045738 0.039281 0.565000 12691370
-0.045819 0.042585 0.566000 11971233
-0.046143 0.046143 0.570000 10849938
-0.046305 0.049573 0.572000 9793411
-0.044267 0.029333 0.560000 13741746
-0.044346 0.032591 0.561000 13742518
-0.044583 0.035989 0.564000 13481407
-0.044662 0.039281 0.565000 13351621
-0.044741 0.042585 0.566000 13021633
-0.045057 0.046143 0.570000 12563904
-0.045215 0.049573 0.572000 12033724
-0.043586 0.039281 0.565000 14004668
-0.043971 0.046143 0.570000 14202297
-0.044126 0.049573 0.572000 14268087
-0.044203 0.052934 0.573000 14201012
-0.194670 0.032880 0.548000 10059151
-0.194670 0.036011 0.548000 11695224
-0.193980 0.032940 0.549000 10716560
-0.193627 0.036011 0.548000 10169944
-0.192583 0.032880 0.548000 11377322
-0.192231 0.035946 0.547000 8613497
-0.191529 0.038929 0.545000 9334903
-0.191539 0.032880 0.548000 11969988
-0.191539 0.036011 0.548000 10524826
-0.190490 0.038929 0.545000 9663598
-0.190843 0.029803 0.549000 12954006
-0.190495 0.032880 0.548000 12629179
-0.190495 0.036011 0.548000 12364470
-0.189105 0.038857 0.544000 10060178
-0.189797 0.029803 0.549000 13413776
-0.189451 0.032880 0.548000 13021617
-0.189451 0.036011 0.548000 13355474
-0.188069 0.038857 0.544000 10195893
-0.188751 0.029803 0.549000 13875075
-0.188408 0.032880 0.548000 13480882
-0.188408 0.036011 0.548000 14271956
-0.185313 0.038500 0.539000 10393238
-0.184282 0.041349 0.536000 7299686
-0.183938 0.044329 0.535000 9664108
-0.188731 0.029966 0.552000 14009719
-0.187364 0.032880 0.548000 13349811
-0.187364 0.036011 0.548000 13943510
-0.183945 0.038429 0.538000 9333111
-0.183261 0.041349 0.536000 9538411
-0.182919 0.044329 0.535000 9138540
-0.188360 0.030074 0.554000 14075799
-0.186660 0.032940 0.549000 13283256
-0.186320 0.036011 0.548000 13548230
-0.182920 0.038429 0.538000 8337739
-0.182240 0.041349 0.536000 11769483
-0.181900 0.044329 0.535000 8677473
-0.187305 0.030074 0.554000 14077367
-0.185614 0.032940 0.549000 13217468
-0.184600 0.035880 0.546000 12892598
-0.181895 0.038429 0.538000 8608542
-0.181219 0.041349 0.536000 11773611
-0.180543 0.044246 0.534000 6374486
-0.178176 0.049689 0.527000 9992311
-0.186250 0.030074 0.554000 14069927
-0.184905 0.033000 0.550000 13151422
-0.183560 0.035880 0.546000 12165290
-0.180870 0.038429 0.538000 8871500
-0.180198 0.041349 0.536000 11703203
-0.179190 0.044163 0.533000 4129857
-0.177509 0.046766 0.528000 6245711
-0.176836 0.049594 0.526000 9795678
-0.184860 0.030020 0.553000 12618903
-0.183857 0.033000 0.550000 13087167
-0.182520 0.035880 0.546000 10982815
-0.179846 0.038429 0.538000 9861754
-0.179177 0.041349 0.536000 10587548
-0.177840 0.044080 0.532000 3608363
-0.176503 0.046766 0.528000 4928833
-0.175834 0.049594 0.526000 8020549
-0.172157 0.057386 0.515000 9070950
-0.183142 0.029911 0.551000 11112096
-0.182477 0.032940 0.549000 13088200
-0.181148 0.035814 0.545000 9797786
-0.178489 0.038357 0.537000 10916486
-0.177824 0.041271 0.535000 9469333
-0.176494 0.043997 0.531000 3087668
-0.175165 0.046677 0.527000 3616050
-0.174500 0.049500 0.525000 6309923
-0.172838 0.052000 0.520000 9467235
-0.171176 0.057386 0.515000 9332834
-0.182092 0.029911 0.551000 11703210
-0.181101 0.032880 0.548000 13154512
-0.179779 0.035749 0.544000 9530006
-0.177796 0.038429 0.538000 10786450
-0.176474 0.041194 0.534000 9799310
-0.175152 0.043914 0.530000 3548989
-0.174161 0.046677 0.527000 3286051
-0.172509 0.049217 0.522000 5116929
-0.170856 0.051700 0.517000 9270363
-0.170195 0.054443 0.515000 9533291
-0.170195 0.057386 0.515000 9332062
-0.181043 0.029911 0.551000 12230060
-0.180057 0.032880 0.548000 13286605
-0.178743 0.035749 0.544000 9207444
-0.176443 0.038357 0.537000 10658440
-0.175457 0.041194 0.534000 10060428
-0.174143 0.043914 0.530000 4007227
-0.172500 0.046500 0.525000 2958123
-0.171186 0.049123 0.521000 3933240
-0.169871 0.051700 0.517000 9008759
-0.169214 0.054443 0.515000 9927787
-0.168886 0.057274 0.514000 9334118
-0.180320 0.029966 0.552000 12491950
-0.179340 0.032940 0.549000 12957386
-0.177707 0.035749 0.544000 9467282
-0.175093 0.038286 0.536000 10588798
-0.174440 0.041194 0.534000 10984842
-0.173133 0.043914 0.530000 4731192
-0.171173 0.046411 0.524000 4403251
-0.169867 0.049029 0.520000 6968175
-0.168887 0.051700 0.517000 9930131
-0.168233 0.054443 0.515000 9794666
-0.167907 0.057274 0.514000 9598063
-0.178944 0.029911 0.551000 12690872
-0.177970 0.032880 0.548000 12629706
-0.176670 0.035749 0.544000 9730945
-0.174072 0.038286 0.536000 10522237
-0.173423 0.041194 0.534000 11901067
-0.172124 0.043914 0.530000 5450024
-0.170175 0.046411 0.524000 5849655
-0.168876 0.049029 0.520000 10002315
-0.167577 0.051600 0.516000 10783635
-0.166278 0.054126 0.512000 9663109
-0.166278 0.057051 0.512000 9793896
-0.177894 0.029911 0.551000 12428738
-0.176926 0.032880 0.548000 12363209
-0.175634 0.035749 0.544000 9598320
-0.172729 0.038214 0.535000 10323580
-0.172083 0.041117 0.533000 11838605
-0.171437 0.043997 0.531000 7424535
-0.168854 0.046323 0.523000 7496507
-0.167886 0.049029 0.520000 10460327
-0.165949 0.051400 0.514000 11044756
-0.165303 0.054126 0.512000 10652576
-0.164980 0.056940 0.511000 9398626
-0.178770 0.027054 0.557000 13944256
-0.176845 0.029911 0.551000 12167366
-0.175882 0.032880 0.548000 12101834
-0.174598 0.035749 0.544000 9469315
-0.172351 0.038357 0.537000 10190741
-0.170747 0.041040 0.532000 11704974
-0.170105 0.043914 0.530000 9460006
-0.167858 0.046323 0.523000 9071168
-0.166574 0.048934 0.519000 10986390
-0.164970 0.051400 0.514000 11247019
-0.164007 0.054020 0.511000 11641765
-0.163044 0.056606 0.508000 8945035
-0.178029 0.027103 0.558000 13547701
-0.176114 0.029966 0.552000 12820171
-0.175157 0.032940 0.549000 12693962
-0.173243 0.035683 0.543000 10781845
-0.171329 0.038357 0.537000 11312301
-0.169733 0.041040 0.532000 11772303
-0.169095 0.043914 0.530000 9201204
-0.166862 0.046323 0.523000 8875077
-0.165586 0.048934 0.519000 10849669
-0.163990 0.051400 0.514000 12366274
-0.163033 0.054020 0.511000 11904425
-0.162076 0.056606 0.508000 10525107
-0.161757 0.059391 0.507000 9595752
-0.161438 0.062166 0.506000 8343076
-0.176966 0.027103 0.558000 13087419
-0.175063 0.029966 0.552000 13418184
-0.174111 0.032940 0.549000 13352395
-0.172209 0.035683 0.543000 12100525
-0.170623 0.038429 0.538000 12437961
-0.168720 0.041040 0.532000 11835285
-0.168086 0.043914 0.530000 8936756
-0.165866 0.046323 0.523000 8611394
-0.164597 0.048934 0.519000 10723204
-0.163646 0.051600 0.516000 13417674
-0.161743 0.053914 0.510000 12168897
-0.160791 0.056494 0.507000 12032433
-0.160791 0.059391 0.507000 10196135
-0.160791 0.062289 0.507000 7362366
-0.161109 0.065314 0.508000 8542535
-0.162060 0.068620 0.511000 8872521
-0.175903 0.027103 0.558000 12298176
-0.174011 0.029966 0.552000 14012869
-0.172750 0.032880 0.548000 13681868
-0.171174 0.035683 0.543000 11971012
-0.169598 0.038429 0.538000 12960996
-0.167707 0.041040 0.532000 11176859
-0.167076 0.043914 0.530000 8279603
-0.165185 0.046411 0.524000 8085056
-0.163609 0.048934 0.519000 11050626
-0.162663 0.051600 0.516000 13616083
-0.160771 0.053914 0.510000 13025241
-0.159826 0.056494 0.507000 11241392
-0.159826 0.059391 0.507000 11708645
-0.159826 0.062289 0.507000 8678232
-0.160456 0.065443 0.509000 8937792
-0.161087 0.068620 0.511000 8938052
-0.174840 0.027103 0.558000 11577525
-0.172960 0.029966 0.552000 14598593
-0.172020 0.032940 0.549000 14074571
-0.170140 0.035683 0.543000 11774393
-0.168260 0.038357 0.537000 13544934
-0.166380 0.040963 0.531000 10520733
-0.165753 0.043831 0.529000 7624496
-0.164187 0.046411 0.524000 7494465
-0.162620 0.048934 0.519000 11382155
-0.161680 0.051600 0.516000 13746637
-0.159800 0.053914 0.510000 13946852
-0.158860 0.056494 0.507000 10394808
-0.158547 0.059274 0.506000 13212123
-0.158547 0.062166 0.506000 9993838
-0.158860 0.065186 0.507000 9398054
-0.159800 0.068486 0.510000 8939059
-0.160113 0.071540 0.511000 8607822
-0.160427 0.074606 0.512000 7952723
-0.160427 0.077531 0.512000 8016196
-0.174089 0.027151 0.559000 11639466
-0.171597 0.029911 0.551000 13548989
-0.170974 0.032940 0.549000 13876938
-0.168794 0.035617 0.542000 11572910
-0.168171 0.038571 0.540000 13219303
-0.165369 0.040963 0.531000 11310239
-0.164123 0.043666 0.527000 7494445
-0.163811 0.046589 0.526000 6902339
-0.161631 0.048934 0.519000 10784659
-0.160697 0.051600 0.516000 13613766
-0.158829 0.053914 0.510000 14013166
-0.157583 0.056383 0.506000 11246528
-0.157583 0.059274 0.506000 12822480
-0.157583 0.062166 0.506000 11176067
-0.157894 0.065186 0.507000 10846219
-0.158829 0.068486 0.510000 10320930
-0.159140 0.071540 0.511000 9072991
-0.159451 0.074606 0.512000 8350038
-0.159451 0.077531 0.512000 8542270
-0.173024 0.027151 0.559000 11769509
-0.170548 0.029911 0.551000 12429236
-0.169929 0.032940 0.549000 13746888
-0.167762 0.035617 0.542000 11380665
-0.167143 0.038571 0.540000 12893646
-0.164357 0.040963 0.531000 12033197
-0.163119 0.043666 0.527000 7366735
-0.162500 0.046500 0.525000 6312765
-0.160333 0.048840 0.518000 10254709
-0.159714 0.051600 0.516000 13419222
-0.157857 0.053914 0.510000 14080999
-0.156619 0.056383 0.506000 12034747
-0.156619 0.059274 0.506000 12493740
-0.156619 0.062166 0.506000 12358530
-0.157238 0.065314 0.508000 12295496
-0.157857 0.068486 0.510000 11635537
-0.158167 0.071540 0.511000 9602680
-0.158476 0.074606 0.512000 8736558
-0.159095 0.077834 0.514000 9134158
-0.171959 0.027151 0.559000 11901344
-0.169806 0.029966 0.552000 11305132
-0.169190 0.033000 0.550000 13745605
-0.166730 0.035617 0.542000 12431044
-0.166114 0.038571 0.540000 12758965
-0.163346 0.040963 0.531000 12365499
-0.162115 0.043666 0.527000 8289392
-0.161500 0.046500 0.525000 6313016
-0.159347 0.048840 0.518000 10190422
-0.158731 0.051600 0.516000 13683430
-0.156886 0.053914 0.510000 13815263
-0.155655 0.056383 0.506000 12231095
-0.155655 0.059274 0.506000 11833224
-0.155655 0.062166 0.506000 12359042
-0.156270 0.065314 0.508000 12360836
-0.156886 0.068486 0.510000 11967105
-0.157193 0.071540 0.511000 9929104
-0.157501 0.074606 0.512000 5374215
-0.158116 0.077834 0.514000 6176349
-0.158731 0.081086 0.516000 8281939
-0.159039 0.084197 0.517000 8281918
-0.170894 0.027151 0.559000 11965855
-0.168449 0.029911 0.551000 10130080
-0.168143 0.033000 0.550000 13745093
-0.165697 0.035617 0.542000 13417413
-0.164169 0.038357 0.537000 12561595
-0.162334 0.040963 0.531000 12627393
-0.161111 0.043666 0.527000 9214617
-0.160194 0.046411 0.524000 6247224
-0.158360 0.048840 0.518000 10124377
-0.157749 0.051600 0.516000 13945823
-0.156220 0.054020 0.511000 13619162
-0.154691 0.056383 0.506000 12427693
-0.154691 0.059274 0.506000 11108241
-0.154691 0.062166 0.506000 12359554
-0.155303 0.065314 0.508000 12359552
-0.155914 0.068486 0.510000 12294014
-0.156220 0.071540 0.511000 10328720
-0.156831 0.074751 0.513000 1977921
-0.157443 0.077986 0.515000 3149141
-0.157749 0.081086 0.516000 8277589
-0.158054 0.084197 0.517000 8547185
-0.170133 0.027200 0.560000 11574429
-0.167703 0.029966 0.552000 10521749
-0.167095 0.033000 0.550000 13480644
-0.164665 0.035617 0.542000 14010054
-0.163146 0.038357 0.537000 12824513
-0.161627 0.041040 0.532000 13219783
-0.160108 0.043666 0.527000 9871554
-0.159196 0.046411 0.524000 4410680
-0.157373 0.048840 0.518000 9927516
-0.156462 0.051500 0.515000 13022425
-0.155247 0.054020 0.511000 13352661
-0.153728 0.056383 0.506000 12297635
-0.153728 0.059274 0.506000 11571098
-0.154031 0.062289 0.507000 12424834
-0.154639 0.065443 0.509000 12424827
-0.154943 0.068486 0.510000 12359035
-0.155247 0.071540 0.511000 11442576
-0.155854 0.074751 0.513000 7569276
-0.156462 0.077986 0.515000 6768972
-0.156766 0.081086 0.516000 9061720
-0.157070 0.084197 0.517000 9535139
-0.157981 0.087657 0.520000 9073506
-0.168765 0.027151 0.559000 11182746
-0.166350 0.029911 0.551000 10916750
-0.166048 0.033000 0.550000 13280438
-0.163632 0.035617 0.542000 14534088
-0.162123 0.038357 0.537000 13087934
-0.160915 0.041117 0.533000 13745870
-0.159104 0.043666 0.527000 10532045
-0.158198 0.046411 0.524000 2565166
-0.156689 0.048934 0.519000 9731158
-0.155481 0.051500 0.515000 12103626
-0.153971 0.053914 0.510000 13091795
-0.152764 0.056383 0.506000 12163747
-0.153066 0.059391 0.507000 12032915
-0.153368 0.062411 0.508000 12490624
-0.153670 0.065443 0.509000 12489849
-0.154575 0.068754 0.512000 12358521
-0.154575 0.071680 0.512000 12621189
-0.154877 0.074751 0.513000 13078644
-0.155481 0.077986 0.515000 10323047
-0.155783 0.081086 0.516000 9798519
-0.156085 0.084197 0.517000 10524835
-0.156689 0.087489 0.519000 9994107
-0.168600 0.024086 0.562000 12557420
-0.167700 0.027151 0.559000 10714519
-0.165600 0.029966 0.552000 11181704
-0.165000 0.033000 0.550000 12360103
-0.162300 0.035551 0.541000 14271691
-0.161400 0.038429 0.538000 13220795
-0.160200 0.041194 0.534000 13814229
-0.158100 0.043666 0.527000 10264024
-0.157500 0.046500 0.525000 5439781
-0.155700 0.048934 0.519000 9467471
-0.154500 0.051500 0.515000 11506363
-0.153000 0.053914 0.510000 12891601
-0.152100 0.056494 0.507000 11965858
-0.152100 0.059391 0.507000 12163723
-0.152700 0.062534 0.509000 12556159
-0.153000 0.065571 0.510000 12489847
-0.153600 0.068754 0.512000 12358264
-0.153600 0.071680 0.512000 12424569
-0.153900 0.074751 0.513000 11699052
-0.154800 0.078137 0.516000 10980482
-0.154800 0.081086 0.516000 10791062
-0.155100 0.084197 0.517000 11246754
-0.155700 0.087489 0.519000 11244693
-0.167530 0.024086 0.562000 13543503
-0.166635 0.027151 0.559000 10186590
-0.164549 0.029966 0.552000 11440000
-0.163952 0.033000 0.550000 11435665
-0.161568 0.035617 0.542000 14009808
-0.160375 0.038429 0.538000 13353399
-0.159183 0.041194 0.534000 13878728
-0.157096 0.043666 0.527000 10069201
-0.155904 0.046323 0.523000 8282997
-0.155010 0.049029 0.520000 9271917
-0.153519 0.051500 0.515000 10918307
-0.152029 0.053914 0.510000 12757941
-0.151134 0.056494 0.507000 11767204
-0.151134 0.059391 0.507000 12361353
-0.151730 0.062534 0.509000 12555903
-0.152029 0.065571 0.510000 12489594
-0.152625 0.068754 0.512000 12358266
-0.152923 0.071820 0.513000 12227700
-0.153221 0.074897 0.514000 10256753
-0.153817 0.078137 0.516000 11567735
-0.153817 0.081086 0.516000 11699838
-0.154115 0.084197 0.517000 12032123
-0.154711 0.087489 0.519000 12423804
-0.167348 0.020986 0.565000 13017234
-0.166755 0.024129 0.563000 14202930
-0.165867 0.027200 0.560000 10514981
-0.163497 0.029966 0.552000 10783609
-0.162905 0.033000 0.550000 11437179
-0.160535 0.035617 0.542000 13616852
-0.159054 0.038357 0.537000 13022130
-0.158462 0.041271 0.535000 14010811
-0.156092 0.043666 0.527000 11311561
-0.154908 0.046323 0.523000 12247493
-0.153723 0.048934 0.519000 10720650
-0.152538 0.051500 0.515000 11045770
-0.150761 0.053809 0.509000 12231064
-0.150169 0.056494 0.507000 11305383
-0.150169 0.059391 0.507000 12556934
-0.151057 0.062657 0.510000 12686975
-0.151057 0.065571 0.510000 12489852
-0.151650 0.068754 0.512000 12358267
-0.151946 0.071820 0.513000 12161646
-0.152834 0.075189 0.516000 10650485
-0.153130 0.078289 0.517000 11435628
-0.153130 0.081243 0.517000 10315622
-0.153427 0.084360 0.518000 11635028
-0.153723 0.087489 0.519000 10318178
-0.166271 0.020986 0.565000 12884592
-0.165977 0.024171 0.564000 14791210
-0.165094 0.027249 0.561000 10840905
-0.162740 0.030020 0.553000 10059390
-0.161857 0.033000 0.550000 11439492
-0.159503 0.035617 0.542000 13156045
-0.158031 0.038357 0.537000 12692594
-0.157149 0.041194 0.534000 14140047
-0.155089 0.043666 0.527000 12617659
-0.153911 0.046323 0.523000 16180443
-0.152734 0.048934 0.519000 12235443
-0.151851 0.051600 0.516000 11109769
-0.150086 0.053914 0.510000 11704216
-0.149497 0.056606 0.508000 10851994
-0.149497 0.059509 0.508000 12752262
-0.150086 0.062657 0.510000 12752509
-0.150086 0.065571 0.510000 12490109
-0.150969 0.068889 0.513000 12292990
-0.151851 0.072240 0.516000 12096882
-0.151851 0.075189 0.516000 11042933
-0.152146 0.078289 0.517000 11303796
-0.152440 0.081400 0.518000 8875362
-0.152440 0.084360 0.518000 11306845
-0.152734 0.087489 0.519000 8219485
-0.165195 0.020986 0.565000 12223821
-0.164610 0.024129 0.563000 14398753
-0.164026 0.027249 0.561000 12033388
-0.161394 0.029966 0.552000 9134466
-0.160810 0.033000 0.550000 11638669
-0.158470 0.035617 0.542000 13087686
-0.157009 0.038357 0.537000 13347889
-0.155547 0.041040 0.532000 14533987
-0.154085 0.043666 0.527000 12819628
-0.153208 0.046411 0.524000 15786225
-0.151746 0.048934 0.519000 12498652
-0.150576 0.051500 0.515000 11044488
-0.149114 0.053914 0.510000 11376279
-0.148530 0.056606 0.508000 11310989
-0.149114 0.059743 0.510000 12752261
-0.149407 0.062780 0.511000 12686971
-0.149407 0.065700 0.511000 12490109
-0.150284 0.069023 0.514000 12358784
-0.150576 0.072100 0.515000 12292726
-0.150869 0.075189 0.516000 10452340
-0.151161 0.078289 0.517000 11305851
-0.151453 0.081400 0.518000 9266783
-0.151161 0.084197 0.517000 9991014
-0.151746 0.087489 0.519000 10126681
-0.164119 0.020986 0.565000 11559480
-0.163829 0.024171 0.564000 14001954
-0.162667 0.027200 0.560000 13284478
-0.160343 0.029966 0.552000 8154751
-0.159471 0.032940 0.549000 11841427
-0.157148 0.035551 0.541000 12956087
-0.156567 0.038500 0.539000 13938723
-0.154533 0.041040 0.532000 14860352
-0.153081 0.043666 0.527000 13013439
-0.152210 0.046411 0.524000 15328240
-0.150467 0.048840 0.518000 12765150
-0.149595 0.051500 0.515000 10913418
-0.148724 0.054126 0.512000 11113104
-0.147852 0.056717 0.509000 11703936
-0.148143 0.059743 0.510000 12817542
-0.148724 0.062903 0.512000 12556157
-0.148724 0.065829 0.512000 12490109
-0.149595 0.069157 0.515000 12358524
-0.150176 0.072380 0.517000 12489847
-0.150176 0.075334 0.517000 9797494
-0.150467 0.078440 0.518000 11375480
-0.150467 0.081400 0.518000 9597022
-0.150467 0.084360 0.518000 8748908
-0.150757 0.087489 0.519000 11951957
-0.163043 0.020986 0.565000 11366179
-0.162754 0.024171 0.564000 13999650
-0.161600 0.027200 0.560000 13219472
-0.159291 0.029966 0.552000 8938620
-0.158426 0.032940 0.549000 11575449
-0.156406 0.035617 0.542000 13020840
-0.155540 0.038500 0.539000 14266644
-0.153520 0.041040 0.532000 14793245
-0.152654 0.043831 0.529000 13877201
-0.151211 0.046411 0.524000 15130095
-0.149769 0.048934 0.519000 12895200
-0.148614 0.051500 0.515000 11112588
-0.147749 0.054126 0.512000 11703433
-0.146883 0.056717 0.509000 12032114
-0.147171 0.059743 0.510000 12686982
-0.147749 0.062903 0.512000 12556416
-0.148037 0.065957 0.513000 12555645
-0.148326 0.069023 0.514000 12358520
-0.149191 0.072380 0.517000 12489848
-0.149480 0.075480 0.518000 11107961
-0.149769 0.078591 0.519000 11570804
-0.150346 0.081871 0.521000 10451293
-0.149480 0.084360 0.518000 9071729
-0.149769 0.087489 0.519000 9122385
-0.161967 0.020986 0.565000 11167526
-0.161680 0.024171 0.564000 13934881
-0.160533 0.027200 0.560000 13155206
-0.158240 0.029966 0.552000 9729412
-0.157093 0.032880 0.548000 11378344
-0.155373 0.035617 0.542000 13021089
-0.154513 0.038500 0.539000 14595354
-0.152507 0.041040 0.532000 14724907
-0.151933 0.043914 0.530000 14737376
-0.150213 0.046411 0.524000 14867692
-0.148780 0.048934 0.519000 13028576
-0.147347 0.051400 0.514000 11244156
-0.146487 0.054020 0.511000 12362610
-0.146200 0.056829 0.510000 12293493
-0.146200 0.059743 0.510000 12621442
-0.147060 0.063026 0.513000 12556416
-0.147347 0.066086 0.514000 12620669
-0.147633 0.069157 0.515000 12358776
-0.148207 0.072380 0.517000 12424057
-0.148780 0.075626 0.519000 12357241
-0.148780 0.078591 0.519000 11834741
-0.149353 0.081871 0.521000 11239786
-0.149927 0.085174 0.523000 9472373
-0.160890 0.020986 0.565000 10973480
-0.160321 0.024129 0.563000 13936416
-0.159467 0.027200 0.560000 12693372
-0.157189 0.029966 0.552000 10055053
-0.156050 0.032880 0.548000 12166327
-0.154626 0.035683 0.543000 13218459
-0.153487 0.038500 0.539000 13804063
-0.151493 0.041040 0.532000 13868345
-0.150639 0.043831 0.529000 14539247
-0.148930 0.046323 0.523000 14670826
-0.147222 0.048746 0.517000 12959200
-0.146368 0.051400 0.514000 12360301
-0.145513 0.054020 0.511000 12755546
-0.145229 0.056829 0.510000 12688760
-0.145513 0.059860 0.511000 12621694
-0.146083 0.063026 0.513000 12621952
-0.146368 0.066086 0.514000 12620924
-0.146937 0.069291 0.516000 12489848
-0.147222 0.072380 0.517000 12555386
-0.147507 0.075480 0.518000 12424058
-0.147791 0.078591 0.519000 12293493
-0.148361 0.081871 0.521000 11964535
-0.148930 0.085174 0.523000 10783353
-0.159814 0.020986 0.565000 10707737
-0.158966 0.024086 0.562000 13870884
-0.158117 0.027151 0.559000 12232581
-0.155854 0.029911 0.551000 10392473
-0.154723 0.032820 0.547000 13025202
-0.153309 0.035617 0.542000 13414798
-0.152460 0.038500 0.539000 12946230
-0.150197 0.040963 0.531000 12946982
-0.149349 0.043749 0.528000 14342626
-0.147934 0.046323 0.523000 14471391
-0.146237 0.048746 0.517000 12960467
-0.145389 0.051400 0.514000 13473888
-0.144823 0.054126 0.512000 13215542
-0.144257 0.056829 0.510000 13015932
-0.145106 0.060094 0.513000 12687484
-0.145106 0.063026 0.513000 12621695
-0.145389 0.066086 0.514000 12620413
-0.145954 0.069291 0.516000 12555386
-0.146237 0.072380 0.517000 12686457
-0.146803 0.075626 0.519000 12489337
-0.146803 0.078591 0.519000 12751990
-0.147369 0.081871 0.521000 12620151
-0.147934 0.085174 0.523000 12097658
-0.157614 0.024043 0.561000 14004520
-0.156210 0.027006 0.556000 12033165
-0.154524 0.029857 0.550000 11909285
-0.153962 0.032880 0.548000 13285293
-0.151995 0.035551 0.541000 13020546
-0.151433 0.038500 0.539000 11566157
-0.149186 0.040963 0.531000 11824916
-0.148343 0.043749 0.528000 13681108
-0.146938 0.046323 0.523000 14469076
-0.145252 0.048746 0.517000 13219782
-0.144410 0.051400 0.514000 13146450
-0.143848 0.054126 0.512000 12750098
-0.143567 0.056940 0.511000 12884608
-0.144129 0.060094 0.513000 12687482
-0.144129 0.063026 0.513000 12687230
-0.144971 0.066343 0.516000 12620926
-0.145252 0.069426 0.517000 12555900
-0.145814 0.072660 0.519000 12620920
-0.145814 0.075626 0.519000 12489081
-0.146095 0.078743 0.520000 12686455
-0.146938 0.082186 0.523000 12554360
-0.146938 0.085174 0.523000 12424570
-0.157941 0.021023 0.566000 10182699
-0.156546 0.024043 0.561000 14130987
-0.155150 0.027006 0.556000 11835022
-0.153755 0.029911 0.551000 13410196
-0.152918 0.032880 0.548000 13543034
-0.150965 0.035551 0.541000 12558218
-0.150128 0.038429 0.538000 10253110
-0.148453 0.041040 0.532000 10647590
-0.147058 0.043666 0.527000 13025738
-0.146221 0.046411 0.524000 14400459
-0.144268 0.048746 0.517000 13548236
-0.143430 0.051400 0.514000 12816205
-0.142872 0.054126 0.512000 12351783
-0.142872 0.057051 0.512000 12753796
-0.143151 0.060094 0.513000 12687484
-0.143430 0.063149 0.514000 12686976
-0.143989 0.066343 0.516000 12620929
-0.144268 0.069426 0.517000 12555902
-0.144826 0.072660 0.519000 12555642
-0.145105 0.075771 0.520000 12489593
-0.145105 0.078743 0.520000 12555380
-0.145942 0.082186 0.523000 12489078
-0.146221 0.085337 0.524000 12686456
-0.157140 0.021060 0.567000 10581067
-0.155754 0.024086 0.562000 13406510
-0.153814 0.026957 0.555000 11769486
-0.152429 0.029857 0.550000 12939652
-0.151597 0.032820 0.547000 13013831
-0.150211 0.035617 0.542000 11834771
-0.149103 0.038429 0.538000 10250270
-0.147440 0.041040 0.532000 10908472
-0.146331 0.043749 0.528000 12430015
-0.145223 0.046411 0.524000 13348290
-0.143560 0.048840 0.518000 13811153
-0.142729 0.051500 0.515000 11828808
-0.142174 0.054231 0.513000 11563324
-0.142174 0.057163 0.513000 12688008
-0.142174 0.060094 0.513000 12621694
-0.142451 0.063149 0.514000 12687234
-0.143006 0.066343 0.516000 12555396
-0.143560 0.069560 0.518000 12556161
-0.143837 0.072660 0.519000 12555899
-0.144391 0.075917 0.521000 12424058
-0.144946 0.079197 0.523000 12555376
-0.144946 0.082186 0.523000 12489076
-0.156060 0.021060 0.567000 11043962
-0.154959 0.024129 0.563000 12686425
-0.153032 0.027006 0.556000 11711631
-0.151106 0.029803 0.549000 12490889
-0.150555 0.032820 0.547000 12488043
-0.149454 0.035683 0.543000 11112331
-0.147803 0.038357 0.537000 10314804
-0.146427 0.041040 0.532000 11175759
-0.145326 0.043749 0.528000 11837875
-0.143950 0.046323 0.523000 12234174
-0.142573 0.048840 0.518000 14008225
-0.141748 0.051500 0.515000 10844742
-0.141197 0.054231 0.513000 10771278
-0.141197 0.057163 0.513000 12622469
-0.141472 0.060211 0.514000 12621177
-0.141748 0.063271 0.515000 12686975
-0.142298 0.066471 0.517000 12555394
-0.142573 0.069560 0.518000 12555903
-0.142849 0.072660 0.519000 12555900
-0.143399 0.075917 0.521000 12359035
-0.144225 0.079349 0.524000 12620916
-0.144500 0.082500 0.525000 12424057
-0.156073 0.017946 0.571000 12363387
-0.155253 0.021097 0.568000 11242408
-0.153067 0.024000 0.560000 13678724
-0.151973 0.027006 0.556000 12557967
-0.149787 0.029749 0.548000 13683087
-0.149513 0.032820 0.547000 13082767
-0.148147 0.035617 0.542000 11048322
-0.146507 0.038286 0.536000 10513481
-0.145413 0.041040 0.532000 12490599
-0.144047 0.043666 0.527000 11901607
-0.142953 0.046323 0.523000 12493498
-0.141313 0.048746 0.517000 13084017
-0.140767 0.051500 0.515000 11106629
-0.140220 0.054231 0.513000 11039840
-0.140493 0.057274 0.514000 12621186
-0.140493 0.060211 0.514000 12686708
-0.141040 0.063394 0.516000 12686973
-0.141313 0.066471 0.517000 12555648
-0.141587 0.069560 0.518000 12555902
-0.141860 0.072660 0.519000 12556156
-0.142680 0.076063 0.522000 12490364
-0.143500 0.079500 0.525000 12621431
-0.143773 0.082657 0.526000 12489599
-0.154986 0.017946 0.571000 13736330
-0.154443 0.021134 0.569000 11502725
-0.152543 0.024086 0.562000 14595724
-0.150914 0.027006 0.556000 13339277
-0.149014 0.029803 0.549000 14857113
-0.148471 0.032820 0.547000 13677460
-0.147114 0.035617 0.542000 10912892
-0.145757 0.038357 0.537000 10715257
-0.144400 0.041040 0.532000 13740408
-0.143586 0.043831 0.529000 11960939
-0.141686 0.046234 0.522000 12690612
-0.140871 0.048934 0.519000 12097869
-0.139786 0.051500 0.515000 11304000
-0.139243 0.054231 0.513000 11377270
-0.139514 0.057274 0.514000 12621440
-0.139786 0.060329 0.515000 12752249
-0.140329 0.063517 0.517000 12686972
-0.140600 0.066600 0.518000 12490113
-0.140871 0.069694 0.519000 12555901
-0.141143 0.072800 0.520000 12621435
-0.141957 0.076209 0.523000 12555898
-0.142771 0.079651 0.526000 12687225
-0.143043 0.082814 0.527000 12489597
-0.154437 0.018009 0.573000 10187928
-0.153090 0.021097 0.568000 11764577
-0.152011 0.024171 0.564000 14008469
-0.149855 0.027006 0.556000 13279627
-0.147969 0.029803 0.549000 12292259
-0.147699 0.032880 0.548000 13741720
-0.146351 0.035683 0.543000 10847607
-0.144734 0.038357 0.537000 11835304
-0.143387 0.041040 0.532000 14140553
-0.142578 0.043831 0.529000 9854767
-0.140961 0.046323 0.523000 11901358
-0.139883 0.048934 0.519000 12029993
-0.139074 0.051600 0.516000 10977084
-0.138535 0.054337 0.514000 11901068
-0.138805 0.057386 0.515000 12686719
-0.139074 0.060446 0.516000 12752765
-0.139613 0.063640 0.518000 12752508
-0.139883 0.066729 0.519000 12621185
-0.139883 0.069694 0.519000 12687228
-0.140152 0.072800 0.520000 12621434
-0.140961 0.076209 0.523000 12621432
-0.141770 0.079651 0.526000 12687226
-0.142039 0.082814 0.527000 12555132
-0.153346 0.018009 0.573000 6578076
-0.152008 0.021097 0.568000 12030840
-0.150670 0.024129 0.563000 13408661
-0.149064 0.027054 0.557000 13221016
-0.146923 0.029803 0.549000 9732254
-0.146388 0.032820 0.547000 13809301
-0.145317 0.035683 0.543000 10783626
-0.143711 0.038357 0.537000 13027270
-0.141838 0.040886 0.530000 14465690
-0.141570 0.043831 0.529000 7799637
-0.139430 0.046146 0.521000 11049109
-0.138894 0.048934 0.519000 12029744
-0.138091 0.051600 0.516000 10581821
-0.137556 0.054337 0.514000 12492945
-0.137824 0.057386 0.515000 12687232
-0.138091 0.060446 0.516000 12753025
-0.138894 0.063763 0.519000 12752509
-0.138894 0.066729 0.519000 12817536
-0.139162 0.069829 0.520000 12752510
-0.139430 0.072940 0.521000 12686970
-0.140768 0.076646 0.526000 12686968
-0.141035 0.079803 0.527000 12687229
-0.141035 0.082814 0.527000 12620924
-0.152520 0.018040 0.574000 3880353
-0.150926 0.021097 0.568000 10649998
-0.149331 0.024086 0.562000 12880277
-0.148003 0.027054 0.557000 13612708
-0.145877 0.029803 0.549000 9926298
-0.145346 0.032820 0.547000 13412241
-0.144017 0.035617 0.542000 10849438
-0.142954 0.038429 0.538000 13156324
-0.140829 0.040886 0.530000 14339755
-0.140829 0.043914 0.530000 7614586
-0.138703 0.046234 0.522000 11443323
-0.137640 0.048840 0.518000 12096055
-0.137109 0.051600 0.516000 10450494
-0.136843 0.054443 0.515000 12557205
-0.137109 0.057497 0.516000 12752769
-0.137640 0.060680 0.518000 12753029
-0.138171 0.063886 0.520000 12752511
-0.138703 0.067114 0.522000 12686719
-0.138437 0.069963 0.521000 12686719
-0.138437 0.072940 0.521000 12686969
-0.139766 0.076646 0.526000 12686969
-0.140031 0.079803 0.527000 12686975
-0.151163 0.018009 0.573000 1130140
-0.149844 0.021097 0.568000 9202322
-0.147997 0.024043 0.561000 12296088
-0.146678 0.027006 0.556000 14071456
-0.145887 0.030020 0.553000 10057117
-0.144040 0.032760 0.546000 13090461
-0.142985 0.035617 0.542000 10917017
-0.141930 0.038429 0.538000 13226204
-0.139819 0.040886 0.530000 14203581
-0.139555 0.043831 0.529000 7471503
-0.137709 0.046234 0.522000 11838092
-0.136653 0.048840 0.518000 12229430
-0.136126 0.051600 0.516000 10251348
-0.136126 0.054549 0.516000 12624010
-0.136126 0.057497 0.516000 12752767
-0.136917 0.060797 0.519000 12753027
-0.137445 0.064009 0.521000 12687230
-0.137709 0.067114 0.522000 12620925
-0.137972 0.070231 0.523000 12555645
-0.137972 0.073220 0.523000 12752506
-0.138500 0.076500 0.525000 12686969
-0.139028 0.079803 0.527000 12686974
-0.150071 0.018009 0.573000 1651864
-0.148762 0.021097 0.568000 8610454
-0.146929 0.024043 0.561000 13280155
-0.145881 0.027054 0.557000 14201244
-0.144833 0.030020 0.553000 10710944
-0.143000 0.032760 0.546000 13612713
-0.141952 0.035617 0.542000 10783891
-0.140643 0.038357 0.537000 13418707
-0.138548 0.040809 0.529000 13944783
-0.138548 0.043831 0.529000 9795492
-0.136714 0.046234 0.522000 11769502
-0.135929 0.048934 0.519000 12359221
-0.135143 0.051600 0.516000 11304299
-0.135143 0.054549 0.516000 12688255
-0.135405 0.057609 0.517000 12752510
-0.136190 0.060914 0.520000 12818304
-0.136190 0.063886 0.520000 12687486
-0.136976 0.067243 0.523000 12620923
-0.136976 0.070231 0.523000 12752251
-0.137762 0.073640 0.526000 12686971
-0.138024 0.076791 0.527000 12686714
-0.138286 0.079954 0.528000 12752509
-0.148980 0.018009 0.573000 2175898
-0.147420 0.021060 0.567000 8027551
-0.145600 0.024000 0.560000 14264982
-0.144820 0.027054 0.557000 14333089
-0.143520 0.029966 0.552000 11374231
-0.141700 0.032700 0.545000 14205092
-0.140920 0.035617 0.542000 10587537
-0.139620 0.038357 0.537000 13550806
-0.137540 0.040809 0.529000 13679051
-0.137280 0.043749 0.528000 12172978
-0.135720 0.046234 0.522000 11639711
-0.134680 0.048840 0.518000 12554562
-0.134160 0.051600 0.516000 12291681
-0.134160 0.054549 0.516000 12818561
-0.134680 0.057720 0.518000 12687229
-0.135200 0.060914 0.520000 12818051
-0.135460 0.064009 0.521000 12687225
-0.135980 0.067243 0.523000 12620922
-0.136240 0.070366 0.524000 12883326
-0.137020 0.073780 0.527000 12686972
-0.137020 0.076791 0.527000 12621177
-0.137280 0.079954 0.528000 12818044
-0.146856 0.017883 0.569000 2305949
-0.146340 0.021060 0.567000 9734056
-0.144533 0.024000 0.560000 14399121
-0.143759 0.027054 0.557000 14465190
-0.142210 0.029911 0.551000 11829134
-0.140662 0.032700 0.545000 14136479
-0.139888 0.035617 0.542000 10519439
-0.138339 0.038286 0.536000 13748440
-0.136532 0.040809 0.529000 13612487
-0.136016 0.043666 0.527000 12102848
-0.134726 0.046234 0.522000 11571617
-0.133693 0.048840 0.518000 12687695
-0.133435 0.051700 0.517000 12360023
-0.133435 0.054654 0.517000 12226179
-0.134210 0.057943 0.520000 12687484
-0.134468 0.061031 0.521000 12818565
-0.134468 0.064009 0.521000 12752757
-0.134984 0.067243 0.523000 12621176
-0.135242 0.070366 0.524000 12752257
-0.136016 0.073780 0.527000 12621181
-0.136274 0.076937 0.528000 12621177
-0.136532 0.080106 0.529000 12686459
-0.145772 0.017883 0.569000 2436509
-0.145004 0.021023 0.566000 11448221
-0.143723 0.024043 0.561000 14463894
-0.142698 0.027054 0.557000 14661529
-0.141417 0.029966 0.552000 12229273
-0.139368 0.032640 0.544000 14071709
-0.138855 0.035617 0.542000 10388625
-0.137318 0.038286 0.536000 13950169
-0.135269 0.040731 0.528000 13483207
-0.134756 0.043583 0.526000 12100288
-0.133731 0.046234 0.522000 11508390
-0.132707 0.048840 0.518000 12886107
-0.132450 0.051700 0.517000 12425312
-0.132963 0.054866 0.519000 11567214
-0.133475 0.058054 0.521000 12620151
-0.133475 0.061031 0.521000 12753280
-0.133731 0.064131 0.522000 12752244
-0.133988 0.067243 0.523000 12621427
-0.134756 0.070634 0.526000 12620923
-0.135012 0.073780 0.527000 12620920
-0.135525 0.077083 0.529000 12621431
-0.135781 0.080257 0.530000 12620669
-0.143926 0.021023 0.566000 12428178
-0.142654 0.024043 0.561000 14594971
-0.141637 0.027054 0.557000 12883084
-0.139857 0.029857 0.550000 12687780
-0.138331 0.032640 0.544000 14135451
-0.137823 0.035617 0.542000 10321300
-0.136297 0.038286 0.536000 14012378
-0.134517 0.040809 0.529000 12630471
-0.133754 0.043583 0.526000 12231103
-0.132991 0.046323 0.523000 11835051
-0.131974 0.048934 0.519000 12557670
-0.131974 0.051900 0.519000 12492138
-0.131974 0.054866 0.519000 11235929
-0.132483 0.058054 0.521000 11697777
-0.132991 0.061266 0.523000 11964027
-0.132737 0.064131 0.522000 12028532
-0.133246 0.067371 0.524000 12358766
-0.134009 0.070769 0.527000 12686710
-0.134009 0.073780 0.527000 12752243
-0.134517 0.077083 0.529000 12687478
-0.144110 0.017946 0.571000 2770846
-0.142848 0.021023 0.566000 13475985
-0.141586 0.024043 0.561000 14726303
-0.140324 0.027006 0.556000 11099793
-0.138557 0.029803 0.549000 13148317
-0.137295 0.032640 0.544000 14202269
-0.136790 0.035617 0.542000 10192792
-0.135276 0.038286 0.536000 14146782
-0.133257 0.040731 0.528000 11773378
-0.132248 0.043417 0.524000 12427966
-0.131995 0.046323 0.523000 12167099
-0.130986 0.048934 0.519000 12229232
-0.131238 0.052000 0.520000 12556659
-0.131238 0.054971 0.520000 10970985
-0.131743 0.058166 0.522000 10716272
-0.131995 0.061266 0.523000 11110519
-0.131995 0.064254 0.523000 11239787
-0.132500 0.067500 0.525000 12097395
-0.133005 0.070769 0.527000 12751734
-0.133257 0.073920 0.528000 12818286
-0.133762 0.077229 0.530000 12752244
-0.142771 0.017914 0.570000 5917342
-0.141770 0.021023 0.566000 13673615
-0.140267 0.024000 0.560000 14661028
-0.139265 0.027006 0.556000 11627670
-0.137010 0.029694 0.547000 14135702
-0.136259 0.032640 0.544000 14069918
-0.135758 0.035617 0.542000 9535901
-0.134255 0.038286 0.536000 14143713
-0.132251 0.040731 0.528000 11373245
-0.131250 0.043417 0.524000 12823229
-0.130999 0.046323 0.523000 12567498
-0.130248 0.049029 0.520000 11635834
-0.130248 0.052000 0.520000 12687741
-0.130248 0.054971 0.520000 11632505
-0.130749 0.058166 0.522000 11570799
-0.130749 0.061149 0.522000 11240050
-0.130999 0.064254 0.523000 10910050
-0.131750 0.067629 0.526000 11240056
-0.132251 0.070903 0.528000 12159351
-0.132502 0.074060 0.529000 12028777
-0.133003 0.077374 0.531000 12094577
-0.141934 0.017946 0.571000 9006233
-0.140940 0.021060 0.567000 13867917
-0.139200 0.024000 0.560000 14595483
-0.138206 0.027006 0.556000 12150678
-0.136217 0.029749 0.548000 15054740
-0.134974 0.032580 0.543000 13940382
-0.134726 0.035617 0.542000 8876683
-0.133234 0.038286 0.536000 14146010
-0.131494 0.040809 0.529000 10919359
-0.130251 0.043417 0.524000 13282748
-0.130003 0.046323 0.523000 12887481
-0.129257 0.049029 0.520000 11108987
-0.129257 0.052000 0.520000 12818571
-0.129257 0.054971 0.520000 12291702
-0.129754 0.058166 0.522000 12358262
-0.130003 0.061266 0.523000 11374707
-0.130500 0.064500 0.525000 10583659
-0.130997 0.067757 0.527000 10386543
-0.131494 0.071037 0.529000 11502189
-0.131743 0.074200 0.530000 11174239
-0.131991 0.077374 0.531000 11371370
-0.140847 0.017946 0.571000 10456213
-0.139613 0.021023 0.566000 13470090
-0.138380 0.024043 0.561000 14531218
-0.137147 0.027006 0.556000 12484246
-0.135173 0.029749 0.548000 14989714
-0.134187 0.032640 0.544000 13939614
-0.133447 0.035551 0.541000 8073849
-0.131967 0.038214 0.535000 14208723
-0.130980 0.040963 0.531000 11376576
-0.129253 0.043417 0.524000 12956091
-0.129007 0.046323 0.523000 11567784
-0.128267 0.049029 0.520000 11175803
-0.128267 0.052000 0.520000 12623000
-0.128267 0.054971 0.520000 12491123
-0.128760 0.058166 0.522000 12556925
-0.129747 0.061617 0.526000 12096628
-0.129993 0.064746 0.527000 11767668
-0.130240 0.067886 0.528000 11110502
-0.130733 0.071171 0.530000 11106915
-0.130733 0.074200 0.530000 10580564
-0.130980 0.077374 0.531000 10907491
-0.140004 0.017977 0.572000 11830684
-0.138535 0.021023 0.566000 13074032
-0.137556 0.024086 0.562000 14459277
-0.136088 0.027006 0.556000 12747163
-0.134374 0.029803 0.549000 14857874
-0.132906 0.032580 0.543000 13941148
-0.132661 0.035617 0.542000 7299452
-0.130703 0.038143 0.534000 14277587
-0.129969 0.040963 0.531000 11774657
-0.128745 0.043583 0.526000 12624565
-0.128010 0.046323 0.523000 10194342
-0.127521 0.049123 0.521000 11239564
-0.127521 0.052100 0.521000 12358274
-0.127521 0.055077 0.521000 12622967
-0.127766 0.058166 0.522000 12686713
-0.128990 0.061734 0.527000 12818039
-0.129479 0.064991 0.529000 12882549
-0.129479 0.068014 0.529000 11835509
-0.129724 0.071171 0.530000 10714730
-0.129969 0.074340 0.531000 9987680
-0.130213 0.077520 0.532000 10451563
-0.140614 0.014889 0.579000 5979553
-0.139157 0.018009 0.573000 12622499
-0.137457 0.021023 0.566000 13398613
-0.136486 0.024086 0.562000 12817288
-0.135029 0.027006 0.556000 12422815
-0.133086 0.029749 0.548000 14858899
-0.131871 0.032580 0.543000 13808537
-0.131629 0.035617 0.542000 7678847
-0.129686 0.038143 0.534000 14602194
-0.128714 0.040886 0.530000 12561603
-0.127986 0.043666 0.527000 12230062
-0.127014 0.046323 0.523000 10654116
-0.126529 0.049123 0.521000 11440029
-0.126529 0.052100 0.521000 11104876
-0.127014 0.055289 0.523000 11765882
-0.127257 0.058389 0.524000 11831158
-0.127986 0.061734 0.527000 12489594
-0.128229 0.064869 0.528000 12685943
-0.128714 0.068143 0.530000 12293251
-0.128957 0.071306 0.531000 11702130
-0.128957 0.074340 0.531000 11305579
-0.129200 0.077520 0.532000 11636083
-0.139030 0.014837 0.577000 6095511
-0.138066 0.018009 0.573000 13344415
-0.136138 0.020986 0.565000 13655418
-0.135174 0.024043 0.561000 11177866
-0.134210 0.027054 0.557000 12094857
-0.132042 0.029749 0.548000 14858390
-0.131078 0.032640 0.544000 13677719
-0.130596 0.035617 0.542000 8023176
-0.128428 0.038071 0.533000 14928073
-0.127705 0.040886 0.530000 13351626
-0.126741 0.043583 0.526000 11902653
-0.126018 0.046323 0.523000 11113889
-0.125536 0.049123 0.521000 11574682
-0.125777 0.052200 0.522000 9861222
-0.126018 0.055289 0.523000 10845808
-0.126741 0.058611 0.526000 10978164
-0.126982 0.061734 0.527000 12160623
-0.127223 0.064869 0.528000 12423796
-0.127705 0.068143 0.530000 12816507
-0.127946 0.071306 0.531000 12685941
-0.128187 0.074480 0.532000 12685679
-0.128428 0.077666 0.533000 12752500
-0.138648 0.011600 0.580000 13284246
-0.138409 0.014889 0.579000 5911436
-0.136974 0.018009 0.573000 13477275
-0.135062 0.020986 0.565000 13994910
-0.134106 0.024043 0.561000 11967373
-0.133150 0.027054 0.557000 12751986
-0.130998 0.029749 0.548000 14661273
-0.129803 0.032580 0.543000 13346964
-0.129564 0.035617 0.542000 9461649
-0.127651 0.038143 0.534000 14664639
-0.126934 0.040963 0.531000 13881042
-0.125739 0.043583 0.526000 12496331
-0.125022 0.046323 0.523000 11704479
-0.125022 0.049311 0.523000 11704215
-0.125022 0.052300 0.523000 10057313
-0.125261 0.055394 0.524000 10846053
-0.125739 0.058611 0.526000 10647922
-0.125978 0.061734 0.527000 11370596
-0.126217 0.064869 0.528000 12423538
-0.126695 0.068143 0.530000 12752243
-0.127173 0.071440 0.532000 12752248
-0.127173 0.074480 0.532000 12620402
-0.127651 0.077811 0.534000 12687221
-0.137543 0.011600 0.580000 12689312
