# .PCD v.7 - Point Cloud Data file format
VERSION .7
FIELDS x y z rgb
SIZE 4 4 4 4
TYPE F F F I
COUNT 1 1 1 1
WIDTH 1342
HEIGHT 1
POINTS 1342
DATA ascii
0.072486 0.112943 0.590000 15779243
0.072240 0.115920 0.588000 13476481
0.071871 0.118671 0.585000 12958917
0.071626 0.121597 0.583000 9594523
0.071626 0.124929 0.583000 8999990
0.071871 0.128700 0.585000 8146730
0.072363 0.132946 0.589000 7810583
0.072486 0.136543 0.590000 7881991
0.073591 0.142049 0.599000 8937800
0.073714 0.145714 0.600000 8940909
0.073960 0.149640 0.602000 9792605
0.073837 0.152826 0.601000 9991017
0.079224 0.074386 0.635000 5866984
0.078850 0.077646 0.632000 5733593
0.078226 0.080614 0.627000 7821698
0.077976 0.083929 0.625000 13479577
0.077228 0.086660 0.619000 16634279
0.076978 0.089906 0.617000 16699580
0.076604 0.092977 0.614000 15385520
0.075855 0.095543 0.608000 13935523
0.075606 0.098691 0.606000 14539461
0.075356 0.101817 0.604000 11639975
0.074857 0.104571 0.600000 15050648
0.074358 0.107280 0.596000 15843484
0.074109 0.110314 0.594000 14921362
0.073610 0.112943 0.590000 16368554
0.073235 0.115723 0.587000 13476245
0.072986 0.118671 0.585000 14596523
0.072611 0.121389 0.582000 9399705
0.072611 0.124714 0.582000 8082250
0.072986 0.128700 0.585000 8344112
0.073235 0.132494 0.587000 7880983
0.073485 0.136311 0.589000 7618323
0.074109 0.140863 0.594000 8674623
0.074732 0.145471 0.599000 9203551
0.074982 0.149391 0.601000 9530202
0.074982 0.152826 0.601000 9859425
0.080433 0.074386 0.635000 7114468
0.079927 0.077523 0.631000 5802217
0.079420 0.080614 0.627000 5725573
0.079167 0.083929 0.625000 14005655
0.078407 0.086660 0.619000 15446161
0.078153 0.089906 0.617000 16700094
0.077647 0.092826 0.613000 15453129
0.077013 0.095543 0.608000 13996200
0.076760 0.098691 0.606000 14007741
0.076507 0.101817 0.604000 12226722
0.076000 0.104571 0.600000 13998481
0.075493 0.107280 0.596000 15779222
0.075113 0.110129 0.593000 14460290
0.074480 0.112560 0.588000 16172712
0.074227 0.115526 0.586000 13805225
0.073847 0.118266 0.583000 13872274
0.073593 0.121180 0.581000 10782358
0.073467 0.124286 0.580000 7952221
0.073720 0.128040 0.582000 8674358
0.073973 0.131817 0.584000 8210712
0.074353 0.135849 0.587000 8080415
0.074607 0.139677 0.589000 8542518
0.075620 0.144986 0.597000 8938576
0.076000 0.149143 0.600000 9332568
0.076127 0.152826 0.601000 9793625
0.077140 0.158340 0.609000 9532004
0.081129 0.077523 0.631000 5867240
0.080614 0.080614 0.627000 3697336
0.080357 0.083929 0.625000 14517108
0.079586 0.086660 0.619000 14260398
0.079200 0.089760 0.616000 16693924
0.078686 0.092674 0.612000 15517352
0.077914 0.095229 0.606000 14068394
0.077657 0.098366 0.604000 13542307
0.077400 0.101480 0.602000 12757625
0.077014 0.104397 0.599000 12952693
0.076500 0.107100 0.595000 15711130
0.075857 0.109571 0.590000 14000022
0.075600 0.112560 0.588000 15908263
0.075214 0.115329 0.585000 14203045
0.074957 0.118266 0.583000 13148817
0.074571 0.120971 0.580000 12101302
0.074443 0.124071 0.579000 7826038
0.074571 0.127600 0.580000 9005905
0.074957 0.131591 0.583000 8475186
0.075343 0.135617 0.586000 8541466
0.075600 0.139440 0.588000 8345380
0.076500 0.144500 0.595000 8674895
0.077014 0.148894 0.599000 9135190
0.077143 0.152571 0.600000 9793371
0.078043 0.157820 0.607000 9728608
0.082070 0.077277 0.629000 5735654
0.081678 0.080486 0.626000 4157418
0.081287 0.083660 0.623000 11024976
0.080634 0.086520 0.618000 14198730
0.080373 0.089760 0.616000 15110283
0.079851 0.092674 0.612000 14653575
0.079069 0.095229 0.606000 14336428
0.078808 0.098366 0.604000 13608072
0.078547 0.101480 0.602000 14597968
0.078155 0.104397 0.599000 14465625
0.077503 0.106920 0.594000 14856607
0.076981 0.109571 0.590000 14988202
0.076720 0.112560 0.588000 15777701
0.076198 0.115131 0.584000 14989472
0.075937 0.118063 0.582000 13078928
0.075676 0.120971 0.580000 13483478
0.075546 0.124071 0.579000 9206414
0.075676 0.127600 0.580000 9006699
0.075807 0.131140 0.581000 8804172
0.076329 0.135386 0.585000 8804373
0.076720 0.139440 0.588000 8344851
0.077242 0.143771 0.592000 8147022
0.078025 0.148646 0.598000 8872789
0.078286 0.152571 0.600000 9727580
0.078808 0.157040 0.604000 9794140
0.083268 0.077277 0.629000 5538789
0.082870 0.080486 0.626000 4621025
0.082473 0.083660 0.623000 7566967
0.081944 0.086660 0.619000 14134637
0.081547 0.089760 0.616000 13476771
0.081150 0.092826 0.613000 13867177
0.080223 0.095229 0.606000 14531511
0.079958 0.098366 0.604000 13674873
0.079561 0.101311 0.601000 16432196
0.079296 0.104397 0.599000 16043580
0.078767 0.107100 0.595000 14004377
0.078105 0.109571 0.590000 15974311
0.077840 0.112560 0.588000 15580064
0.077310 0.115131 0.584000 15775399
0.077046 0.118063 0.582000 12954785
0.076781 0.120971 0.580000 14797740
0.076649 0.124071 0.579000 10524837
0.076649 0.127380 0.579000 9073000
0.076781 0.130914 0.580000 9068886
0.077178 0.134923 0.583000 9067819
0.077708 0.139203 0.587000 8345640
0.078237 0.143529 0.591000 7684426
0.078634 0.147651 0.594000 8609854
0.079031 0.151809 0.597000 9661527
0.079826 0.156780 0.603000 9859415
0.080355 0.161289 0.607000 8415557
0.084466 0.077277 0.629000 4947941
0.084063 0.080486 0.626000 6588887
0.083660 0.083660 0.623000 10528414
0.082989 0.086520 0.618000 10976528
0.082720 0.089760 0.616000 13614778
0.082317 0.092826 0.613000 13810379
0.081243 0.095071 0.605000 13807811
0.081109 0.098366 0.604000 14398313
0.080706 0.101311 0.601000 15576633
0.080169 0.104049 0.597000 15909918
0.079900 0.107100 0.595000 14001298
0.079229 0.109571 0.590000 15778468
0.078960 0.112560 0.588000 15380890
0.078423 0.115131 0.584000 15843757
0.078154 0.118063 0.582000 14596018
0.077886 0.120971 0.580000 14596737
0.077617 0.123857 0.578000 12498364
0.077483 0.126940 0.577000 9532517
0.077617 0.130463 0.578000 9529953
0.078020 0.134460 0.581000 8278592
0.078691 0.138966 0.586000 8411966
0.079229 0.143286 0.590000 7883589
0.079631 0.147403 0.593000 8148520
0.080034 0.151554 0.596000 9530706
0.080437 0.155740 0.599000 9990482
0.081109 0.160491 0.604000 7755597
0.085255 0.080486 0.626000 8488910
0.084847 0.083660 0.623000 13414058
0.084166 0.086520 0.618000 7903794
0.083893 0.089760 0.616000 13672609
0.083349 0.092674 0.612000 13811654
0.082395 0.095071 0.605000 13019578
0.082123 0.098203 0.603000 15122492
0.081714 0.101143 0.600000 14724151
0.081306 0.104049 0.597000 15842585
0.081033 0.107100 0.595000 14005633
0.080352 0.109571 0.590000 15583142
0.079944 0.112369 0.587000 15186084
0.079399 0.114934 0.583000 15976626
0.079263 0.118063 0.582000 16172467
0.078990 0.120971 0.580000 14458244
0.078718 0.123857 0.578000 14403772
0.078310 0.126500 0.575000 9992843
0.078446 0.130011 0.576000 9925478
0.078990 0.134229 0.580000 7556420
0.079671 0.138729 0.585000 8477765
0.080216 0.143043 0.589000 8084807
0.080489 0.146906 0.591000 7688758
0.081033 0.151300 0.595000 9334866
0.081578 0.155740 0.599000 10055770
0.082123 0.160226 0.603000 7097388
0.086310 0.080357 0.625000 10793412
0.086033 0.083660 0.623000 13280182
0.085343 0.086520 0.618000 9600852
0.084929 0.089614 0.615000 13671816
0.084514 0.092674 0.612000 13546433
0.083548 0.095071 0.605000 13017009
0.083271 0.098203 0.603000 14265102
0.082857 0.101143 0.600000 14523958
0.082443 0.104049 0.597000 15447316
0.082167 0.107100 0.595000 14926703
0.081476 0.109571 0.590000 15712423
0.081062 0.112369 0.587000 15645358
0.080510 0.114934 0.583000 16042422
0.080233 0.117860 0.581000 16239797
0.080095 0.120971 0.580000 14130054
0.079543 0.123429 0.576000 15460027
0.079267 0.126280 0.574000 11180208
0.079405 0.129786 0.575000 10124394
0.079819 0.133766 0.578000 7885896
0.080233 0.137780 0.581000 8544077
0.081200 0.142800 0.588000 8281161
0.081476 0.146657 0.590000 7950916
0.082029 0.151046 0.594000 9332817
0.082443 0.155220 0.597000 9990497
0.082857 0.159429 0.600000 7425803
0.087500 0.080357 0.625000 13165232
0.087080 0.083526 0.622000 13089477
0.086520 0.086520 0.618000 11235186
0.086100 0.089614 0.615000 13675663
0.085680 0.092674 0.612000 13283787
0.084700 0.095071 0.605000 13020590
0.084420 0.098203 0.603000 13476645
0.084000 0.101143 0.600000 14324007
0.083580 0.104049 0.597000 15053323
0.083020 0.106740 0.593000 15844187
0.082740 0.109757 0.591000 15777968
0.082320 0.112560 0.588000 16040110
0.081620 0.114934 0.583000 16173491
0.081340 0.117860 0.581000 16304564
0.081200 0.120971 0.580000 13803678
0.080640 0.123429 0.576000 16438717
0.080360 0.126280 0.574000 12367026
0.080360 0.129560 0.574000 10257287
0.080780 0.133534 0.577000 8280143
0.081060 0.137306 0.579000 8608081
0.082180 0.142557 0.587000 8477003
0.082460 0.146409 0.589000 8214336
0.083160 0.151046 0.594000 9330506
0.083440 0.154960 0.596000 9858386
0.083860 0.159163 0.599000 7819556
0.084420 0.163671 0.603000 7951932
0.088690 0.080357 0.625000 13551516
0.088265 0.083526 0.622000 13419989
0.087697 0.086520 0.618000 11963280
0.087271 0.089614 0.615000 14201750
0.086846 0.092674 0.612000 14008021
0.085710 0.094914 0.604000 13808811
0.085285 0.097877 0.601000 13141820
0.085001 0.100974 0.599000 13469720
0.084575 0.103874 0.596000 14788609
0.084150 0.106740 0.593000 15644999
0.083866 0.109757 0.591000 15119800
0.083440 0.112560 0.588000 15976621
0.082730 0.114934 0.583000 16107696
0.082447 0.117860 0.581000 16238514
0.082163 0.120763 0.579000 14858678
0.081879 0.123643 0.577000 16047294
0.081453 0.126280 0.574000 12694452
0.081453 0.129560 0.574000 11049635
0.081879 0.133534 0.577000 8479317
0.082163 0.137306 0.579000 8475222
0.083156 0.142314 0.586000 8214604
0.083440 0.146160 0.588000 8148284
0.084008 0.150537 0.592000 8739395
0.084575 0.154960 0.596000 9134403
0.084859 0.158897 0.598000 7885373
0.085427 0.163400 0.602000 8016699
0.089737 0.080229 0.624000 13944746
0.089450 0.083526 0.622000 13679058
0.088730 0.086380 0.617000 12753315
0.088443 0.089614 0.615000 14667976
0.087868 0.092523 0.611000 14670570
0.087005 0.095071 0.605000 14535357
0.086717 0.098203 0.603000 12812341
0.086142 0.100974 0.599000 12616489
0.085710 0.103874 0.596000 14527499
0.085135 0.106560 0.592000 15446850
0.084991 0.109757 0.591000 14461621
0.084560 0.112560 0.588000 15912122
0.083841 0.114934 0.583000 16041651
0.083697 0.118063 0.582000 16173238
0.083266 0.120763 0.579000 15978180
0.082978 0.123643 0.577000 15646630
0.082547 0.126280 0.574000 12953731
0.082547 0.129560 0.574000 11769237
0.083122 0.133766 0.578000 8676727
0.083410 0.137543 0.580000 8281947
0.084272 0.142314 0.586000 8017510
0.084560 0.146160 0.588000 8019038
0.085135 0.150537 0.592000 8148580
0.085567 0.154700 0.595000 8348510
0.085998 0.158897 0.598000 8015681
0.086573 0.163400 0.602000 8080689
0.090926 0.080229 0.624000 14206136
0.090634 0.083526 0.622000 12823247
0.090051 0.086520 0.618000 13676213
0.089469 0.089469 0.614000 15726841
0.089031 0.092523 0.611000 15461630
0.088157 0.095071 0.605000 15131599
0.087720 0.098040 0.602000 13012782
0.087137 0.100806 0.598000 12220731
0.086846 0.103874 0.596000 13538836
0.086263 0.106560 0.592000 14722365
0.085971 0.109571 0.590000 14597554
0.085680 0.112560 0.588000 15779783
0.084951 0.114934 0.583000 15976374
0.084660 0.117860 0.581000 16173243
0.084369 0.120763 0.579000 16176593
0.084077 0.123643 0.577000 13606030
0.083640 0.126280 0.574000 11502930
0.083786 0.129786 0.575000 11370375
0.084369 0.133997 0.579000 9862808
0.084514 0.137543 0.580000 9531744
0.085389 0.142314 0.586000 9729408
0.085680 0.146160 0.588000 9665151
0.086117 0.150283 0.591000 9596805
0.086700 0.154700 0.595000 9598585
0.087137 0.158897 0.598000 8739397
0.087720 0.163400 0.602000 8143912
0.092114 0.080229 0.624000 14470865
0.091524 0.083257 0.620000 11966905
0.091081 0.086380 0.617000 14594744
0.090490 0.089323 0.613000 16710907
0.089900 0.092220 0.609000 16315132
0.089310 0.095071 0.605000 15715506
0.088571 0.097714 0.600000 13208365
0.088276 0.100806 0.598000 11827523
0.087981 0.103874 0.596000 12616229
0.087390 0.106560 0.592000 13999947
0.087095 0.109571 0.590000 14801868
0.086800 0.112560 0.588000 15584969
0.086062 0.114934 0.583000 15976377
0.085767 0.117860 0.581000 16107453
0.085471 0.120763 0.579000 16376012
0.085176 0.123643 0.577000 11568716
0.084733 0.126280 0.574000 10056771
0.084733 0.129560 0.574000 10913422
0.085471 0.133997 0.579000 11114400
0.086210 0.138491 0.584000 10780023
0.086652 0.142557 0.587000 11440526
0.086800 0.146160 0.588000 11306882
0.087095 0.150029 0.590000 11113351
0.087833 0.154700 0.595000 10783883
0.088129 0.158631 0.597000 9464665
0.088867 0.163400 0.602000 8219464
0.092705 0.083257 0.620000 10966435
0.092406 0.086520 0.618000 14400443
0.091658 0.089323 0.613000 16711420
0.091060 0.092220 0.609000 16249082
0.090462 0.095071 0.605000 14727062
0.090013 0.098040 0.602000 13208363
0.089415 0.100806 0.598000 11957835
0.089116 0.103874 0.596000 12222006
0.088518 0.106560 0.592000 13472602
0.088219 0.109571 0.590000 14603238
0.087770 0.112369 0.587000 15979212
0.087172 0.114934 0.583000 15976635
0.086873 0.117860 0.581000 15976127
0.086574 0.120763 0.579000 15649222
0.086275 0.123643 0.577000 11892491
0.085976 0.126500 0.575000 10385204
0.085827 0.129560 0.574000 12032405
0.087322 0.135154 0.584000 11574184
0.087621 0.138966 0.586000 10849423
0.087920 0.142800 0.588000 11572380
0.088070 0.146409 0.589000 11174021
0.088518 0.150537 0.592000 11111305
0.089116 0.154960 0.596000 11575453
0.089415 0.158897 0.598000 9925996
0.093886 0.083257 0.620000 9927578
0.093583 0.086520 0.618000 14199735
0.092826 0.089323 0.613000 16710909
0.092069 0.092069 0.608000 16251388
0.091614 0.095071 0.605000 13740433
0.090857 0.097714 0.600000 13209903
0.090554 0.100806 0.598000 12024396
0.090251 0.103874 0.596000 11894068
0.089646 0.106560 0.592000 12948825
0.089343 0.109571 0.590000 14404802
0.088889 0.112369 0.587000 16303807
0.088283 0.114934 0.583000 15976891
0.087980 0.117860 0.581000 15782346
0.087677 0.120763 0.579000 14929098
0.087526 0.123857 0.578000 12160056
0.087374 0.126940 0.577000 10715489
0.088434 0.131817 0.584000 13083035
0.088434 0.135154 0.584000 12033698
0.088737 0.138966 0.586000 10847363
0.089343 0.143286 0.590000 11703440
0.089343 0.146657 0.590000 10978181
0.089797 0.150791 0.593000 11175302
0.090403 0.155220 0.597000 12358290
0.090706 0.159163 0.599000 10383716
0.095067 0.083257 0.620000 10256018
0.094760 0.086520 0.618000 13938611
0.093993 0.089323 0.613000 16711166
0.093227 0.092069 0.608000 15920126
0.092767 0.095071 0.605000 11762827
0.092000 0.097714 0.600000 14065971
0.091540 0.100637 0.597000 12223054
0.091387 0.103874 0.596000 11236145
0.090773 0.106560 0.592000 12880216
0.090467 0.109571 0.590000 13545117
0.090007 0.112369 0.587000 15579058
0.089547 0.115131 0.584000 16043195
0.089087 0.117860 0.581000 16112340
0.088780 0.120763 0.579000 14203598
0.088780 0.124071 0.579000 12492901
0.088933 0.127600 0.580000 11637133
0.089547 0.131817 0.584000 12822177
0.089853 0.135617 0.586000 11900827
0.090313 0.139677 0.589000 10450295
0.090467 0.143286 0.590000 11108996
0.090620 0.146906 0.591000 10847109
0.091540 0.151809 0.597000 11109251
0.092000 0.156000 0.600000 11832199
0.092153 0.159694 0.601000 10318427
0.095937 0.086520 0.618000 13612734
0.095316 0.089469 0.614000 16707297
0.094385 0.092069 0.608000 15524840
0.093919 0.095071 0.605000 9797770
0.093143 0.097714 0.600000 14922569
0.092677 0.100637 0.597000 12356173
0.092522 0.103874 0.596000 10579001
0.091901 0.106560 0.592000 12749663
0.091435 0.109386 0.589000 12755867
0.091125 0.112369 0.587000 14791082
0.090504 0.114934 0.583000 16174800
0.090193 0.117860 0.581000 16374484
0.089883 0.120763 0.579000 13475728
0.089883 0.124071 0.579000 12754044
0.090349 0.128040 0.582000 12621968
0.090970 0.132269 0.586000 12493471
0.091125 0.135849 0.587000 11770779
0.091590 0.139914 0.590000 9992299
0.091746 0.143529 0.591000 10516862
0.091901 0.147154 0.592000 10649472
0.092677 0.151809 0.597000 11043200
0.093298 0.156260 0.601000 11242114
0.093453 0.159960 0.602000 10252370
0.097114 0.086520 0.618000 13482184
0.096486 0.089469 0.614000 14535620
0.095543 0.092069 0.608000 14271185
0.095071 0.095071 0.605000 10115977
0.094600 0.098040 0.602000 15187039
0.093814 0.100637 0.597000 12554573
0.093657 0.103874 0.596000 11566144
0.093029 0.106560 0.592000 12753254
0.092714 0.109571 0.590000 12294297
0.092243 0.112369 0.587000 13275298
0.091614 0.114934 0.583000 15914212
0.091300 0.117860 0.581000 15261652
0.091143 0.120971 0.580000 12290642
0.090986 0.124071 0.579000 12029076
0.091771 0.128480 0.584000 12095634
0.092086 0.132269 0.586000 12427934
0.092400 0.136080 0.588000 11636891
0.092714 0.139914 0.590000 10517600
0.093029 0.143771 0.592000 10582904
0.093500 0.147900 0.595000 10648698
0.094286 0.152571 0.600000 11043452
0.094443 0.156260 0.601000 11242878
0.094757 0.160226 0.603000 9923912
0.098291 0.086520 0.618000 13417920
0.097655 0.089469 0.614000 12356505
0.096701 0.092069 0.608000 13087178
0.096224 0.095071 0.605000 10388881
0.095588 0.097877 0.601000 15514417
0.094951 0.100637 0.597000 12751438
0.094792 0.103874 0.596000 12552244
0.094156 0.106560 0.592000 12691594
0.093838 0.109571 0.590000 11835307
0.093520 0.112560 0.588000 11705012
0.092884 0.115131 0.584000 15718620
0.092407 0.117860 0.581000 14068661
0.092248 0.120971 0.580000 11102299
0.092566 0.124714 0.582000 11240054
0.093043 0.128700 0.585000 11565940
0.093520 0.132720 0.588000 12291194
0.093679 0.136311 0.589000 11571834
0.093997 0.140151 0.591000 10976612
0.094315 0.144014 0.593000 10714477
0.094951 0.148397 0.597000 10583418
0.095429 0.152571 0.600000 11110283
0.095747 0.156520 0.602000 11176320
0.099469 0.086520 0.618000 12690871
0.098825 0.089469 0.614000 10957934
0.097859 0.092069 0.608000 13349570
0.097376 0.095071 0.605000 10916249
0.096732 0.097877 0.601000 13342723
0.096089 0.100637 0.597000 13011792
0.095928 0.103874 0.596000 11695912
0.095284 0.106560 0.592000 13088942
0.094962 0.109571 0.590000 12757180
0.094640 0.112560 0.588000 12820421
0.093996 0.115131 0.584000 14732755
0.093674 0.118063 0.582000 7888534
0.093513 0.121180 0.581000 8015716
0.093674 0.124714 0.582000 9071448
0.094157 0.128700 0.585000 9922133
0.094640 0.132720 0.588000 10447447
0.094801 0.136311 0.589000 10122072
0.095123 0.140151 0.591000 11108201
0.095606 0.144257 0.594000 11370594
0.096089 0.148397 0.597000 10451579
0.096571 0.152571 0.600000 10979993
0.097537 0.157560 0.606000 11042946
0.100646 0.086520 0.618000 11969208
0.099994 0.089469 0.614000 9603218
0.099017 0.092069 0.608000 13682903
0.098529 0.095071 0.605000 11372696
0.098040 0.098040 0.602000 11180630
0.097551 0.100974 0.599000 13279348
0.097063 0.103874 0.596000 10825784
0.096411 0.106560 0.592000 13482416
0.096086 0.109571 0.590000 13677513
0.095760 0.112560 0.588000 13876690
0.095109 0.115131 0.584000 13812942
0.094783 0.118063 0.582000 1651840
0.094946 0.121597 0.583000 4995186
0.094783 0.124714 0.582000 6901609
0.095434 0.128920 0.586000 8341352
0.095923 0.132946 0.589000 8539236
0.096249 0.136774 0.591000 8739170
0.096411 0.140389 0.592000 11238246
0.096737 0.144257 0.594000 12026468
0.098529 0.150386 0.605000 10252910
0.097877 0.152826 0.601000 10848629
0.101823 0.086520 0.618000 11636664
0.101164 0.089469 0.614000 12439478
0.100175 0.092069 0.608000 13813483
0.099681 0.095071 0.605000 10911638
0.099022 0.097877 0.601000 12231593
0.098692 0.100974 0.599000 13348504
0.098198 0.103874 0.596000 10442055
0.097539 0.106560 0.592000 13349554
0.097210 0.109571 0.590000 14008534
0.096880 0.112560 0.588000 14535134
0.096221 0.115131 0.584000 11442633
0.096056 0.118266 0.583000 3349099
0.096056 0.121597 0.583000 5194367
0.096386 0.125357 0.585000 6176891
0.096880 0.129360 0.588000 6700154
0.097374 0.133397 0.591000 5964912
0.097539 0.137006 0.592000 9002348
0.097704 0.140626 0.593000 11239779
0.097869 0.144257 0.594000 11764837
0.099681 0.150386 0.605000 8477025
0.100010 0.154351 0.607000 9396304
0.103000 0.086520 0.618000 11311785
0.102167 0.089323 0.613000 15253698
0.101167 0.091917 0.607000 14013370
0.100667 0.094914 0.604000 10456223
0.100167 0.097877 0.601000 13284018
0.099667 0.100806 0.598000 13347742
0.099333 0.103874 0.596000 10042444
0.098667 0.106560 0.592000 13152944
0.098333 0.109571 0.590000 14404051
0.098000 0.112560 0.588000 15127517
0.097333 0.115131 0.584000 9139612
0.097167 0.118266 0.583000 5057395
0.097333 0.121806 0.584000 5393020
0.097500 0.125357 0.585000 5392506
0.098167 0.129580 0.589000 5128569
0.098667 0.133623 0.592000 3354740
0.098833 0.137237 0.593000 9267571
0.099167 0.141100 0.595000 11239272
0.100833 0.146929 0.605000 11569001
0.101000 0.150634 0.606000 6638696
0.101333 0.154606 0.608000 7948377
0.104177 0.086520 0.618000 12626329
0.103334 0.089323 0.613000 13816270
0.102323 0.091917 0.607000 12425865
0.101817 0.094914 0.604000 11834280
0.101311 0.097877 0.601000 13217979
0.101143 0.101143 0.600000 13346981
0.100637 0.104049 0.597000 10449232
0.099794 0.106560 0.592000 13217199
0.099457 0.109571 0.590000 14534095
0.099120 0.112560 0.588000 14933979
0.098614 0.115329 0.585000 6832751
0.098446 0.118469 0.584000 5194875
0.098446 0.121806 0.584000 5393529
0.099457 0.126429 0.590000 5524857
0.099794 0.130240 0.592000 5195640
0.099963 0.133849 0.593000 5720695
0.100469 0.137931 0.596000 10648954
0.100974 0.142049 0.599000 11566958
0.101986 0.146929 0.605000 11109485
0.102154 0.150634 0.606000 5516655
0.102491 0.154606 0.608000 7555681
0.104331 0.089177 0.612000 12292245
0.103820 0.092220 0.609000 10763333
0.102797 0.094757 0.603000 13213866
0.102456 0.097877 0.601000 13152701
0.102115 0.100974 0.599000 13348779
0.101604 0.103874 0.596000 10777150
0.100922 0.106560 0.592000 13283504
0.100581 0.109571 0.590000 14665677
0.100240 0.112560 0.588000 14661308
0.099899 0.115526 0.586000 4522349
0.099899 0.118874 0.586000 5327225
0.100751 0.123266 0.591000 5394041
0.100751 0.126643 0.591000 5590391
0.100922 0.130240 0.592000 5261177
0.101604 0.134526 0.596000 8019571
0.102115 0.138626 0.599000 12028017
0.102627 0.142760 0.602000 11895917
0.103479 0.147414 0.607000 10717280
0.103479 0.150883 0.607000 4338538
0.104980 0.088740 0.609000 9121117
0.104635 0.091917 0.607000 9257729
0.103946 0.094757 0.603000 13478829
0.103601 0.097877 0.601000 13086654
0.103256 0.100974 0.599000 13676721
0.102739 0.103874 0.596000 9722155
0.102050 0.106560 0.592000 13744817
0.101705 0.109571 0.590000 14272715
0.101360 0.112560 0.588000 10257308
0.101015 0.115526 0.586000 4467818
0.101188 0.119077 0.587000 5393016
0.102050 0.123474 0.592000 5459321
0.102222 0.127071 0.593000 5655926
0.102567 0.130900 0.595000 5982329
0.103084 0.134977 0.598000 10189679
0.103256 0.138626 0.599000 11434855
0.103946 0.142997 0.603000 12488043
0.104808 0.147657 0.608000 9068114
0.104808 0.151131 0.608000 4537702
0.106140 0.088740 0.609000 5984352
0.105791 0.091917 0.607000 7692578
0.105094 0.094757 0.603000 13676198
0.104746 0.097877 0.601000 13021881
0.104397 0.100974 0.599000 13941435
0.103874 0.103874 0.596000 8651030
0.103177 0.106560 0.592000 14137774
0.102829 0.109571 0.590000 13944008
0.102480 0.112560 0.588000 5786760
0.102306 0.115723 0.587000 4344434
0.102480 0.119280 0.588000 5459064
0.103177 0.123474 0.592000 5524857
0.103526 0.127286 0.594000 5655672
0.103700 0.130900 0.595000 6769778
0.104397 0.135203 0.599000 12353383
0.104920 0.139320 0.602000 10908519
0.105269 0.143234 0.604000 13010274
0.105791 0.147414 0.607000 7484772
0.105966 0.151131 0.608000 4738667
0.107300 0.088740 0.609000 6902628
0.106948 0.091917 0.607000 8611395
0.106771 0.095229 0.606000 13809823
0.105890 0.097877 0.601000 12886964
0.105362 0.100806 0.598000 14209476
0.104833 0.103700 0.595000 8399617
0.104305 0.106560 0.592000 14601899
0.103952 0.109571 0.590000 12035013
0.103600 0.112560 0.588000 4792181
0.103424 0.115723 0.587000 4934265
0.103952 0.119686 0.590000 5524601
0.104481 0.123683 0.593000 5590648
0.104657 0.127286 0.594000 5196922
0.105538 0.131780 0.599000 8612203
0.105714 0.135429 0.600000 11894112
0.106243 0.139551 0.603000 10908262
0.106419 0.143234 0.604000 11894361
0.107124 0.147657 0.608000 6176117
0.107300 0.151380 0.609000 7695472
0.108282 0.092069 0.608000 9466173
0.107926 0.095229 0.606000 13942438
0.106857 0.097714 0.600000 12818634
0.106501 0.100806 0.598000 14467024
0.105967 0.103700 0.595000 8080216
0.105254 0.106380 0.591000 15060407
0.105076 0.109571 0.590000 10194336
0.104898 0.112751 0.589000 3812212
0.104898 0.116117 0.589000 5459064
0.105432 0.120091 0.592000 5590392
0.106145 0.124309 0.596000 5656184
0.106145 0.127714 0.596000 4737653
0.106857 0.132000 0.600000 10455669
0.107213 0.135880 0.602000 11434853
0.107570 0.139783 0.604000 10972773
0.107748 0.143471 0.605000 10709092
0.108460 0.147900 0.609000 4865649
0.108460 0.151380 0.609000 10647136
0.109260 0.091917 0.607000 9529399
0.109080 0.095229 0.606000 14405293
0.108000 0.097714 0.600000 14206687
0.107640 0.100806 0.598000 14138844
0.107100 0.103700 0.595000 10520494
0.106380 0.106380 0.591000 14933699
0.106200 0.109571 0.590000 7753595
0.106020 0.112751 0.589000 4538227
0.106200 0.116314 0.590000 5524855
0.107100 0.120700 0.595000 5590647
0.107460 0.124517 0.597000 5656184
0.107820 0.128357 0.599000 6178415
0.108180 0.132220 0.601000 11241599
0.108540 0.136106 0.603000 11565163
0.108720 0.139783 0.604000 11040868
0.109080 0.143709 0.606000 7882863
0.109620 0.147900 0.609000 6245229
0.110416 0.091917 0.607000 9660756
0.110052 0.095071 0.605000 14799042
0.109143 0.097714 0.600000 15528161
0.108779 0.100806 0.598000 13813214
0.108233 0.103700 0.595000 12956606
0.107506 0.106380 0.591000 14792892
0.107324 0.109571 0.590000 5374329
0.107324 0.112943 0.590000 5261688
0.107506 0.116511 0.591000 5524857
0.108415 0.120903 0.596000 5590649
0.108779 0.124726 0.598000 5721977
0.109143 0.128571 0.600000 7561842
0.109507 0.132440 0.602000 12030584
0.110052 0.136557 0.605000 11632497
0.110234 0.140246 0.606000 11109475
0.110416 0.143946 0.607000 5064046
0.111389 0.091766 0.606000 11108721
0.111021 0.094914 0.604000 15261143
0.110102 0.097551 0.599000 15459298
0.109734 0.100637 0.597000 13811680
0.109183 0.103526 0.594000 13681357
0.108448 0.106200 0.590000 11568053
0.108264 0.109386 0.589000 4596598
0.108264 0.112751 0.589000 5000061
0.108631 0.116511 0.591000 5326970
0.109550 0.120903 0.596000 5393531
0.109918 0.124726 0.598000 5523322
0.110470 0.128786 0.601000 9994102
0.110837 0.132660 0.603000 12027248
0.111572 0.137009 0.607000 12291958
0.111572 0.140477 0.607000 9330785
0.113043 0.145843 0.615000 4996973
0.112357 0.091614 0.605000 12555927
0.111986 0.094757 0.603000 15718104
0.111243 0.097551 0.599000 15392991
0.110871 0.100637 0.597000 13812700
0.110500 0.103700 0.595000 14468304
0.109571 0.106200 0.590000 8352151
0.109571 0.109571 0.590000 3820649
0.109757 0.113134 0.591000 4671350
0.110314 0.117103 0.594000 5062265
0.110686 0.120903 0.596000 5131125
0.111243 0.124934 0.599000 5390713
0.111986 0.129214 0.603000 12353907
0.111986 0.132660 0.603000 12024944
0.113100 0.137460 0.609000 12876658
0.113100 0.140940 0.609000 7551857
0.114214 0.145843 0.615000 4933239
0.113510 0.091614 0.605000 13611196
0.112947 0.094600 0.602000 15059928
0.112384 0.097551 0.599000 14930140
0.112009 0.100637 0.597000 13876953
0.111633 0.103700 0.595000 13809875
0.110883 0.106380 0.591000 9729657
0.110883 0.109757 0.591000 7171163
0.111070 0.113326 0.592000 7232111
0.112009 0.117694 0.597000 7035511
0.112384 0.121511 0.599000 6772590
0.112571 0.125143 0.600000 6967160
0.113510 0.129643 0.605000 12094321
0.113697 0.133320 0.606000 11829359
0.114635 0.137911 0.611000 10111087
0.115198 0.142097 0.614000 6110081
0.114093 0.094600 0.602000 14336973
0.113525 0.097551 0.599000 14469595
0.113335 0.100806 0.598000 13879265
0.112767 0.103700 0.595000 13219246
0.112388 0.106740 0.593000 11110280
0.112388 0.110129 0.593000 10453098
0.112767 0.113900 0.595000 9727847
0.113146 0.117694 0.597000 9074025
0.113525 0.121511 0.599000 8415343
0.113904 0.125351 0.601000 8543110
0.114662 0.129643 0.605000 11830384
0.115041 0.133540 0.607000 11698543
0.115989 0.138137 0.612000 7296109
0.116557 0.142329 0.615000 4670585
0.115240 0.094600 0.602000 13414850
0.114857 0.097714 0.600000 14666969
0.114283 0.100637 0.597000 14141673
0.113900 0.103700 0.595000 11766664
0.113709 0.106920 0.594000 11308952
0.113709 0.110314 0.594000 11307385
0.114283 0.114283 0.597000 10845279
0.114474 0.117891 0.598000 10387802
0.115240 0.122120 0.602000 10189936
0.116006 0.126394 0.606000 10257555
0.116006 0.129857 0.606000 12026735
0.116197 0.133540 0.607000 11170670
0.117729 0.138814 0.615000 8933996
0.117920 0.142560 0.616000 7692913
0.116387 0.094600 0.602000 12496823
0.115807 0.097551 0.599000 14864859
0.115420 0.100637 0.597000 14336474
0.115033 0.103700 0.595000 10314891
0.114840 0.106920 0.594000 11505556
0.115227 0.110686 0.596000 12161654
0.115613 0.114474 0.598000 11897167
0.115807 0.118089 0.599000 11765844
0.116773 0.122526 0.604000 11900807
0.117160 0.126394 0.606000 11970469
0.117547 0.130286 0.608000 12158582
0.118127 0.134420 0.611000 10712182
0.119093 0.139040 0.616000 10585232
0.119093 0.142560 0.616000 10781581
0.117533 0.094600 0.602000 12102316
0.116948 0.097551 0.599000 14798812
0.116557 0.100637 0.597000 13416395
0.116167 0.103700 0.595000 10845582
0.116167 0.107100 0.595000 11637392
0.116557 0.110871 0.597000 12292978
0.116948 0.114666 0.599000 12423486
0.117338 0.118483 0.601000 12358990
0.118119 0.122729 0.605000 12629918
0.118510 0.126603 0.607000 12167095
0.118900 0.130500 0.609000 10187388
0.120071 0.135300 0.615000 10978686
0.120462 0.139266 0.617000 11444660
0.118680 0.094600 0.602000 11708594
0.118089 0.097551 0.599000 14801627
0.117497 0.100469 0.596000 12491443
0.117497 0.103874 0.596000 11373199
0.117891 0.107640 0.598000 11767953
0.117891 0.111057 0.598000 12424075
0.118286 0.114857 0.600000 12883317
0.118680 0.118680 0.602000 12884860
0.119666 0.123134 0.607000 13345694
0.119863 0.126811 0.608000 12428968
0.120651 0.131143 0.612000 8149358
0.121440 0.135520 0.616000 11306366
0.121834 0.139491 0.618000 12294298
0.119230 0.097551 0.599000 14205658
0.118831 0.100637 0.597000 11366810
0.118831 0.104049 0.597000 11438224
0.119030 0.107640 0.598000 11635090
0.119429 0.111429 0.600000 12623779
0.120026 0.115431 0.603000 12228011
0.120623 0.119469 0.606000 12623785
0.121220 0.123540 0.609000 12620958
0.121817 0.127646 0.612000 11506073
0.122414 0.131786 0.615000 8803680
0.122812 0.135740 0.617000 10584446
0.123210 0.139717 0.619000 12026240
0.120370 0.097551 0.599000 13616075
0.120170 0.100806 0.598000 10253722
0.120170 0.104223 0.598000 11568526
0.120370 0.107820 0.599000 11504533
0.120772 0.111614 0.601000 12822688
0.121375 0.115623 0.604000 11504530
0.122179 0.119863 0.608000 12361372
0.122380 0.123540 0.609000 11896962
0.123586 0.128271 0.615000 10586743
0.123787 0.132000 0.616000 9393488
0.123988 0.135740 0.617000 9863289
0.121511 0.097551 0.599000 13808827
0.121309 0.100806 0.598000 11235995
0.121511 0.104397 0.599000 11633804
0.121917 0.108180 0.601000 12029080
0.122323 0.111986 0.603000 11834269
0.122931 0.116006 0.606000 10708857
0.123337 0.119863 0.608000 10711951
0.124149 0.124149 0.612000 9986406
0.125366 0.128897 0.618000 7616596
0.125771 0.132857 0.620000 6303552
0.126177 0.136840 0.622000 9401203
0.122448 0.100806 0.598000 12165551
0.122652 0.104397 0.599000 11705767
0.123062 0.108180 0.601000 12560043
0.123471 0.111986 0.603000 10917301
0.124086 0.116006 0.606000 9865370
0.124700 0.120060 0.609000 9129890
0.126133 0.124960 0.616000 8080259
0.126748 0.129106 0.619000 4722036
0.127362 0.133286 0.622000 3223920
0.127567 0.137060 0.623000 9008273
0.123793 0.104397 0.599000 13612993
0.124207 0.108180 0.601000 14073278
0.124620 0.111986 0.603000 13151948
0.125240 0.116006 0.606000 12625595
0.126273 0.120454 0.611000 11963573
0.127307 0.124960 0.616000 11041952
0.127927 0.129106 0.619000 9006996
0.128133 0.132857 0.620000 8154785
0.128547 0.136840 0.622000 11243951
0.125351 0.108180 0.601000 15515837
0.127437 0.120454 0.611000 14863802
0.128480 0.124960 0.616000 13939888
0.129106 0.129106 0.619000 13288366
0.129106 0.132643 0.619000 13020084
0.129314 0.136400 0.620000 13484473
0.130074 0.125366 0.618000 14662593
0.130285 0.132643 0.619000 14206664
0.130495 0.136400 0.620000 14402243
0.131251 0.125366 0.618000 15383228
-0.008134 0.089477 0.657000 14465705
-0.006841 0.081470 0.653000 11035454
-0.006872 0.085592 0.656000 11756894
-0.006883 0.089477 0.657000 12752794
-0.005597 0.081470 0.653000 9530973
-0.005597 0.085201 0.653000 9793375
-0.005623 0.089341 0.656000 11041408
-0.004353 0.077738 0.653000 12557763
-0.004353 0.081470 0.653000 10255996
-0.004353 0.085201 0.653000 10190176
-0.004367 0.089205 0.655000 10515302
-0.004473 0.106721 0.671000 13280422
-0.003105 0.077619 0.652000 12692938
-0.003105 0.081345 0.652000 11047836
-0.003095 0.084810 0.650000 10581343
-0.003105 0.088796 0.652000 9991787
-0.003167 0.101967 0.665000 10118495
-0.003190 0.106562 0.670000 12553066
-0.003195 0.110555 0.671000 13802369
-0.001866 0.074007 0.653000 13020603
-0.001863 0.077619 0.652000 13482706
-0.001860 0.081220 0.651000 11903932
-0.001851 0.084549 0.648000 9199966
-0.001860 0.088660 0.651000 9596271
-0.001871 0.092948 0.655000 9466465
-0.001894 0.101660 0.663000 8927024
-0.001911 0.106403 0.669000 8732206
-0.001917 0.110555 0.671000 10054232
-0.001929 0.115071 0.675000 12094608
-0.000622 0.074007 0.653000 12363176
-0.000621 0.077619 0.652000 14204624
-0.000619 0.081095 0.650000 12698578
-0.000617 0.084549 0.648000 7822689
-0.000619 0.088524 0.650000 9134938
-0.000622 0.092664 0.653000 10253414
-0.000626 0.096986 0.657000 8411719
-0.000630 0.101507 0.662000 7754053
-0.000635 0.106085 0.667000 4863299
-0.000638 0.110390 0.670000 6303817
-0.000643 0.115071 0.675000 10777690
-0.000647 0.119633 0.679000 12092535
0.000622 0.074007 0.653000 12625301
0.000621 0.077619 0.652000 14401742
0.000617 0.080846 0.648000 13023720
0.000616 0.084418 0.647000 8477539
0.000616 0.088115 0.647000 9134917
0.000621 0.092522 0.652000 9991530
0.000625 0.096838 0.656000 8610149
0.000629 0.101200 0.660000 8083546
0.000634 0.105926 0.666000 6706007
0.000637 0.110226 0.669000 7089979
0.000643 0.115071 0.675000 8669732
0.000647 0.119633 0.679000 10511451
0.001871 0.074233 0.655000 12952721
0.001863 0.077619 0.652000 14601429
0.001851 0.080846 0.648000 13356476
0.001849 0.084418 0.647000 9137781
0.001846 0.087979 0.646000 9200212
0.001860 0.092380 0.651000 9662822
0.001871 0.096690 0.655000 8742753
0.001877 0.100740 0.657000 8346967
0.001894 0.105449 0.663000 8480357
0.001906 0.109896 0.667000 7883331
0.001926 0.114901 0.674000 6568984
0.001937 0.119457 0.678000 8935241
0.003119 0.074233 0.655000 13348749
0.003105 0.077619 0.652000 13944796
0.003081 0.080721 0.647000 12362383
0.003071 0.084157 0.645000 10062984
0.003071 0.087843 0.645000 9201762
0.003095 0.092238 0.650000 9597538
0.003110 0.096395 0.653000 9466461
0.003124 0.100587 0.656000 9204052
0.003143 0.104971 0.660000 9335154
0.003171 0.109731 0.666000 8149068
0.003200 0.114560 0.672000 6437388
0.003210 0.118752 0.674000 7487800
0.004387 0.070813 0.658000 12950383
0.004367 0.074233 0.655000 13739592
0.004340 0.077500 0.651000 13218473
0.004313 0.080721 0.647000 11436443
0.004300 0.084157 0.645000 10912126
0.004300 0.087843 0.645000 9267555
0.004313 0.091812 0.647000 9464413
0.004347 0.096248 0.652000 10189663
0.004367 0.100433 0.655000 9990999
0.004380 0.104494 0.657000 10188388
0.004420 0.109237 0.663000 8348757
0.004460 0.114049 0.669000 6373426
0.004493 0.118752 0.674000 5979440
0.004493 0.122604 0.674000 8807500
0.005631 0.070706 0.657000 12290119
0.005597 0.074007 0.653000 13539842
0.005571 0.077381 0.650000 12878711
0.005546 0.080721 0.647000 12098214
0.005529 0.084157 0.645000 9400693
0.005520 0.087707 0.644000 9136995
0.005537 0.091670 0.646000 8804952
0.005554 0.095657 0.648000 9464160
0.005597 0.100127 0.653000 9597530
0.005623 0.104335 0.656000 9793109
0.005666 0.108908 0.661000 8875871
0.005717 0.113708 0.667000 7954007
0.005760 0.118400 0.672000 6502441
0.005777 0.122604 0.674000 6829115
0.006883 0.070706 0.657000 11631934
0.006862 0.074233 0.655000 13277957
0.006810 0.077381 0.650000 12494446
0.006757 0.080471 0.645000 12756913
0.006726 0.083766 0.642000 7885413
0.006726 0.087434 0.642000 9073265
0.006747 0.091387 0.644000 8150364
0.006757 0.095214 0.645000 8741988
0.006830 0.099973 0.652000 9200728
0.006872 0.104335 0.656000 9398614
0.006925 0.108908 0.661000 9334110
0.006977 0.113537 0.666000 9530712
0.007019 0.118048 0.670000 7033678
0.007040 0.122240 0.672000 4856391
0.008147 0.070813 0.658000 11365942
0.008085 0.074007 0.653000 13407496
0.008023 0.077143 0.648000 13941606
0.007986 0.080471 0.645000 12957371
0.007949 0.083766 0.642000 5572182
0.007949 0.087434 0.642000 9270655
0.007973 0.091387 0.644000 8543585
0.007973 0.095067 0.644000 8807016
0.008048 0.099667 0.650000 8936022
0.008085 0.103858 0.653000 9199958
0.008147 0.108413 0.658000 9399645
0.008209 0.113026 0.663000 9333080
0.008283 0.117871 0.669000 8483954
0.008295 0.121876 0.670000 6636114
0.009400 0.070813 0.658000 11106359
0.009329 0.074007 0.653000 13474054
0.009257 0.077143 0.648000 15319392
0.009214 0.080471 0.645000 13219510
0.009171 0.083766 0.642000 3222365
0.009171 0.087434 0.642000 9468008
0.009200 0.091387 0.644000 8938331
0.009171 0.094771 0.642000 8806999
0.009243 0.099207 0.647000 8673866
0.009300 0.103540 0.651000 9001302
0.009386 0.108249 0.657000 9464668
0.009443 0.112685 0.661000 9069653
0.009514 0.117343 0.666000 9923402
0.009557 0.121694 0.669000 8411726
0.010718 0.067461 0.662000 13479017
0.010653 0.070813 0.658000 11302456
0.010556 0.073893 0.652000 13474308
0.010475 0.077024 0.647000 15384666
0.010427 0.080347 0.644000 12561841
0.010394 0.083766 0.642000 4325732
0.010394 0.087434 0.642000 9399632
0.010394 0.091103 0.642000 9069396
0.010378 0.094624 0.641000 8807237
0.010394 0.098440 0.642000 7754046
0.010491 0.103063 0.648000 8542806
0.010556 0.107425 0.652000 9793372
0.010605 0.111662 0.655000 9134418
0.010783 0.117343 0.666000 9659426
0.010799 0.121330 0.667000 8741193
0.011979 0.067461 0.662000 13614408
0.011907 0.070813 0.658000 11434049
0.011798 0.073893 0.652000 13540621
0.011708 0.077024 0.647000 15451744
0.011671 0.080471 0.645000 11969456
0.011653 0.084027 0.644000 5391733
0.011617 0.087434 0.642000 9334375
0.011617 0.091103 0.642000 9136720
0.011581 0.094476 0.640000 8809014
0.011599 0.098287 0.641000 6772282
0.011708 0.102904 0.647000 8149325
0.011762 0.107095 0.650000 10052938
0.011816 0.111321 0.653000 9199440
0.011997 0.116814 0.663000 9397033
0.012070 0.121330 0.667000 9003322
0.012106 0.125517 0.669000 10252644
0.013240 0.067461 0.662000 13740839
0.013120 0.070598 0.656000 11630667
0.013020 0.073780 0.651000 13868053
0.012900 0.076786 0.645000 15254631
0.012840 0.080097 0.642000 11312559
0.012840 0.083766 0.642000 7765381
0.012820 0.087298 0.641000 9798269
0.012800 0.090819 0.640000 9858892
0.012760 0.094181 0.638000 9463335
0.012780 0.097980 0.639000 8347190
0.012900 0.102586 0.645000 8279875
0.012940 0.106601 0.647000 8935224
0.013020 0.110980 0.651000 9134926
0.013140 0.115757 0.657000 9724977
0.013240 0.120421 0.662000 9134123
0.013340 0.125142 0.667000 9463383
0.014523 0.063774 0.663000 9660267
0.014479 0.067359 0.661000 13875518
0.014391 0.070706 0.657000 11763278
0.014260 0.073780 0.651000 14196496
0.014129 0.076786 0.645000 15053415
0.014063 0.080097 0.642000 10661548
0.014063 0.083766 0.642000 10118752
0.014041 0.087298 0.641000 10323311
0.013997 0.090677 0.639000 10581603
0.013975 0.094181 0.638000 10115860
0.013931 0.097520 0.636000 9857579
0.014063 0.102109 0.642000 8414027
0.014150 0.106436 0.646000 7820356
0.014238 0.110810 0.650000 9069906
0.014370 0.115581 0.656000 10052155
0.014479 0.120239 0.661000 9263915
0.014567 0.124767 0.665000 8609342
0.015786 0.063774 0.663000 7563402
0.015714 0.067257 0.660000 13543252
0.015643 0.070706 0.657000 11501906
0.015500 0.073780 0.651000 14461450
0.015357 0.076786 0.645000 14199399
0.015333 0.080347 0.644000 10654888
0.015286 0.083766 0.642000 9457212
0.015262 0.087298 0.641000 9861729
0.015214 0.090677 0.639000 11435898
0.015143 0.093886 0.636000 9127937
0.015119 0.097367 0.635000 9792800
0.015262 0.101950 0.641000 9201490
0.015357 0.106271 0.645000 8212560
0.015476 0.110810 0.650000 9135445
0.015595 0.115405 0.655000 9790022
0.015667 0.119693 0.658000 8276011
0.015786 0.124391 0.663000 8211493
0.017126 0.060257 0.666000 13089494
0.017049 0.063774 0.663000 5463169
0.016971 0.067257 0.660000 13216360
0.016843 0.070490 0.655000 11240778
0.016740 0.073780 0.651000 14727715
0.016611 0.076905 0.646000 13349491
0.016560 0.080347 0.644000 10658962
0.016509 0.083766 0.642000 8742245
0.016483 0.087298 0.641000 9403016
0.016406 0.090535 0.638000 12295074
0.016329 0.093738 0.635000 8207145
0.016303 0.097213 0.634000 9722654
0.016431 0.101631 0.639000 10056000
0.016509 0.105777 0.642000 8542539
0.016663 0.110469 0.648000 9200709
0.016791 0.115052 0.653000 9461317
0.016894 0.119511 0.657000 7226162
0.017023 0.124204 0.662000 7752239
0.018532 0.056875 0.671000 14598354
0.018422 0.060348 0.667000 11838449
0.018284 0.063678 0.662000 8995192
0.018229 0.067257 0.660000 13741947
0.018090 0.070490 0.655000 12158530
0.017980 0.073780 0.651000 14989627
0.017842 0.076905 0.646000 13807231
0.017787 0.080347 0.644000 10252667
0.017731 0.083766 0.642000 10453646
0.017704 0.087298 0.641000 11116463
0.017621 0.090535 0.638000 12761034
0.017538 0.093738 0.635000 8870480
0.017483 0.097060 0.633000 8603932
0.017510 0.100836 0.634000 9593902
0.017676 0.105448 0.640000 8740165
0.017870 0.110298 0.647000 9197365
0.017980 0.114700 0.651000 9330756
0.018090 0.119148 0.655000 7818808
0.018173 0.123453 0.658000 8014905
0.019810 0.056875 0.671000 14659775
0.019692 0.060348 0.667000 10597800
0.019545 0.063678 0.662000 12489393
0.019486 0.067257 0.660000 14209715
0.019279 0.070275 0.653000 13083230
0.019190 0.073667 0.650000 15253601
0.019072 0.076905 0.646000 14205082
0.019013 0.080347 0.644000 9908068
0.018954 0.083766 0.642000 12165539
0.018925 0.087298 0.641000 12829116
0.018777 0.090251 0.636000 13219014
0.018718 0.093590 0.634000 9536411
0.018689 0.097060 0.633000 7488046
0.018689 0.100677 0.633000 9133358
0.018895 0.105448 0.640000 8873031
0.019013 0.109787 0.644000 9260610
0.019190 0.114524 0.650000 9134404
0.019279 0.118784 0.653000 8411202
0.019397 0.123266 0.657000 8213063
0.019545 0.127987 0.662000 7429700
0.021089 0.056875 0.671000 10973612
0.020963 0.060348 0.667000 9394526
0.020806 0.063678 0.662000 14607851
0.020680 0.067053 0.658000 14605034
0.020523 0.070275 0.653000 14203259
0.020429 0.073667 0.650000 14727303
0.020271 0.076786 0.645000 14734006
0.020240 0.080347 0.644000 9918797
0.020146 0.083635 0.641000 13155256
0.020114 0.087162 0.640000 12892104
0.019957 0.090110 0.635000 13543107
0.019926 0.093590 0.634000 11643109
0.019863 0.096907 0.632000 7489857
0.019831 0.100359 0.631000 8935214
0.020051 0.105118 0.638000 9531464
0.020177 0.109446 0.642000 9329231
0.020303 0.113819 0.646000 9199429
0.020491 0.118602 0.652000 8608331
0.020586 0.122890 0.655000 8411990
0.020774 0.127793 0.661000 8019533
0.022367 0.056875 0.671000 7236504
0.022233 0.060348 0.667000 8205978
0.022067 0.063678 0.662000 16708596
0.021900 0.066951 0.657000 14997730
0.021733 0.070168 0.652000 15313293
0.021667 0.073667 0.650000 14202531
0.021533 0.076905 0.646000 15187363
0.021467 0.080347 0.644000 9984109
0.021367 0.083635 0.641000 14138804
0.021333 0.087162 0.640000 13021117
0.021200 0.090251 0.636000 13877717
0.021100 0.093443 0.633000 13821676
0.021067 0.096907 0.632000 7493977
0.021033 0.100359 0.631000 8737595
0.021133 0.104459 0.634000 10119491
0.021333 0.109105 0.640000 9461579
0.021467 0.113467 0.644000 9198142
0.021567 0.117692 0.647000 8872517
0.021700 0.122140 0.651000 8608590
0.021933 0.127213 0.658000 8609103
0.023645 0.056875 0.671000 9397125
0.023504 0.060348 0.667000 11244758
0.023328 0.063678 0.662000 16644093
0.023151 0.066951 0.657000 14336218
0.022975 0.070168 0.652000 13272735
0.022834 0.073440 0.648000 14006974
0.022764 0.076905 0.646000 13284753
0.022693 0.080347 0.644000 10188428
0.022623 0.083766 0.642000 14072497
0.022517 0.087026 0.639000 13480113
0.022376 0.090110 0.635000 14735591
0.022306 0.093443 0.633000 14409971
0.022235 0.096753 0.631000 8806001
0.022165 0.100041 0.629000 8343879
0.022270 0.104130 0.632000 9331517
0.022482 0.108764 0.638000 9395783
0.022623 0.113114 0.642000 9196855
0.022764 0.117510 0.646000 8805695
0.022905 0.121952 0.650000 8739399
0.022975 0.126053 0.652000 8477776
0.024923 0.056875 0.671000 11575210
0.024737 0.060257 0.666000 14282730
0.024551 0.063582 0.661000 16511993
0.024403 0.066951 0.657000 13677519
0.024180 0.070060 0.651000 11180976
0.024069 0.073440 0.648000 13876670
0.023957 0.076786 0.645000 11368338
0.023920 0.080347 0.644000 10397863
0.023809 0.083635 0.641000 14004632
0.023734 0.087026 0.639000 14004937
0.023586 0.090110 0.635000 15524076
0.023511 0.093443 0.633000 14999519
0.023437 0.096753 0.631000 10059398
0.023326 0.099882 0.628000 7884857
0.023363 0.103635 0.629000 8474701
0.023586 0.108252 0.635000 9395785
0.023771 0.112762 0.640000 9199937
0.023957 0.117329 0.645000 8739392
0.024069 0.121577 0.648000 8806466
0.024217 0.126053 0.652000 8345675
0.024440 0.130973 0.658000 9529687
0.026201 0.056875 0.671000 13290192
0.026006 0.060257 0.666000 15463934
0.025810 0.063582 0.661000 16117749
0.025615 0.066850 0.656000 13546948
0.025459 0.070168 0.652000 12233665
0.025264 0.073327 0.647000 14404541
0.025186 0.076786 0.645000 9715347
0.025147 0.080347 0.644000 11840962
0.025030 0.083635 0.641000 13213567
0.024912 0.086890 0.638000 14668513
0.024756 0.089968 0.634000 15654130
0.024717 0.093443 0.633000 13742282
0.024561 0.096447 0.629000 11316122
0.024483 0.099723 0.627000 6569259
0.024522 0.103470 0.628000 6107484
0.024717 0.107911 0.633000 9330251
0.024951 0.112586 0.639000 9595468
0.025030 0.116601 0.641000 9003329
0.025225 0.121202 0.646000 9201213
0.025420 0.125860 0.651000 8475974
0.025615 0.130575 0.656000 8874332
0.027479 0.056875 0.671000 14930389
0.027274 0.060257 0.666000 16711166
0.027029 0.063486 0.660000 15720172
0.026865 0.066850 0.656000 13482445
0.026701 0.070168 0.652000 13219272
0.026537 0.073440 0.648000 14933720
0.026414 0.076786 0.645000 8026273
0.026373 0.080347 0.644000 13289927
0.026291 0.083766 0.642000 12361821
0.026128 0.086890 0.638000 15327448
0.025964 0.089968 0.634000 15785704
0.025882 0.093295 0.632000 12482461
0.025718 0.096293 0.628000 12554148
0.025677 0.099723 0.627000 5325412
0.025677 0.103306 0.627000 3681619
0.025841 0.107570 0.631000 9263683
0.026128 0.112410 0.638000 9923648
0.026169 0.116237 0.639000 9333054
0.026455 0.121202 0.646000 9593656
0.026619 0.125667 0.650000 8607041
0.026742 0.129978 0.653000 8213315
0.028800 0.053120 0.672000 14270619
0.028671 0.056706 0.669000 14210010
0.028543 0.060257 0.666000 16117758
0.028286 0.063486 0.660000 14863331
0.028114 0.066850 0.656000 13548758
0.027943 0.070168 0.652000 13746384
0.027771 0.073440 0.648000 14538226
0.027600 0.076667 0.644000 10520751
0.027600 0.080347 0.644000 13549515
0.027471 0.083635 0.641000 12094012
0.027257 0.086617 0.636000 14601166
0.027129 0.089826 0.633000 14013150
0.027086 0.093295 0.632000 12161392
0.026914 0.096293 0.628000 8550318
0.026871 0.099723 0.627000 5856157
0.026829 0.103141 0.626000 3746379
0.026914 0.107059 0.628000 8279098
0.027171 0.111705 0.634000 10186036
0.027214 0.115510 0.635000 9066042
0.027514 0.120451 0.642000 9397811
0.027771 0.125280 0.648000 9264956
0.027943 0.129779 0.652000 7547690
0.030170 0.053278 0.674000 14139822
0.029856 0.056536 0.667000 13481146
0.029767 0.060167 0.665000 15589327
0.029543 0.063486 0.660000 13944779
0.029364 0.066850 0.656000 13679789
0.029185 0.070168 0.652000 14271176
0.029006 0.073440 0.648000 14217707
0.028827 0.076667 0.644000 13017785
0.028737 0.080097 0.642000 13814985
0.028692 0.083635 0.641000 11831096
0.028424 0.086481 0.635000 13811857
0.028334 0.089826 0.633000 12233147
0.028245 0.093148 0.631000 11905162
0.028110 0.096293 0.628000 4485808
0.028021 0.099564 0.626000 6452646
0.027976 0.102976 0.625000 3813972
