# .PCD v.7 - Point Cloud Data file format
VERSION .7
FIELDS x y z rgb
SIZE 4 4 4 4
TYPE F F F I
COUNT 1 1 1 1
WIDTH 1345
HEIGHT 1
POINTS 1345
DATA ascii
0.075837 0.096140 0.627000 6835006
0.076442 0.100518 0.632000 9659459
0.076684 0.104459 0.634000 8803898
0.076926 0.108423 0.636000 6436163
0.079980 0.040300 0.651000 5921477
0.079489 0.043750 0.647000 15251871
0.079120 0.047227 0.644000 16306888
0.078383 0.050432 0.638000 14727357
0.078014 0.053824 0.635000 15910839
0.077523 0.057090 0.631000 14000021
0.076909 0.060215 0.626000 12228057
0.076417 0.063385 0.622000 12039374
0.075926 0.066509 0.618000 13815227
0.075680 0.069813 0.616000 13483970
0.075311 0.072976 0.613000 8079930
0.075434 0.076604 0.614000 8408577
0.075680 0.080373 0.616000 8935975
0.075926 0.084166 0.618000 9136476
0.076540 0.088407 0.623000 8997958
0.076786 0.092262 0.625000 8870976
0.077031 0.096140 0.627000 7949644
0.077523 0.100359 0.631000 9462859
0.077769 0.104294 0.633000 8738621
0.078137 0.108423 0.636000 6372686
0.081220 0.040300 0.651000 5666250
0.080721 0.043750 0.647000 14727582
0.080347 0.047227 0.644000 16306887
0.079349 0.050274 0.636000 14594218
0.079224 0.053824 0.635000 15581867
0.078725 0.057090 0.631000 13735842
0.078101 0.060215 0.626000 13813715
0.077602 0.063385 0.622000 14927811
0.077103 0.066509 0.618000 15123629
0.076853 0.069813 0.616000 13222595
0.076479 0.072976 0.613000 8017736
0.076479 0.076479 0.613000 8278283
0.076853 0.080373 0.616000 8345390
0.077103 0.084166 0.618000 9265995
0.077727 0.088407 0.623000 9001540
0.077851 0.092114 0.624000 9135680
0.078101 0.095987 0.626000 9002058
0.078725 0.100359 0.631000 9331773
0.078974 0.104294 0.633000 8672321
0.079224 0.108252 0.635000 6242389
0.079723 0.112586 0.639000 9003602
0.082460 0.040300 0.651000 5863118
0.082080 0.043817 0.648000 14069148
0.081320 0.047080 0.642000 16503751
0.080560 0.050274 0.636000 14126230
0.080307 0.053739 0.634000 15451295
0.079673 0.056910 0.629000 14069935
0.079293 0.060215 0.626000 14603981
0.078533 0.063181 0.620000 15123128
0.078280 0.066509 0.618000 15055264
0.078027 0.069813 0.616000 13154244
0.077647 0.072976 0.613000 8410199
0.077647 0.076479 0.613000 8410388
0.077900 0.080243 0.615000 8148533
0.078153 0.084030 0.617000 7883321
0.078787 0.088265 0.622000 9070403
0.079040 0.092114 0.624000 9197631
0.079293 0.095987 0.626000 9659720
0.079927 0.100359 0.631000 9264687
0.080180 0.104294 0.633000 8410182
0.080433 0.108252 0.635000 7296347
0.080940 0.112586 0.639000 8939605
0.083957 0.040424 0.653000 6067148
0.083314 0.043817 0.648000 13412507
0.082543 0.047080 0.642000 16700098
0.081771 0.050274 0.636000 13665432
0.081643 0.053824 0.635000 15251099
0.080871 0.056910 0.629000 14465727
0.080357 0.060119 0.625000 15388104
0.079714 0.063181 0.620000 15318965
0.079457 0.066509 0.618000 14921884
0.078943 0.069587 0.614000 13155009
0.078686 0.072857 0.612000 8744306
0.078814 0.076479 0.613000 8608826
0.078943 0.080112 0.614000 7886392
0.079329 0.084030 0.617000 6435362
0.079714 0.087981 0.620000 9132868
0.080100 0.091967 0.623000 9258314
0.080486 0.095987 0.626000 10247483
0.080871 0.100041 0.629000 9200170
0.081257 0.104130 0.632000 8080713
0.081643 0.108252 0.635000 8284258
0.082029 0.112410 0.638000 8808024
0.084940 0.040300 0.651000 11328202
0.084549 0.043817 0.648000 13147801
0.083635 0.047007 0.641000 16504252
0.082983 0.050274 0.636000 13731482
0.082591 0.053654 0.633000 14990231
0.081939 0.056819 0.628000 14531790
0.081548 0.060119 0.625000 15320515
0.080895 0.063181 0.620000 15384753
0.080504 0.066401 0.617000 14723480
0.080112 0.069587 0.614000 13416638
0.079851 0.072857 0.612000 9075086
0.079851 0.076354 0.612000 8872543
0.080112 0.080112 0.614000 8150075
0.080373 0.083893 0.616000 6238219
0.080765 0.087839 0.619000 7688262
0.081287 0.091967 0.623000 9065301
0.081678 0.095987 0.626000 9323566
0.082070 0.100041 0.629000 8604708
0.082461 0.104130 0.632000 7621707
0.082722 0.108082 0.634000 9007208
0.082983 0.112057 0.636000 8938843
0.086445 0.040424 0.653000 16569545
0.085783 0.043817 0.648000 12883614
0.084989 0.047080 0.642000 16304575
0.084194 0.050274 0.636000 13801912
0.083930 0.053739 0.634000 14660774
0.083003 0.056729 0.627000 14598605
0.082606 0.060023 0.624000 15189697
0.081944 0.063079 0.619000 15384496
0.081679 0.066401 0.617000 14529183
0.081282 0.069587 0.614000 13679801
0.080885 0.072738 0.611000 9405323
0.081017 0.076354 0.612000 9069662
0.081282 0.080112 0.614000 8412739
0.081547 0.083893 0.616000 6107692
0.081944 0.087839 0.619000 6243904
0.082341 0.091819 0.622000 8874596
0.082870 0.095987 0.626000 8342339
0.083135 0.099882 0.628000 8012354
0.083532 0.103965 0.631000 7100503
0.083930 0.108082 0.634000 9730928
0.084194 0.112057 0.636000 9005918
0.087689 0.040424 0.653000 14660040
0.086883 0.043750 0.647000 12620963
0.086077 0.047007 0.641000 15449794
0.085406 0.050274 0.636000 15060693
0.085003 0.053654 0.633000 14261430
0.084197 0.056729 0.627000 14336460
0.083794 0.060023 0.624000 15386047
0.083257 0.063181 0.620000 15450030
0.082854 0.066401 0.617000 14596262
0.082451 0.069587 0.614000 13547700
0.082183 0.072857 0.612000 9270409
0.082183 0.076354 0.612000 9005661
0.082451 0.080112 0.614000 8348235
0.082720 0.083893 0.616000 6702157
0.083123 0.087839 0.619000 6306618
0.083526 0.091819 0.622000 8875123
0.083794 0.095680 0.624000 8741976
0.084331 0.099882 0.628000 8609631
0.084734 0.103965 0.631000 7757412
0.085137 0.108082 0.634000 9861495
0.085406 0.112057 0.636000 9202529
0.088932 0.040424 0.653000 12699870
0.088115 0.043750 0.647000 12355232
0.087298 0.047007 0.641000 14596526
0.086617 0.050274 0.636000 16305853
0.086345 0.053739 0.634000 13872309
0.085391 0.056729 0.627000 14074317
0.084847 0.059927 0.623000 15583168
0.084302 0.063079 0.619000 15515565
0.083893 0.066293 0.616000 14660777
0.083485 0.069473 0.613000 13416878
0.082940 0.072500 0.609000 9073797
0.083212 0.076230 0.611000 9007198
0.083349 0.079851 0.612000 8216654
0.083621 0.083621 0.614000 7294029
0.084030 0.087555 0.617000 6372669
0.084438 0.091524 0.620000 8941931
0.084847 0.095527 0.623000 9070684
0.085119 0.099405 0.625000 9203037
0.085664 0.103635 0.629000 8414307
0.086209 0.107911 0.633000 9992045
0.086481 0.111881 0.635000 9335136
0.089900 0.040300 0.651000 14149108
0.089210 0.043682 0.646000 11897756
0.088381 0.046933 0.640000 14792858
0.087552 0.050116 0.634000 14984101
0.087414 0.053654 0.633000 14398133
0.086448 0.056638 0.626000 14008269
0.086033 0.059927 0.623000 15714753
0.085343 0.062977 0.618000 15450540
0.085067 0.066293 0.616000 14989229
0.084652 0.069473 0.613000 13349544
0.084100 0.072500 0.609000 9333121
0.084376 0.076230 0.611000 8610399
0.084514 0.079851 0.612000 8215377
0.084790 0.083621 0.614000 7756108
0.085205 0.087555 0.617000 6896960
0.085481 0.091376 0.619000 8808802
0.085895 0.095373 0.622000 8939616
0.086310 0.099405 0.625000 9596763
0.086586 0.103306 0.627000 8807010
0.087138 0.107570 0.631000 9728610
0.087552 0.111705 0.634000 9335904
0.091280 0.040362 0.652000 15522542
0.090300 0.043614 0.645000 11443090
0.089740 0.047007 0.641000 14923188
0.088760 0.050116 0.634000 13676224
0.088620 0.053654 0.633000 14924740
0.087640 0.056638 0.626000 13940169
0.087220 0.059927 0.623000 15779769
0.086660 0.063079 0.619000 15385519
0.086240 0.066293 0.616000 15252135
0.085820 0.069473 0.613000 13352347
0.085260 0.072500 0.609000 9533841
0.085260 0.075980 0.609000 8280926
0.085540 0.079721 0.611000 8149327
0.085820 0.083485 0.613000 8152397
0.086380 0.087555 0.617000 7359042
0.086660 0.091376 0.619000 8744284
0.087080 0.095373 0.622000 8809061
0.087360 0.099246 0.624000 9990237
0.087640 0.103141 0.626000 9136743
0.088060 0.107230 0.629000 9465445
0.088760 0.111705 0.634000 9269593
0.092238 0.040238 0.650000 14271976
0.091670 0.043682 0.646000 12428424
0.090961 0.047007 0.641000 14335438
0.089968 0.050116 0.634000 14535643
0.089826 0.053654 0.633000 14071508
0.088690 0.056548 0.625000 13676485
0.088407 0.059927 0.623000 15977650
0.087839 0.063079 0.619000 15319473
0.087271 0.066186 0.615000 15449506
0.086988 0.069473 0.613000 13611406
0.086420 0.072500 0.609000 9667234
0.086420 0.075980 0.609000 8149596
0.086704 0.079721 0.611000 7886156
0.086988 0.083485 0.613000 8414285
0.087555 0.087555 0.617000 7884356
0.087839 0.091376 0.619000 9005909
0.087981 0.095067 0.620000 9137002
0.088549 0.099246 0.624000 9793630
0.088974 0.103306 0.627000 9332845
0.089258 0.107230 0.629000 9268327
0.089684 0.111352 0.632000 9202002
0.093476 0.040238 0.650000 13024473
0.092901 0.043682 0.646000 13410995
0.091894 0.046860 0.639000 13680596
0.091175 0.050116 0.634000 15325400
0.091031 0.053654 0.633000 13218240
0.089881 0.056548 0.625000 13348796
0.089593 0.059927 0.623000 16107698
0.089162 0.063181 0.620000 15318690
0.088587 0.066293 0.616000 15580066
0.088155 0.069473 0.613000 13805968
0.087436 0.072381 0.608000 9796504
0.087436 0.075855 0.608000 8083798
0.087436 0.079330 0.608000 7623740
0.088011 0.083349 0.612000 8676147
0.088730 0.087555 0.617000 8345906
0.089018 0.091376 0.619000 9334354
0.089162 0.095067 0.620000 9399395
0.089593 0.099087 0.623000 9595480
0.090025 0.103141 0.626000 9465705
0.090312 0.107059 0.628000 9138544
0.090744 0.111176 0.631000 9135952
0.094714 0.040238 0.650000 12688843
0.093986 0.043614 0.645000 14732254
0.093257 0.046933 0.640000 13680603
0.092383 0.050116 0.634000 14203861
0.092237 0.053654 0.633000 13543085
0.091071 0.056548 0.625000 13348018
0.090634 0.059830 0.622000 15186099
0.090197 0.063079 0.619000 15116946
0.089614 0.066186 0.615000 15713442
0.089177 0.069360 0.612000 13739409
0.088594 0.072381 0.608000 9529486
0.088594 0.075855 0.608000 8016719
0.088594 0.079330 0.608000 8081452
0.089031 0.083212 0.611000 9528857
0.089760 0.087413 0.616000 8739104
0.090051 0.091229 0.618000 9135950
0.090343 0.095067 0.620000 9202524
0.090780 0.099087 0.623000 9332562
0.091217 0.103141 0.626000 9662565
0.091509 0.107059 0.628000 9466744
0.091946 0.111176 0.631000 9267023
0.095067 0.043547 0.644000 16120814
0.094329 0.046860 0.639000 13619688
0.093590 0.050116 0.634000 13022673
0.093443 0.053654 0.633000 13809050
0.092262 0.056548 0.625000 13350035
0.091819 0.059830 0.622000 14200743
0.091376 0.063079 0.619000 14919834
0.090786 0.066186 0.615000 15843493
0.090343 0.069360 0.612000 13607063
0.089752 0.072381 0.608000 9271192
0.089752 0.075855 0.608000 7950161
0.089752 0.079330 0.608000 8477230
0.090195 0.083212 0.611000 10446360
0.090638 0.087130 0.614000 9133589
0.091081 0.091081 0.617000 9004108
0.091376 0.094913 0.619000 9003869
0.091819 0.098928 0.622000 9134410
0.092262 0.102976 0.625000 9793892
0.092705 0.107059 0.628000 9859435
0.093148 0.111176 0.631000 9333331
0.096443 0.043614 0.645000 16382462
0.095695 0.046933 0.640000 14867957
0.094798 0.050116 0.634000 13745613
0.094499 0.053570 0.632000 14797191
0.093452 0.056548 0.625000 14466675
0.093004 0.059830 0.622000 13804700
0.092555 0.063079 0.619000 15185826
0.091808 0.066078 0.614000 15778471
0.091359 0.069247 0.611000 13805980
0.090910 0.072381 0.608000 10124963
0.090761 0.075730 0.607000 8214610
0.090910 0.079330 0.608000 8937521
0.091359 0.083212 0.611000 9986838
0.091808 0.087130 0.614000 9329675
0.092107 0.090933 0.616000 9069642
0.092555 0.094913 0.619000 8606557
0.093004 0.098928 0.622000 8936769
0.093452 0.102976 0.625000 9729379
0.093901 0.107059 0.628000 9728094
0.094350 0.111176 0.631000 9464407
0.097671 0.043614 0.645000 16711422
0.096914 0.046933 0.640000 16117753
0.096006 0.050116 0.634000 14465742
0.095703 0.053570 0.632000 15710595
0.094643 0.056548 0.625000 15648624
0.094189 0.059830 0.622000 13349525
0.093734 0.063079 0.619000 15450535
0.092977 0.066078 0.614000 15647404
0.092674 0.069360 0.612000 14000274
0.092069 0.072381 0.608000 10916517
0.091917 0.075730 0.607000 8479573
0.091917 0.079199 0.607000 9331006
0.092220 0.082940 0.609000 9593642
0.092826 0.086988 0.613000 9462559
0.093280 0.090933 0.616000 9136473
0.093583 0.094760 0.618000 8151645
0.093886 0.098610 0.620000 8807500
0.094491 0.102811 0.624000 9595218
0.094946 0.106889 0.627000 9530457
0.095249 0.110824 0.629000 9595735
0.098900 0.043614 0.645000 16711422
0.098133 0.046933 0.640000 16448254
0.097213 0.050116 0.634000 14862798
0.096907 0.053570 0.632000 14394495
0.095680 0.056457 0.624000 15778412
0.095373 0.059830 0.622000 14201998
0.094913 0.063079 0.619000 15055531
0.094147 0.066078 0.614000 15778993
0.093687 0.069247 0.611000 14134151
0.093073 0.072262 0.607000 10917800
0.093073 0.075730 0.607000 8674904
0.093073 0.079199 0.607000 9790283
0.093380 0.082940 0.609000 9594173
0.093993 0.086988 0.613000 9859124
0.094300 0.090786 0.615000 9728872
0.094607 0.094607 0.617000 9074526
0.095067 0.098610 0.620000 9465687
0.095527 0.102647 0.623000 8739137
0.096140 0.106889 0.627000 9398099
0.096447 0.110824 0.629000 9662040
0.096907 0.114964 0.632000 7754318
0.100284 0.043682 0.646000 16711422
0.099352 0.046933 0.640000 16710398
0.098421 0.050116 0.634000 15193534
0.097955 0.053485 0.631000 13080949
0.096869 0.056457 0.624000 15907948
0.096248 0.059638 0.620000 14990734
0.095937 0.062977 0.618000 14662321
0.095316 0.066078 0.614000 15843246
0.094850 0.069247 0.611000 14262410
0.094230 0.072262 0.607000 10916522
0.094074 0.075606 0.606000 8871260
0.094230 0.079199 0.607000 10185049
0.094540 0.082940 0.609000 9594445
0.095161 0.086988 0.613000 10186308
0.095471 0.090786 0.615000 10320223
0.095782 0.094607 0.617000 9924697
0.096092 0.098450 0.619000 10187607
0.096558 0.102482 0.622000 7887425
0.097179 0.106718 0.626000 9268563
0.097645 0.110824 0.629000 9661789
0.098110 0.114964 0.632000 7755856
0.101671 0.043750 0.647000 16183806
0.100571 0.046933 0.640000 16710398
0.099629 0.050116 0.634000 14993069
0.099157 0.053485 0.631000 12747371
0.098214 0.056548 0.625000 15577707
0.097429 0.059638 0.620000 14727053
0.096957 0.062875 0.617000 14727351
0.096486 0.066078 0.614000 15910827
0.096014 0.069247 0.611000 14264461
0.095229 0.072143 0.606000 11110829
0.095229 0.075606 0.606000 9596256
0.095386 0.079199 0.607000 9924455
0.095543 0.082804 0.608000 9464156
0.096171 0.086846 0.612000 9330260
0.096643 0.090786 0.615000 9200213
0.096957 0.094607 0.617000 9067861
0.097271 0.098450 0.619000 9398102
0.097743 0.102482 0.622000 7425346
0.098057 0.106377 0.624000 9530962
0.098843 0.110824 0.629000 9727843
0.103063 0.040114 0.648000 15060698
0.102745 0.043682 0.646000 15720928
0.101790 0.046933 0.640000 16706797
0.100836 0.050116 0.634000 14792609
0.100359 0.053485 0.631000 12360060
0.099405 0.056548 0.625000 15183474
0.098928 0.059830 0.622000 14400910
0.098132 0.062875 0.617000 14862007
0.097496 0.065970 0.613000 15910576
0.097178 0.069247 0.611000 14261642
0.096383 0.072143 0.606000 11246763
0.096224 0.075481 0.605000 10315095
0.096542 0.079199 0.607000 9594950
0.096701 0.082804 0.608000 9265463
0.097337 0.086846 0.612000 8473643
0.097655 0.090638 0.614000 8082484
0.097973 0.094453 0.616000 8215116
0.098450 0.098450 0.619000 8611163
0.098928 0.102482 0.622000 6969939
0.099087 0.106207 0.623000 9858903
0.099723 0.110471 0.627000 9793119
0.100359 0.114782 0.631000 8806218
0.104297 0.040114 0.648000 14468565
0.104136 0.043750 0.647000 14927809
0.103010 0.046933 0.640000 15325916
0.102044 0.050116 0.634000 14858645
0.101239 0.053315 0.629000 12557708
0.100434 0.056457 0.624000 15118713
0.099790 0.059638 0.620000 15122832
0.099308 0.062875 0.617000 15189687
0.098664 0.065970 0.613000 15582133
0.098020 0.069020 0.609000 14067335
0.097537 0.072143 0.606000 12361642
0.097215 0.075356 0.604000 9000526
0.097537 0.079069 0.606000 9327397
0.097859 0.082804 0.608000 7945745
0.098503 0.086846 0.612000 7611906
0.098825 0.090638 0.614000 7551762
0.099147 0.094453 0.616000 8280643
0.099469 0.098291 0.618000 9005663
0.100112 0.102482 0.622000 8219236
0.100273 0.106207 0.623000 9726811
0.100756 0.110295 0.626000 9727580
0.101239 0.114418 0.629000 8872513
0.105531 0.040114 0.648000 13811929
0.105043 0.043614 0.645000 14140640
0.104229 0.046933 0.640000 13876432
0.103251 0.050116 0.634000 14928793
0.102274 0.053230 0.628000 12753805
0.101623 0.056457 0.624000 15053183
0.100971 0.059638 0.620000 15779727
0.100483 0.062875 0.617000 15517366
0.099831 0.065970 0.613000 15254204
0.099180 0.069020 0.609000 13868466
0.098529 0.072024 0.605000 13480887
0.098366 0.075356 0.604000 7749959
0.098529 0.078938 0.605000 8999728
0.098854 0.082668 0.607000 6634010
0.099506 0.086704 0.611000 6697740
0.099831 0.090490 0.613000 7023897
0.100157 0.094300 0.615000 8345919
0.100646 0.098291 0.618000 9398619
0.100971 0.102152 0.620000 9464417
0.101460 0.106207 0.623000 9661276
0.101949 0.110295 0.626000 9661789
0.102437 0.114418 0.629000 8939346
0.106766 0.040114 0.648000 14337501
0.106271 0.043614 0.645000 15195390
0.105283 0.046860 0.639000 13809861
0.104459 0.050116 0.634000 15189148
0.103470 0.053230 0.628000 12818318
0.102811 0.056457 0.624000 14592133
0.102152 0.059638 0.620000 15715214
0.101493 0.062773 0.616000 15255477
0.100999 0.065970 0.613000 15319235
0.100340 0.069020 0.609000 14467804
0.099516 0.071905 0.604000 13552836
0.099516 0.075356 0.604000 7161152
0.099681 0.078938 0.605000 8935483
0.100010 0.082668 0.607000 7291170
0.100340 0.086420 0.609000 7094038
0.100999 0.090490 0.613000 7355423
0.101329 0.094300 0.615000 8214074
0.101658 0.098132 0.617000 9003350
0.102152 0.102152 0.620000 9199966
0.102647 0.106207 0.623000 9595741
0.103141 0.110295 0.626000 9727326
0.103470 0.114236 0.628000 9004643
0.108000 0.040114 0.648000 14864863
0.107500 0.043614 0.645000 16187134
0.106500 0.046860 0.639000 13680596
0.105667 0.050116 0.634000 15457184
0.104667 0.053230 0.628000 12883583
0.104000 0.056457 0.624000 14130011
0.103333 0.059638 0.620000 15645581
0.102667 0.062773 0.616000 14993871
0.102167 0.065970 0.613000 15324632
0.101500 0.069020 0.609000 15068903
0.100833 0.072024 0.605000 13547456
0.100667 0.075356 0.604000 6569031
0.100667 0.078808 0.604000 8869952
0.101000 0.082531 0.606000 7946536
0.101500 0.086420 0.609000 7422487
0.102000 0.090343 0.612000 7749403
0.102333 0.094147 0.614000 8082742
0.102833 0.098132 0.617000 8674894
0.103333 0.102152 0.620000 8937559
0.103833 0.106207 0.623000 9530204
0.104167 0.110119 0.625000 9792863
0.104667 0.114236 0.628000 9074027
0.109066 0.040052 0.647000 14275554
0.108560 0.043547 0.644000 16249597
0.107717 0.046860 0.639000 13883875
0.106874 0.050116 0.634000 15190947
0.105863 0.053230 0.628000 12290671
0.105189 0.056457 0.624000 13536561
0.104514 0.059638 0.620000 15181452
0.103840 0.062773 0.616000 15587816
0.103166 0.065863 0.612000 15919341
0.102660 0.069020 0.609000 15328754
0.101986 0.072024 0.605000 14205116
0.101649 0.075231 0.603000 7557453
0.101817 0.078808 0.604000 8935494
0.102154 0.082531 0.606000 8277805
0.102491 0.086278 0.608000 7816984
0.102997 0.090195 0.611000 7882775
0.103334 0.093993 0.613000 7886130
0.104009 0.098132 0.617000 8543302
0.104346 0.101988 0.619000 8805455
0.104851 0.106036 0.622000 9398619
0.105357 0.110119 0.625000 9727328
0.105694 0.114054 0.627000 8810611
0.110298 0.040052 0.647000 13679558
0.109446 0.043411 0.642000 16383458
0.108934 0.046860 0.639000 14004676
0.107911 0.050037 0.633000 14925967
0.107059 0.053230 0.628000 11701119
0.106207 0.056367 0.623000 13013884
0.105695 0.059638 0.620000 14668482
0.105013 0.062773 0.616000 16250867
0.104331 0.065863 0.612000 16511471
0.103820 0.069020 0.609000 15657969
0.103138 0.072024 0.605000 14796755
0.102797 0.075231 0.603000 8607851
0.102968 0.078808 0.604000 9003864
0.103309 0.082531 0.606000 8675117
0.103650 0.086278 0.608000 8211990
0.103820 0.089900 0.609000 8080924
0.104502 0.093993 0.613000 7620914
0.105013 0.097973 0.616000 8412475
0.105525 0.101988 0.619000 8609623
0.106036 0.106036 0.622000 9332830
0.106548 0.110119 0.625000 9596513
0.106718 0.113872 0.626000 8548455
0.111358 0.039990 0.646000 12884907
0.110496 0.043344 0.641000 13939910
0.110151 0.046860 0.639000 13203108
0.109117 0.050037 0.633000 14332027
0.108255 0.053230 0.628000 12483215
0.107393 0.056367 0.623000 13808327
0.106876 0.059638 0.620000 15728376
0.106359 0.062875 0.617000 16316414
0.105670 0.065970 0.613000 16315121
0.104980 0.069020 0.609000 15854063
0.104290 0.072024 0.605000 15524074
0.103946 0.075231 0.603000 9332872
0.103946 0.078677 0.603000 9206122
0.104290 0.082395 0.605000 8871724
0.104635 0.086136 0.607000 8803603
0.104980 0.089900 0.609000 8147745
0.105670 0.093993 0.613000 7549235
0.106187 0.097973 0.616000 7753007
0.106359 0.101658 0.617000 8675680
0.106876 0.105695 0.620000 9595232
0.107566 0.109943 0.624000 9399650
0.107910 0.113872 0.626000 8215130
0.112589 0.039990 0.646000 12099509
0.111717 0.043344 0.641000 11504039
0.111369 0.046860 0.639000 12360384
0.110323 0.050037 0.633000 13748401
0.109277 0.053146 0.627000 13283257
0.108580 0.056367 0.623000 14668496
0.108057 0.059638 0.620000 16708853
0.107360 0.062773 0.616000 16448510
0.106837 0.065970 0.613000 16116718
0.105966 0.068907 0.608000 16117488
0.105269 0.071905 0.604000 16180971
0.105094 0.075231 0.603000 10051226
0.105094 0.078677 0.603000 9335404
0.105269 0.082259 0.604000 9067075
0.105617 0.085994 0.606000 9393690
0.105966 0.089752 0.608000 8279599
0.106663 0.093840 0.612000 7423548
0.107011 0.097655 0.614000 7091224
0.107534 0.101658 0.617000 8675663
0.107883 0.105525 0.619000 9858145
0.108754 0.109943 0.624000 9200977
0.109103 0.113872 0.626000 7884078
0.112938 0.043344 0.641000 11506056
0.112586 0.046860 0.639000 13876445
0.111529 0.050037 0.633000 14932455
0.110471 0.053146 0.627000 14082531
0.109943 0.056457 0.624000 14930648
0.109238 0.059638 0.620000 15919346
0.108533 0.062773 0.616000 16315389
0.108005 0.065970 0.613000 16116203
0.107300 0.069020 0.609000 16050928
0.106419 0.071905 0.604000 16116461
0.106243 0.075231 0.603000 10449835
0.106243 0.078677 0.603000 9665134
0.106419 0.082259 0.604000 8411993
0.106771 0.085994 0.606000 8672544
0.107124 0.089752 0.608000 8280124
0.107829 0.093840 0.612000 7821638
0.108181 0.097655 0.614000 7220225
0.108533 0.101493 0.616000 8674878
0.109062 0.105525 0.619000 9793121
0.109767 0.109767 0.623000 8805184
0.110119 0.113690 0.625000 7292674
0.114159 0.043344 0.641000 11567005
0.113803 0.046860 0.639000 15392493
0.112734 0.050037 0.633000 16118513
0.111844 0.053230 0.628000 14864099
0.111310 0.056548 0.625000 15128553
0.110419 0.059638 0.620000 15129069
0.109707 0.062773 0.616000 16182778
0.109172 0.065970 0.613000 16050925
0.108282 0.068907 0.608000 15985903
0.107570 0.071905 0.604000 15983598
0.107213 0.075107 0.602000 10837969
0.107213 0.078547 0.602000 9926768
0.107570 0.082259 0.604000 7824735
0.107926 0.085994 0.606000 7949868
0.108282 0.089752 0.608000 8280388
0.108994 0.093840 0.612000 8149581
0.109350 0.097655 0.614000 7414810
0.109707 0.101493 0.616000 8673607
0.110063 0.105354 0.618000 9728360
0.110775 0.109590 0.622000 8412472
0.111310 0.113690 0.625000 6768406
0.115020 0.046860 0.639000 16055806
0.114120 0.050116 0.634000 16183803
0.112860 0.053146 0.627000 13280739
0.112500 0.056548 0.625000 15261433
0.111960 0.059830 0.622000 14600425
0.110880 0.062773 0.616000 16116726
0.110340 0.065970 0.613000 16116720
0.109440 0.068907 0.608000 16050926
0.108720 0.071905 0.604000 15915248
0.108360 0.075107 0.602000 11966199
0.108180 0.078416 0.601000 10124657
0.108540 0.082123 0.603000 8217701
0.108900 0.085852 0.605000 7949879
0.109260 0.089605 0.607000 8280908
0.109980 0.093687 0.611000 8149332
0.110340 0.097496 0.613000 7685682
0.110880 0.101493 0.616000 8805969
0.111240 0.105354 0.618000 9728879
0.111960 0.109590 0.622000 8344113
0.112500 0.113690 0.625000 7228713
0.116237 0.046860 0.639000 16709883
0.115146 0.050037 0.633000 16182005
0.114236 0.053230 0.628000 11646183
0.113690 0.056548 0.625000 15327990
0.113145 0.059830 0.622000 14077159
0.112053 0.062773 0.616000 16055032
0.111508 0.065970 0.613000 16116720
0.110598 0.068907 0.608000 16182769
0.109870 0.071905 0.604000 15855350
0.109325 0.074982 0.601000 13021686
0.109143 0.078286 0.600000 10254451
0.109507 0.081987 0.602000 8548703
0.109870 0.085710 0.604000 7949619
0.110416 0.089605 0.607000 8281420
0.111144 0.093687 0.611000 8083788
0.111508 0.097496 0.613000 8015662
0.111871 0.101329 0.615000 8872269
0.112417 0.105354 0.618000 9727841
0.112781 0.109238 0.620000 8279594
0.113690 0.113690 0.625000 7688213
0.117638 0.043276 0.640000 15526139
0.117454 0.046860 0.639000 16444919
0.116351 0.050037 0.633000 16050415
0.115432 0.053230 0.628000 11772650
0.114881 0.056548 0.625000 15260147
0.113962 0.059638 0.620000 14271461
0.113227 0.062773 0.616000 15722746
0.112675 0.065970 0.613000 16116720
0.111756 0.068907 0.608000 16380915
0.111205 0.072024 0.605000 16317949
0.110286 0.074857 0.600000 13483508
0.110286 0.078286 0.600000 9991029
0.110470 0.081850 0.601000 8082009
0.111021 0.085710 0.604000 7292718
0.111572 0.089605 0.607000 7754059
0.112308 0.093687 0.611000 7623235
0.112675 0.097496 0.613000 7753002
0.113043 0.101329 0.615000 8544074
0.113410 0.105184 0.617000 9003346
0.113778 0.109062 0.619000 7950882
0.114697 0.113509 0.624000 7358465
0.118857 0.043276 0.640000 16514813
0.118671 0.046860 0.639000 16118267
0.117557 0.050037 0.633000 15856118
0.116814 0.053315 0.629000 11842268
0.116257 0.056638 0.626000 15194607
0.115514 0.059830 0.622000 14407150
0.114400 0.062773 0.616000 15462649
0.114029 0.066078 0.614000 16118263
0.112914 0.068907 0.608000 16514297
0.112357 0.072024 0.605000 16704725
0.111614 0.074982 0.601000 13943239
0.111429 0.078286 0.600000 9731990
0.111614 0.081850 0.601000 7618441
0.112171 0.085710 0.604000 6636390
0.112729 0.089605 0.607000 7291512
0.113100 0.093380 0.609000 7099756
0.113657 0.097337 0.612000 7554651
0.114214 0.101329 0.615000 8150636
0.114586 0.105184 0.617000 8279150
0.114771 0.108886 0.618000 7622734
0.116071 0.113690 0.625000 6961975
0.120076 0.043276 0.640000 16645886
0.119889 0.046860 0.639000 16449278
0.118763 0.050037 0.633000 15131645
0.117825 0.053230 0.628000 11770573
0.117262 0.056548 0.625000 15391979
0.116699 0.059830 0.622000 15394294
0.115573 0.062773 0.616000 15987447
0.115010 0.065970 0.613000 16449278
0.114072 0.068907 0.608000 16250878
0.113510 0.072024 0.605000 15118253
0.112759 0.074982 0.601000 13280921
0.112571 0.078286 0.600000 11968695
0.112759 0.081850 0.601000 10455481
0.113322 0.085710 0.604000 9464478
0.113885 0.089605 0.607000 9729700
0.114260 0.093380 0.609000 9466006
0.114823 0.097337 0.612000 9400971
0.115386 0.101329 0.615000 9663119
0.115949 0.105354 0.618000 9598857
0.116136 0.109062 0.619000 8936059
0.117262 0.113690 0.625000 8544108
0.121106 0.043209 0.639000 16711422
0.121106 0.046860 0.639000 16711422
0.119969 0.050037 0.633000 14345209
0.119021 0.053230 0.628000 11644369
0.118452 0.056548 0.625000 15654896
0.117884 0.059830 0.622000 16315898
0.116747 0.062773 0.616000 16580347
0.116178 0.065970 0.613000 16708339
0.115230 0.068907 0.608000 15986886
0.114662 0.072024 0.605000 13540000
0.113904 0.074982 0.601000 12688546
0.113714 0.078286 0.600000 14201780
0.113904 0.081850 0.601000 13355965
0.114472 0.085710 0.604000 12230568
0.114851 0.089457 0.606000 12104619
0.115230 0.093227 0.608000 11772325
0.115989 0.097337 0.612000 11313309
0.116747 0.101493 0.616000 11114660
0.117126 0.105354 0.618000 10920607
0.117315 0.109062 0.619000 10191506
0.118452 0.113690 0.625000 10126723
0.122323 0.043209 0.639000 16447742
0.122323 0.046860 0.639000 16711422
0.121557 0.050195 0.635000 14473716
0.120409 0.053315 0.629000 12558806
0.119643 0.056548 0.625000 16051444
0.118686 0.059638 0.620000 16514814
0.118111 0.062875 0.617000 15922430
0.117537 0.066078 0.614000 13487848
0.116580 0.069020 0.609000 13147534
0.115814 0.072024 0.605000 12622740
0.114666 0.074732 0.599000 12492714
0.114857 0.078286 0.600000 13415858
0.114857 0.081714 0.600000 13021888
0.115623 0.085710 0.604000 12494258
0.116006 0.089457 0.606000 12560305
0.116389 0.093227 0.608000 12432308
0.117920 0.101493 0.616000 12102842
0.118303 0.105354 0.618000 11838132
0.118303 0.108886 0.618000 11442857
0.119834 0.113872 0.626000 11308698
0.123540 0.043209 0.639000 16248822
0.123540 0.046860 0.639000 16711421
0.122573 0.050116 0.634000 14608630
0.121607 0.053315 0.629000 13421287
0.120833 0.056548 0.625000 16510969
0.119867 0.059638 0.620000 16708854
0.119287 0.062875 0.617000 15194316
0.118707 0.066078 0.614000 10248635
0.117740 0.069020 0.609000 10244506
0.117547 0.072381 0.608000 11698847
0.115807 0.074732 0.599000 12294817
0.115807 0.078155 0.599000 12555689
0.116000 0.081714 0.600000 12686514
0.116580 0.085569 0.603000 12754861
0.119093 0.101493 0.616000 13016491
0.119287 0.105184 0.617000 12753837
0.119480 0.108886 0.618000 12688037
0.121027 0.113872 0.626000 12555166
0.124562 0.043141 0.638000 16115693
0.124757 0.046860 0.639000 16711421
0.123781 0.050116 0.634000 15330552
0.122805 0.053315 0.629000 14805753
0.122024 0.056548 0.625000 15723774
0.121048 0.059638 0.620000 13620974
0.120267 0.062773 0.616000 11167130
0.119876 0.066078 0.614000 9650574
0.118900 0.069020 0.609000 10120101
0.118705 0.072381 0.608000 10576299
0.120462 0.105184 0.617000 12556710
0.122219 0.113872 0.626000 13082017
0.125777 0.043141 0.638000 15985652
0.125383 0.046640 0.636000 16711165
0.124989 0.050116 0.634000 16052475
0.123609 0.053146 0.627000 16179445
0.123017 0.056457 0.624000 14928332
0.122623 0.059830 0.622000 10447550
0.121440 0.062773 0.616000 7149475
0.121046 0.066078 0.614000 9007514
0.120060 0.069020 0.609000 9995686
0.126992 0.043141 0.638000 16249594
0.126594 0.046640 0.636000 16711422
0.126196 0.050116 0.634000 15460350
0.124803 0.053146 0.627000 14203633
0.124405 0.056548 0.625000 10967961
0.123808 0.059830 0.622000 9918350
0.122613 0.062773 0.616000 8610731
0.122215 0.066078 0.614000 9735847
0.127806 0.046640 0.636000 16706808
0.127404 0.050116 0.634000 14862801
0.126198 0.053230 0.628000 12229324
0.125394 0.056457 0.624000 7103911
0.124992 0.059830 0.622000 9341086
0.123787 0.062773 0.616000 10063790
0.128814 0.046567 0.635000 14335729
0.128611 0.050116 0.634000 13012387
0.127394 0.053230 0.628000 12492455
0.126583 0.056457 0.624000 10262453
0.126177 0.059830 0.622000 11511471
0.125163 0.062875 0.617000 11837872
0.130024 0.046567 0.635000 11968996
0.129819 0.050116 0.634000 11114945
0.128590 0.053230 0.628000 12692420
0.127771 0.056457 0.624000 13482188
0.127362 0.059830 0.622000 13612486
0.126338 0.062875 0.617000 13547720
0.131233 0.046567 0.635000 13937622
0.130820 0.050037 0.633000 13484510
0.130820 0.053654 0.633000 14138082
0.132443 0.046567 0.635000 15850728
0.132026 0.050037 0.633000 15853802
0.132026 0.053654 0.633000 15588588
0.133652 0.046567 0.635000 15985658
0.133442 0.050116 0.634000 16050166
-0.012940 0.067165 0.647000 15252652
-0.011708 0.067165 0.647000 13348508
-0.010459 0.063370 0.646000 10775653
-0.010475 0.067165 0.647000 11434612
-0.010491 0.070971 0.648000 13603714
-0.009229 0.063370 0.646000 9921092
-0.009243 0.067165 0.647000 10308684
-0.009257 0.070971 0.648000 11102545
-0.009329 0.075250 0.653000 11831148
-0.007986 0.063271 0.645000 9069630
-0.007986 0.066957 0.645000 9200713
-0.008023 0.070971 0.648000 8675934
-0.008060 0.075020 0.651000 9071979
-0.008147 0.083347 0.658000 11632993
-0.008171 0.087371 0.660000 13080934
-0.006778 0.059770 0.647000 12689070
-0.006747 0.063173 0.644000 9398071
-0.006757 0.066957 0.645000 9663814
-0.006768 0.070752 0.646000 9137258
-0.006820 0.075020 0.651000 9532266
-0.006862 0.079224 0.655000 8008449
-0.006893 0.083347 0.658000 10050094
-0.006914 0.087371 0.660000 8208672
-0.007009 0.100031 0.669000 12295309
-0.005589 0.056507 0.652000 12497338
-0.005537 0.059678 0.646000 11771313
-0.005520 0.063173 0.644000 9726806
-0.005520 0.066853 0.644000 10056778
-0.005529 0.070643 0.645000 9661797
-0.005580 0.075020 0.651000 9925225
-0.005597 0.078982 0.653000 6305813
-0.005631 0.083220 0.657000 8411456
-0.005640 0.087107 0.658000 3342640
-0.005674 0.091419 0.662000 5119023
-0.005709 0.095777 0.666000 8402494
-0.005734 0.100031 0.669000 11364695
-0.004347 0.056507 0.652000 12559280
-0.004307 0.059678 0.646000 13022132
-0.004280 0.062977 0.642000 9860468
-0.004280 0.066646 0.642000 10385999
-0.004300 0.070643 0.645000 9596000
-0.004340 0.075020 0.651000 9662056
-0.004353 0.078982 0.653000 6635817
-0.004380 0.083220 0.657000 8150866
-0.004387 0.087107 0.658000 4532544
-0.004413 0.091419 0.662000 3539225
-0.004440 0.095777 0.666000 5378561
-0.004460 0.100031 0.669000 9715233
-0.003095 0.056333 0.650000 12622251
-0.003076 0.059678 0.646000 14271173
-0.003057 0.062977 0.642000 10055284
-0.003057 0.066646 0.642000 10712150
-0.003067 0.070533 0.644000 9595745
-0.003086 0.074674 0.648000 9399399
-0.003100 0.078740 0.651000 6964016
-0.003124 0.083093 0.656000 7887690
-0.003133 0.087107 0.658000 5721407
-0.003152 0.091419 0.662000 1972775
-0.003171 0.095777 0.666000 2429201
-0.003186 0.100031 0.669000 8011562
-0.001871 0.053024 0.655000 12425845
-0.001851 0.056160 0.648000 12887718
-0.001846 0.059678 0.646000 14801110
-0.001831 0.062879 0.641000 9332339
-0.001831 0.066542 0.641000 9263965
-0.001840 0.070533 0.644000 9400161
-0.001849 0.074559 0.647000 9203559
-0.001860 0.078740 0.651000 7359287
-0.001866 0.082713 0.653000 7952961
-0.001880 0.087107 0.658000 6771006
-0.001891 0.091419 0.662000 3418422
-0.001900 0.095633 0.665000 4206113
-0.001911 0.100031 0.669000 6830132
-0.000622 0.052862 0.653000 11571028
-0.000617 0.056160 0.648000 13220033
-0.000614 0.059586 0.645000 15324635
-0.000610 0.062879 0.641000 8672626
-0.000610 0.066438 0.640000 7820622
-0.000611 0.070314 0.642000 9269342
-0.000616 0.074559 0.647000 9006699
-0.000619 0.078619 0.650000 7687486
-0.000621 0.082587 0.652000 8017213
-0.000625 0.086842 0.656000 7820348
-0.000630 0.091281 0.661000 4801080
-0.000633 0.095633 0.665000 6044965
-0.000635 0.099732 0.667000 5585705
0.000635 0.046372 0.667000 11111783
0.000626 0.049431 0.657000 12752711
0.000622 0.052862 0.653000 11631667
0.000617 0.056160 0.648000 14011355
0.000614 0.059586 0.645000 15327456
0.000610 0.062781 0.640000 8871025
0.000610 0.066438 0.640000 7427135
0.000611 0.070314 0.642000 9070683
0.000614 0.074329 0.645000 9400432
0.000619 0.078619 0.650000 7491652
0.000621 0.082587 0.652000 7754297
0.000624 0.086710 0.655000 7688505
0.000630 0.091281 0.661000 6313019
0.000631 0.095346 0.663000 6174505
0.000635 0.099732 0.667000 5714206
0.001903 0.046303 0.666000 9931373
0.001877 0.049431 0.657000 12950837
0.001866 0.052862 0.653000 11698472
0.001851 0.056160 0.648000 14800295
0.001843 0.059586 0.645000 15257027
0.001829 0.062781 0.640000 8993644
0.001829 0.066438 0.640000 6969164
0.001831 0.070205 0.641000 8938845
0.001840 0.074213 0.644000 9727077
0.001851 0.078377 0.648000 7360594
0.001863 0.082587 0.652000 7426109
0.001866 0.086445 0.653000 7490638
0.001886 0.091143 0.660000 7821633
0.001891 0.095202 0.662000 6304039
0.001903 0.099583 0.666000 5779746
0.003176 0.042561 0.667000 11445460
0.003171 0.046303 0.666000 12030323
0.003129 0.049431 0.657000 12749859
0.003100 0.052700 0.651000 11565853
0.003086 0.056160 0.648000 13874803
0.003071 0.059586 0.645000 13481639
0.003043 0.062683 0.639000 9330534
0.003043 0.066334 0.639000 7820633
0.003052 0.070205 0.641000 8938846
0.003067 0.074213 0.644000 9463898
0.003086 0.078377 0.648000 7952735
0.003105 0.082587 0.652000 7820354
0.003110 0.086445 0.653000 8545635
0.003133 0.090867 0.658000 8216647
0.003148 0.095058 0.661000 5911077
0.003167 0.099433 0.665000 5255206
0.004447 0.042561 0.667000 12622486
0.004433 0.046233 0.665000 14067027
0.004407 0.049732 0.661000 12616500
0.004333 0.052619 0.650000 11435559
0.004320 0.056160 0.648000 12952931
0.004293 0.059493 0.644000 11637917
0.004253 0.062585 0.638000 9732481
0.004253 0.066230 0.638000 8675679
0.004267 0.070095 0.640000 8939869
0.004280 0.073983 0.642000 9136221
0.004313 0.078256 0.647000 8545119
0.004340 0.082460 0.651000 8215372
0.004353 0.086445 0.653000 9664875
0.004387 0.090867 0.658000 8544335
0.004407 0.095058 0.661000 5518658
0.004420 0.099134 0.663000 4665379
0.004447 0.103544 0.667000 4334083
0.005734 0.038866 0.669000 11571599
0.005717 0.042561 0.667000 7678296
0.005700 0.046233 0.665000 14136372
0.005657 0.049657 0.660000 11827268
0.005580 0.052700 0.651000 12681521
0.005546 0.056073 0.647000 13478739
0.005520 0.059493 0.644000 11371155
0.005469 0.062585 0.638000 9995163
0.005469 0.066230 0.638000 9007462
0.005486 0.070095 0.640000 9334876
0.005503 0.073983 0.642000 9202529
0.005546 0.078256 0.647000 9137246
0.005571 0.082333 0.650000 8609111
0.005597 0.086445 0.653000 9400179
0.005631 0.090729 0.657000 8542808
0.005640 0.094627 0.658000 6968158
0.005683 0.099134 0.663000 5846561
0.005717 0.103544 0.667000 3215876
0.007019 0.038924 0.670000 7816326
0.006988 0.042561 0.667000 2753443
0.006967 0.046233 0.665000 14130255
0.006914 0.049657 0.660000 11039053
0.006820 0.052700 0.651000 13932081
0.006778 0.056073 0.647000 14070630
0.006747 0.059493 0.644000 11051167
0.006684 0.062585 0.638000 10257264
0.006684 0.066230 0.638000 9267556
0.006694 0.069986 0.639000 9729628
0.006726 0.073983 0.642000 9202781
0.006768 0.078135 0.646000 9727322
0.006810 0.082333 0.650000 9004887
0.006830 0.086312 0.652000 9136744
0.006872 0.090590 0.656000 8479065
0.006893 0.094627 0.658000 8414554
0.006935 0.098985 0.662000 7034182
0.006988 0.103544 0.667000 2032399
0.008295 0.038924 0.670000 7799164
0.008258 0.042561 0.667000 8686318
0.008209 0.046094 0.663000 13936235
0.008122 0.049356 0.656000 11631958
0.008048 0.052619 0.650000 13934642
0.008010 0.056073 0.647000 14533752
0.007973 0.059493 0.644000 12169644
0.007899 0.062585 0.638000 9131845
0.007899 0.066230 0.638000 8937571
0.007911 0.069986 0.639000 9069403
0.007936 0.073868 0.641000 9071193
0.007998 0.078135 0.646000 9399126
0.008023 0.082080 0.648000 9071448
0.008072 0.086312 0.652000 9070685
0.008110 0.090452 0.655000 8675674
0.008147 0.094627 0.658000 8873302
0.008184 0.098835 0.661000 8549483
0.008258 0.103544 0.667000 4137498
0.009686 0.035514 0.678000 13418440
0.009586 0.038982 0.671000 7833780
0.009529 0.042561 0.667000 14679286
0.009471 0.046094 0.663000 13676164
0.009371 0.049356 0.656000 12224061
0.009286 0.052619 0.650000 13937956
0.009229 0.055987 0.646000 14995838
0.009171 0.059309 0.642000 13217180
0.009114 0.062585 0.638000 8065353
0.009114 0.066230 0.638000 8543836
0.009129 0.069986 0.639000 8410713
0.009157 0.073868 0.641000 8938327
0.009229 0.078135 0.646000 9070422
0.009257 0.082080 0.648000 9136217
0.009286 0.086048 0.650000 9071198
0.009357 0.090452 0.655000 8807258
0.009386 0.094483 0.657000 9266259
0.009443 0.098835 0.661000 9990496
0.009514 0.103389 0.666000 6244410
0.010977 0.031640 0.678000 13088665
0.010977 0.035514 0.678000 14075594
0.010880 0.039040 0.672000 12310508
0.010799 0.042561 0.667000 15266302
0.010718 0.046025 0.662000 14072478
0.010621 0.049356 0.656000 12221988
0.010524 0.052619 0.650000 14792726
0.010459 0.055987 0.646000 14796420
0.010394 0.059309 0.642000 11117196
0.010330 0.062585 0.638000 8140620
0.010330 0.066230 0.638000 8542805
0.010330 0.069876 0.638000 8345942
0.010362 0.073752 0.640000 8544084
0.010443 0.078014 0.645000 8740693
0.010475 0.081953 0.647000 8872795
0.010524 0.086048 0.650000 9071454
0.010572 0.090176 0.653000 9201497
0.010637 0.094483 0.657000 8937807
0.010686 0.098686 0.660000 9728597
0.010767 0.103233 0.665000 7559513
0.012269 0.031640 0.678000 14009010
0.012269 0.035514 0.678000 14798016
0.012142 0.038982 0.671000 16707571
0.012051 0.042497 0.666000 15920381
0.011979 0.046025 0.662000 14399909
0.011870 0.049356 0.656000 12219192
0.011762 0.052619 0.650000 15647023
0.011690 0.055987 0.646000 14531466
0.011617 0.059309 0.642000 9004671
0.011563 0.062683 0.639000 8216159
0.011545 0.066230 0.638000 8545114
0.011545 0.069876 0.638000 8280146
0.011581 0.073752 0.640000 8149328
0.011671 0.078014 0.645000 8412747
0.011708 0.081953 0.647000 8544344
0.011762 0.086048 0.650000 9137004
0.011816 0.090176 0.653000 9594712
0.011870 0.094339 0.656000 8674875
0.011907 0.098387 0.658000 9464638
0.011997 0.102923 0.663000 8868443
0.013580 0.031687 0.679000 13944012
0.013560 0.035514 0.678000 14071221
0.013420 0.038982 0.671000 16710649
0.013320 0.042497 0.666000 15788283
0.013220 0.045955 0.661000 14203564
0.013100 0.049281 0.655000 13473356
0.013000 0.052619 0.650000 15911239
0.012900 0.055900 0.645000 13281424
0.012840 0.059309 0.642000 8146546
0.012800 0.062781 0.640000 9006449
0.012760 0.066230 0.638000 8611679
0.012760 0.069876 0.638000 8149070
0.012780 0.073637 0.639000 7885645
0.012880 0.077893 0.644000 8083776
0.012940 0.081953 0.647000 7886678
0.012960 0.085783 0.648000 9072249
0.013040 0.090038 0.652000 8739926
0.013120 0.094339 0.656000 9134374
0.013160 0.098387 0.658000 9464102
0.013260 0.102923 0.663000 9003101
0.014851 0.031640 0.678000 13875133
0.014808 0.035410 0.676000 13336177
0.014698 0.038982 0.671000 16709603
0.014589 0.042497 0.666000 15590635
0.014457 0.045886 0.660000 13939112
0.014304 0.049130 0.653000 14726488
0.014194 0.052457 0.648000 16103766
0.014107 0.055813 0.644000 12099241
0.014041 0.059216 0.641000 7299433
0.014019 0.062781 0.640000 9798788
0.013975 0.066230 0.638000 8610136
0.013931 0.069657 0.636000 8017736
0.013975 0.073522 0.638000 7555893
0.014063 0.077651 0.642000 7756096
0.014150 0.081827 0.646000 7229009
0.014172 0.085650 0.647000 9007724
0.014260 0.089900 0.651000 7888722
0.014348 0.094195 0.655000 9593372
0.014391 0.098237 0.657000 9397781
0.014479 0.102612 0.661000 9069662
0.016095 0.031547 0.676000 11376815
0.016071 0.035357 0.675000 9914413
0.015952 0.038924 0.670000 16448462
0.015786 0.042306 0.663000 14535387
0.015667 0.045747 0.658000 12754340
0.015619 0.049356 0.656000 14728035
0.015405 0.052376 0.647000 14788197
0.015333 0.055813 0.644000 11971265
0.015262 0.059216 0.641000 7422560
0.015238 0.062781 0.640000 9798807
0.015190 0.066230 0.638000 8804945
0.015119 0.069548 0.635000 8215105
0.015143 0.073291 0.636000 6634782
0.015286 0.077651 0.642000 7360319
0.015357 0.081700 0.645000 6304589
0.015405 0.085650 0.647000 8808799
0.015500 0.089900 0.651000 8347726
0.015595 0.094195 0.655000 9396753
0.015643 0.098237 0.657000 9462532
0.015738 0.102612 0.661000 9071711
0.017383 0.031547 0.676000 8809850
0.017357 0.035357 0.675000 6488367
0.017229 0.038924 0.670000 16172973
0.017023 0.042242 0.662000 13546716
0.016920 0.045747 0.658000 11576237
0.016869 0.049356 0.656000 14661252
0.016663 0.052457 0.648000 13482133
0.016560 0.055813 0.644000 11846047
0.016509 0.059309 0.642000 7557991
0.016457 0.062781 0.640000 9734520
0.016406 0.066230 0.638000 9002561
0.016329 0.069548 0.635000 8478247
0.016354 0.073291 0.636000 5718816
0.016483 0.077530 0.641000 6967885
0.016586 0.081700 0.645000 5387835
0.016637 0.085650 0.647000 8611671
0.016740 0.089900 0.651000 8806478
0.016791 0.093908 0.653000 9266199
0.016894 0.098237 0.657000 9458963
0.016997 0.102612 0.661000 9073224
0.018670 0.031547 0.676000 8408133
0.018643 0.035357 0.675000 7025200
0.018422 0.038750 0.667000 13606797
0.018284 0.042242 0.662000 13680093
0.018173 0.045747 0.658000 12034486
0.018118 0.049356 0.656000 13739941
0.017870 0.052376 0.647000 14469574
0.017787 0.055813 0.644000 10841213
0.017731 0.059309 0.642000 8814190
0.017676 0.062781 0.640000 9599065
0.017566 0.066023 0.636000 9199922
0.017510 0.069438 0.634000 9266444
0.017538 0.073176 0.635000 7097378
0.017676 0.077410 0.640000 7493723
0.017787 0.081573 0.644000 6042922
0.017870 0.085650 0.647000 8345422
0.017980 0.089900 0.651000 8806222
0.018035 0.093908 0.653000 8936477
0.018118 0.098088 0.656000 8272417
0.018229 0.102457 0.660000 8410160
0.019958 0.031547 0.676000 7960698
0.019929 0.035357 0.675000 7559515
0.019692 0.038750 0.667000 10982790
0.019545 0.042242 0.662000 13880772
0.019427 0.045747 0.658000 12495546
0.019279 0.049130 0.653000 12760764
0.019131 0.052457 0.648000 15451844
0.019013 0.055813 0.644000 9897589
0.018954 0.059309 0.642000 10064277
0.018895 0.062781 0.640000 9466761
0.018777 0.066023 0.636000 9331512
0.018718 0.069438 0.634000 9987338
0.018748 0.073176 0.635000 8478230
0.018895 0.077410 0.640000 8022875
0.018954 0.081320 0.642000 6633785
0.019072 0.085518 0.646000 8079950
0.019190 0.089762 0.650000 8806995
0.019279 0.093908 0.653000 8673305
0.019368 0.098088 0.656000 7026970
0.019486 0.102457 0.660000 7683616
0.021246 0.031547 0.676000 10923952
0.021183 0.035305 0.674000 9076870
0.020963 0.038750 0.667000 10909823
0.020806 0.042242 0.662000 13546923
0.020680 0.045747 0.658000 13284798
0.020491 0.049055 0.652000 14012371
0.020366 0.052457 0.648000 12956611
0.020271 0.055900 0.645000 10443885
0.020177 0.059309 0.642000 11445949
0.020083 0.062683 0.639000 10917817
0.019989 0.066023 0.636000 8802366
0.019926 0.069438 0.634000 9526535
0.019957 0.073176 0.635000 9202698
0.020083 0.077289 0.639000 8546138
0.020177 0.081320 0.642000 7159369
0.020240 0.085253 0.644000 8279630
0.020366 0.089486 0.648000 9201496
0.020491 0.093764 0.652000 8343828
0.020617 0.098088 0.656000 6696467
0.020743 0.102457 0.660000 7553295
0.022533 0.031547 0.676000 13876408
0.022467 0.035305 0.674000 10653551
0.022233 0.038750 0.667000 10848891
0.022033 0.042178 0.661000 13275756
0.021933 0.045747 0.658000 14008256
0.021733 0.049055 0.652000 15265502
0.021567 0.052376 0.647000 10450094
0.021500 0.055900 0.645000 10983054
0.021367 0.059216 0.641000 12827078
0.021300 0.062683 0.639000 12435141
0.021167 0.065919 0.635000 8278345
0.021100 0.069329 0.633000 9131284
0.021133 0.073061 0.634000 9921804
0.021267 0.077168 0.638000 9071159
0.021400 0.081320 0.642000 7687491
0.021467 0.085253 0.644000 8479561
0.021567 0.089348 0.647000 9526602
0.021733 0.093764 0.652000 8016942
0.021833 0.097938 0.655000 6369826
0.022000 0.102457 0.660000 7488275
0.023821 0.031547 0.676000 13680833
0.023750 0.035305 0.674000 10258775
0.023469 0.038691 0.666000 10715000
0.023292 0.042178 0.661000 12553517
0.023151 0.045677 0.657000 14998210
0.022975 0.049055 0.652000 14671592
0.022834 0.052457 0.648000 10174873
0.022729 0.055900 0.645000 11902126
0.022588 0.059216 0.641000 13223119
0.022482 0.062585 0.638000 12827857
0.022376 0.065919 0.635000 8270165
0.022306 0.069329 0.633000 8537121
0.022341 0.073061 0.634000 9658383
0.022482 0.077168 0.638000 9069331
0.022588 0.081193 0.641000 8015934
0.022693 0.085253 0.644000 8540228
0.022799 0.089348 0.647000 9256764
0.022940 0.093620 0.651000 8081992
0.023010 0.097639 0.653000 6895666
0.023187 0.102147 0.658000 7752470
0.024960 0.035200 0.672000 9926485
0.024700 0.038633 0.665000 10586235
0.024551 0.042178 0.661000 11898224
0.024440 0.045747 0.658000 15980482
0.024254 0.049130 0.653000 14014420
0.024031 0.052376 0.647000 9926317
0.023957 0.055900 0.645000 12819872
0.023809 0.059216 0.641000 13549507
0.023697 0.062585 0.638000 13219522
0.023549 0.065815 0.634000 8278622
0.023511 0.069329 0.633000 8011811
0.023511 0.072946 0.633000 9328398
0.023623 0.076926 0.636000 9003027
0.023771 0.081067 0.640000 8280897
0.023846 0.084989 0.642000 8669001
0.023994 0.089210 0.646000 8933434
0.024143 0.093476 0.650000 8214853
0.024254 0.097639 0.653000 7357503
0.024403 0.101991 0.657000 8015410
0.026240 0.035200 0.672000 9204819
0.026006 0.038691 0.666000 10456702
0.025810 0.042178 0.661000 12034227
0.025615 0.045608 0.656000 14795970
0.025498 0.049130 0.653000 13482432
0.025264 0.052376 0.647000 11377857
0.025186 0.055900 0.645000 13019538
0.025030 0.059216 0.641000 13351608
0.024912 0.062585 0.638000 13349043
0.024756 0.065815 0.634000 8545639
0.024678 0.069219 0.632000 7420709
0.024717 0.072946 0.633000 8933902
0.024834 0.076926 0.636000 8411154
0.024990 0.081067 0.640000 8545603
0.025069 0.084989 0.642000 9131853
0.025225 0.089210 0.646000 9661497
0.025381 0.093476 0.650000 8476482
0.025459 0.097490 0.652000 7228492
0.025615 0.101836 0.656000 8609613
0.025693 0.105907 0.658000 8612184
0.027520 0.035200 0.672000 8545354
0.027274 0.038691 0.666000 10256230
0.027110 0.042242 0.662000 12162920
0.026865 0.045608 0.656000 13545645
0.026742 0.049130 0.653000 12955846
0.026496 0.052376 0.647000 12825033
0.026414 0.055900 0.645000 13215606
0.026250 0.059216 0.641000 13155261
0.026046 0.062389 0.636000 13482701
