# .PCD v.7 - Point Cloud Data file format
VERSION .7
FIELDS x y z rgb
SIZE 4 4 4 4
TYPE F F F I
COUNT 1 1 1 1
WIDTH 1321
HEIGHT 1
POINTS 1321
DATA ascii
0.057797 0.013428 0.613000 12160637
0.057420 0.016820 0.609000 11963262
0.057609 0.020367 0.611000 12291716
0.058646 0.024288 0.622000 12489865
0.058646 0.027842 0.622000 12621441
0.058363 0.031245 0.619000 12620936
0.058740 0.035007 0.623000 12752011
0.062620 -0.030380 0.651000 13347999
0.062235 -0.026496 0.647000 14264234
0.061658 -0.022588 0.641000 14600931
0.061081 -0.018748 0.635000 11696239
0.060696 -0.015024 0.631000 10709326
0.059927 -0.011273 0.623000 9590377
0.059446 -0.007651 0.618000 10585928
0.059061 -0.004093 0.614000 12370106
0.058580 -0.000580 0.609000 10902404
0.058195 0.002881 0.605000 13741458
0.058195 0.006338 0.605000 12160654
0.058099 0.009779 0.604000 11766912
0.059253 0.013493 0.616000 11898239
0.058580 0.016820 0.609000 11963008
0.059830 0.020733 0.622000 12291716
0.059830 0.024288 0.622000 12489092
0.060023 0.027931 0.624000 12751483
0.060215 0.031598 0.626000 12751751
0.060504 0.035344 0.629000 12883596
0.063370 -0.026455 0.646000 13279908
0.062879 -0.022588 0.641000 14272979
0.062290 -0.018748 0.635000 8343896
0.061898 -0.015024 0.631000 10981703
0.061113 -0.011273 0.623000 7435124
0.060623 -0.007651 0.618000 9934181
0.060230 -0.004093 0.614000 13542060
0.059936 -0.000582 0.611000 10899605
0.059642 0.002895 0.608000 14001808
0.059544 0.006359 0.607000 12225417
0.060427 0.009973 0.616000 11438719
0.060525 0.013515 0.617000 11635841
0.061310 0.017262 0.625000 11897730
0.061211 0.020800 0.624000 12293004
0.061211 0.024366 0.624000 12489603
0.061211 0.027931 0.624000 12949883
0.061898 0.031850 0.631000 12883846
0.064600 -0.026455 0.646000 12161183
0.064100 -0.022588 0.641000 13939907
0.063600 -0.018777 0.636000 9393986
0.063100 -0.015024 0.631000 11635008
0.062300 -0.011273 0.623000 9737599
0.061800 -0.007651 0.618000 10261377
0.061400 -0.004093 0.614000 11766943
0.061100 -0.000582 0.611000 11369382
0.061200 0.002914 0.612000 12949646
0.061200 0.006411 0.612000 11963267
0.061700 0.009990 0.617000 11635837
0.062200 0.013625 0.622000 11832450
0.062500 0.017262 0.625000 12028803
0.062500 0.020833 0.625000 12293268
0.062600 0.024444 0.626000 12424323
0.062800 0.028110 0.628000 12686714
0.063300 0.031951 0.633000 12819334
0.065729 -0.026414 0.645000 11047318
0.065321 -0.022588 0.641000 13602486
0.064811 -0.018777 0.636000 10383432
0.064098 -0.014976 0.629000 12225596
0.063487 -0.011273 0.623000 11967617
0.062977 -0.007651 0.618000 10586764
0.062671 -0.004100 0.615000 9994909
0.062468 -0.000584 0.613000 11842202
0.062468 0.002919 0.613000 11899016
0.062570 0.006432 0.614000 11765377
0.062977 0.010006 0.618000 11832446
0.063589 0.013669 0.624000 12029060
0.063792 0.017290 0.626000 12094593
0.063792 0.020867 0.626000 12293006
0.063894 0.024483 0.627000 12292228
0.063996 0.028110 0.628000 12422262
0.064404 0.031901 0.632000 12751489
0.066957 -0.026414 0.645000 11372429
0.066438 -0.022552 0.640000 13212840
0.066023 -0.018777 0.636000 10581838
0.065296 -0.014976 0.629000 11961399
0.064673 -0.011273 0.623000 11968132
0.064050 -0.007639 0.617000 10849942
0.063843 -0.004100 0.615000 11242651
0.063635 -0.000584 0.613000 12296333
0.063739 0.002924 0.614000 11765123
0.063739 0.006432 0.614000 11831679
0.065089 0.010151 0.627000 12029056
0.064881 0.013690 0.625000 12160389
0.065089 0.017317 0.627000 12028287
0.065089 0.020900 0.627000 12094855
0.065089 0.024483 0.627000 12094598
0.065711 0.028334 0.633000 12028018
0.065815 0.032002 0.634000 12484733
0.067657 -0.022552 0.640000 12756404
0.067234 -0.018777 0.636000 10715734
0.066494 -0.014976 0.629000 11632183
0.065966 -0.011291 0.624000 11967623
0.065331 -0.007651 0.618000 11046809
0.065014 -0.004100 0.615000 12425624
0.064803 -0.000584 0.613000 12752010
0.064909 0.002924 0.614000 11570050
0.066283 0.006569 0.627000 11897725
0.066177 0.010135 0.626000 12160127
0.066177 0.013712 0.626000 12291460
0.066389 0.017345 0.628000 11962758
0.066389 0.020933 0.628000 11962761
0.066494 0.024561 0.629000 11833479
0.067129 0.028424 0.635000 11635587
0.067023 0.032002 0.634000 12160644
0.068984 -0.022588 0.641000 12493503
0.068446 -0.018777 0.636000 11635550
0.067692 -0.014976 0.629000 11567415
0.067154 -0.011291 0.624000 11638922
0.066724 -0.007676 0.620000 11177627
0.066401 -0.004113 0.617000 12887446
0.066186 -0.000586 0.615000 12423814
0.066078 0.002924 0.614000 11568514
0.067477 0.006569 0.627000 11831418
0.067477 0.010151 0.627000 12421503
0.067477 0.013734 0.627000 12619394
0.067585 0.017345 0.628000 12552845
0.067585 0.020933 0.628000 12620938
0.068230 0.024756 0.634000 12622985
0.068338 0.028424 0.635000 12622483
0.070205 -0.022588 0.641000 12232386
0.069657 -0.018777 0.636000 12552802
0.068890 -0.014976 0.629000 11435092
0.068452 -0.011310 0.625000 11246230
0.067905 -0.007676 0.620000 11308192
0.067686 -0.004120 0.618000 13344150
0.068124 -0.000592 0.622000 12097681
0.068562 0.002981 0.626000 11571085
0.068781 0.006579 0.628000 11830925
0.068671 0.010151 0.627000 12621711
0.068781 0.013756 0.628000 12947605
0.069110 0.017428 0.631000 13081495
0.069219 0.021067 0.632000 13277839
0.069438 0.024756 0.634000 13344661
0.070095 0.028648 0.640000 13674896
0.071314 -0.022552 0.640000 12099780
0.070757 -0.018748 0.635000 12290663
0.069977 -0.014952 0.628000 12031088
0.069643 -0.011310 0.625000 11969698
0.069309 -0.007701 0.622000 11965860
0.068863 -0.004120 0.618000 13211798
0.069531 -0.000594 0.624000 13082524
0.069754 0.002981 0.626000 12889241
0.069866 0.006569 0.627000 13018527
0.069866 0.010151 0.627000 13151904
0.070089 0.013778 0.629000 13477544
0.070311 0.017428 0.631000 13282209
0.071314 0.021333 0.640000 13411476
0.071314 0.024990 0.640000 13148832
0.072647 -0.022588 0.641000 11969216
0.072080 -0.018777 0.636000 12030347
0.071287 -0.014976 0.629000 12629673
0.070833 -0.011310 0.625000 12626352
0.070720 -0.007726 0.624000 12623013
0.070493 -0.004147 0.622000 13081751
0.070947 -0.000596 0.626000 14068633
0.071173 0.002990 0.628000 14133904
0.071173 0.006579 0.628000 14200979
0.071060 0.010151 0.627000 13608080
0.072533 0.014019 0.640000 14002577
0.072647 0.017704 0.641000 13409417
0.072647 0.021367 0.641000 13542018
0.072533 0.024990 0.640000 12882053
0.073752 -0.022552 0.640000 12297403
0.073522 -0.018836 0.638000 12099248
0.072485 -0.014976 0.629000 13551330
0.072254 -0.011346 0.627000 12430013
0.072139 -0.007750 0.626000 12425382
0.072024 -0.004167 0.625000 12884376
0.072254 -0.000597 0.627000 13147798
0.072370 0.002990 0.628000 12621192
0.072370 0.006579 0.628000 12753798
0.072485 0.010184 0.629000 12354432
0.073752 0.014019 0.640000 12357754
0.073868 0.017704 0.641000 11894386
0.073868 0.021367 0.641000 12289903
0.073868 0.025030 0.641000 11428459
0.074971 -0.022552 0.640000 12626885
0.074503 -0.018777 0.636000 12101550
0.073917 -0.015024 0.631000 14537191
0.073566 -0.011364 0.628000 12167613
0.073566 -0.007775 0.628000 12163236
0.073331 -0.004173 0.626000 12622739
0.073566 -0.000598 0.628000 12160643
0.073683 0.002995 0.629000 11042680
0.073566 0.006579 0.628000 11308156
0.073683 0.010184 0.629000 11042425
0.075089 0.014041 0.641000 10648173
0.075206 0.017731 0.642000 10318193
0.075089 0.021367 0.641000 11041647
0.075089 0.025030 0.641000 9992049
0.076310 -0.022588 0.641000 12495310
0.075952 -0.018836 0.638000 12297389
0.075119 -0.015024 0.631000 14340331
0.074881 -0.011382 0.629000 12362942
0.074762 -0.007775 0.628000 12952225
0.074643 -0.004180 0.627000 12162958
0.074881 -0.000599 0.629000 11107695
0.075357 0.003014 0.633000 10579560
0.074762 0.006579 0.628000 10910833
0.076667 0.010427 0.644000 10450546
0.076429 0.014063 0.642000 9923680
0.076667 0.017787 0.644000 10380400
0.076310 0.021367 0.641000 10715246
0.077410 -0.022552 0.640000 12364239
0.077168 -0.018836 0.638000 12493740
0.076563 -0.015071 0.633000 14144461
0.076321 -0.011418 0.631000 12558007
0.076321 -0.007812 0.631000 13675169
0.076563 -0.004220 0.633000 11701635
0.076684 -0.000604 0.634000 10058355
0.076805 0.003024 0.635000 10123375
0.078256 0.006778 0.647000 10581623
0.078135 0.010459 0.646000 9860209
0.077530 0.014041 0.641000 9202024
0.078014 0.017814 0.645000 10382965
0.078629 -0.022552 0.640000 12166352
0.078137 -0.018777 0.636000 12690091
0.077891 -0.015095 0.634000 13216430
0.077646 -0.011436 0.632000 12884400
0.077646 -0.007825 0.632000 13346464
0.077891 -0.004227 0.634000 10910584
0.078014 -0.000605 0.635000 10254711
0.078014 0.003024 0.635000 10648950
0.079611 0.006789 0.648000 10516860
0.079611 0.010491 0.648000 9858928
0.080103 0.014282 0.652000 9661552
0.079243 0.017814 0.645000 10582907
0.079848 -0.022552 0.640000 12035274
0.079349 -0.018777 0.636000 12821955
0.079099 -0.015095 0.634000 12356277
0.079099 -0.011472 0.634000 13149102
0.079099 -0.007850 0.634000 13084562
0.079349 -0.004240 0.636000 10058101
0.079598 -0.000608 0.638000 10450547
0.080347 0.003067 0.644000 11107188
0.080721 0.006778 0.647000 10517106
0.081095 0.010524 0.650000 9858408
0.081470 0.014304 0.653000 10120045
0.081470 0.018035 0.653000 10715252
0.081067 -0.022552 0.640000 12494020
0.080560 -0.018777 0.636000 12891611
0.080433 -0.015119 0.635000 12425660
0.080433 -0.011490 0.635000 13346732
0.080433 -0.007862 0.635000 11963011
0.080560 -0.004240 0.636000 9927026
0.081067 -0.000610 0.640000 10253166
0.081700 0.003071 0.645000 10647922
0.082080 0.006789 0.648000 9990248
0.082587 0.010556 0.652000 9527905
0.082967 0.014348 0.655000 10186346
0.082967 0.018090 0.655000 10978925
0.082286 -0.022552 0.640000 12889025
0.082029 -0.018836 0.638000 12954312
0.081643 -0.015119 0.635000 12495535
0.081771 -0.011509 0.636000 13542555
0.081771 -0.007874 0.636000 10844038
0.081771 -0.004240 0.636000 9794178
0.082414 -0.000610 0.641000 10055049
0.083057 0.003076 0.646000 10124937
0.083314 0.006789 0.648000 9528453
0.083700 0.010540 0.651000 9204101
0.083957 0.014304 0.653000 10320268
0.084214 0.018090 0.655000 11244434
0.083505 -0.022552 0.640000 12889790
0.083244 -0.018836 0.638000 12289974
0.082983 -0.015143 0.636000 12755873
0.082983 -0.011509 0.636000 13408907
0.083244 -0.007899 0.638000 11633032
0.083244 -0.004253 0.638000 11236754
0.083635 -0.000610 0.641000 11636132
0.084288 0.003076 0.646000 11965601
0.084810 0.006810 0.650000 11833250
0.085070 0.010556 0.652000 11770794
0.085462 0.014348 0.655000 12361389
0.085462 0.018090 0.655000 12823479
0.084724 -0.022552 0.640000 12890554
0.084591 -0.018866 0.639000 11637684
0.084194 -0.015143 0.636000 13083309
0.084591 -0.011563 0.639000 13214625
0.084724 -0.007924 0.640000 12428197
0.084459 -0.004253 0.638000 12624039
0.084856 -0.000610 0.641000 13219503
0.086048 0.003095 0.650000 13741740
0.086180 0.006820 0.651000 14139054
0.086445 0.010572 0.653000 14267315
0.086974 0.014391 0.657000 14399150
0.085809 -0.018866 0.639000 12886707
0.085406 -0.015143 0.636000 13545145
0.085809 -0.011563 0.639000 13677240
0.085943 -0.007924 0.640000 13348801
0.085674 -0.004253 0.638000 13416124
0.086077 -0.000610 0.641000 13611449
0.087286 0.003095 0.650000 13809336
0.087420 0.006820 0.651000 14005690
0.087689 0.010572 0.653000 14071483
0.088226 0.014391 0.657000 14201262
0.087026 -0.018866 0.639000 14134707
0.086617 -0.015143 0.636000 14070711
0.087026 -0.011563 0.639000 14135221
0.088524 0.003095 0.650000 13873333
0.088660 0.006820 0.651000 13938617
0.088932 0.010572 0.653000 13808059
-0.044240 0.027440 0.588000 12885667
-0.044842 0.038030 0.596000 12161939
-0.045369 0.048814 0.603000 11174268
-0.042827 0.017242 0.584000 13412492
-0.042827 0.020579 0.584000 13475465
-0.043120 0.024080 0.588000 13346702
-0.043120 0.027440 0.588000 13016466
-0.043707 0.038030 0.596000 12359561
-0.043780 0.041506 0.597000 11899015
-0.044147 0.048733 0.602000 11108735
-0.044293 0.052347 0.604000 10517372
-0.041714 0.017242 0.584000 10911333
-0.041714 0.020579 0.584000 10582118
-0.042000 0.024080 0.588000 10977394
-0.041929 0.027393 0.587000 11308417
-0.042429 0.034509 0.594000 10717566
-0.042500 0.037967 0.595000 10912638
-0.042571 0.041436 0.596000 10982027
-0.042929 0.045218 0.601000 10912904
-0.043000 0.048733 0.602000 10716035
-0.043143 0.052347 0.604000 10518398
-0.043286 0.055983 0.606000 10255481
-0.040602 0.013905 0.584000 12560545
-0.040602 0.017242 0.584000 8414064
-0.040532 0.020544 0.583000 7620697
-0.040810 0.024039 0.587000 8607328
-0.040810 0.027393 0.587000 9597543
-0.040950 0.030852 0.589000 8999498
-0.041297 0.034509 0.594000 8603481
-0.041367 0.037967 0.595000 9392472
-0.041436 0.041436 0.596000 9984862
-0.041784 0.045218 0.601000 10320733
-0.041853 0.048733 0.602000 10317145
-0.041923 0.052260 0.603000 10453335
-0.042131 0.055983 0.606000 10252120
-0.039490 0.013905 0.584000 13418929
-0.039490 0.017242 0.584000 8677242
-0.039422 0.020544 0.583000 8015948
-0.039625 0.023998 0.586000 8607565
-0.039692 0.027393 0.587000 9003084
-0.039760 0.030800 0.588000 7289626
-0.040030 0.034392 0.592000 5374260
-0.040166 0.037903 0.594000 5577521
-0.040233 0.041367 0.595000 5704242
-0.040369 0.044917 0.597000 5847345
-0.040639 0.048652 0.601000 5977904
-0.040707 0.052173 0.602000 8281647
-0.040910 0.055890 0.605000 7554872
-0.038377 0.013905 0.584000 14269879
-0.038311 0.017212 0.583000 8936319
-0.038311 0.020544 0.583000 8345940
-0.038443 0.023957 0.585000 8675155
-0.038509 0.027347 0.586000 8348243
-0.038640 0.030800 0.588000 5591600
-0.038837 0.034334 0.591000 2101566
-0.038903 0.037775 0.592000 1774911
-0.039034 0.041297 0.594000 1447744
-0.039166 0.044842 0.596000 1446976
-0.039429 0.048571 0.600000 1579326
-0.039560 0.052173 0.602000 6180662
-0.039757 0.055890 0.605000 4863287
-0.037520 0.010640 0.588000 13810115
-0.037265 0.013905 0.584000 14007228
-0.037201 0.017212 0.583000 9268099
-0.037137 0.020509 0.582000 8347229
-0.037265 0.023916 0.584000 8609625
-0.037392 0.027347 0.586000 8414299
-0.037456 0.030748 0.587000 6443334
-0.037648 0.034276 0.590000 2498889
-0.037775 0.037775 0.592000 2500172
-0.037839 0.041228 0.593000 2303822
-0.037967 0.044767 0.595000 2302798
-0.038222 0.048490 0.599000 2497357
-0.038350 0.052087 0.601000 5783101
-0.038541 0.055798 0.604000 5453878
-0.036462 0.010658 0.589000 14140866
-0.036152 0.013905 0.584000 13746877
-0.036090 0.017212 0.583000 9598615
-0.035967 0.020473 0.581000 8280672
-0.036029 0.023834 0.582000 8478299
-0.036214 0.027300 0.585000 8479833
-0.036338 0.030748 0.587000 7362884
-0.036462 0.034218 0.589000 2893893
-0.036524 0.037648 0.590000 3288140
-0.036648 0.041158 0.592000 3156299
-0.036710 0.044616 0.593000 3222089
-0.037019 0.048410 0.598000 3417672
-0.037143 0.052000 0.600000 5453122
-0.037329 0.055706 0.603000 5980978
-0.035340 0.010658 0.589000 13810625
-0.035100 0.013929 0.585000 14338493
-0.034920 0.017183 0.582000 9995690
-0.034860 0.020473 0.581000 8279396
-0.034860 0.023793 0.581000 8478556
-0.035040 0.027253 0.584000 8611416
-0.035160 0.030695 0.586000 7756353
-0.035280 0.034160 0.588000 3153984
-0.035340 0.037584 0.589000 3222604
-0.035460 0.041089 0.591000 3156552
-0.035640 0.044691 0.594000 3156292
-0.035820 0.048329 0.597000 3221828
-0.035940 0.051913 0.599000 4993606
-0.036060 0.055521 0.601000 6046765
-0.034218 0.010658 0.589000 13544378
-0.033986 0.013929 0.585000 14927545
-0.033811 0.017183 0.582000 10326701
-0.033695 0.020438 0.580000 8280424
-0.033695 0.023752 0.580000 8412758
-0.033811 0.027160 0.582000 8676440
-0.033986 0.030643 0.585000 8084280
-0.034102 0.034102 0.587000 3420480
-0.034160 0.037520 0.588000 3222605
-0.034334 0.041089 0.591000 3091017
-0.034392 0.044541 0.592000 3090756
-0.034625 0.048248 0.596000 3024965
-0.034741 0.051827 0.598000 4597059
-0.034857 0.055429 0.600000 6112302
-0.033096 0.010658 0.589000 13148850
-0.032928 0.013952 0.586000 14598581
-0.032647 0.017153 0.581000 11048879
-0.032590 0.020438 0.580000 8346220
-0.032534 0.023711 0.579000 8281680
-0.032647 0.027113 0.581000 8676183
-0.032815 0.030590 0.584000 8281134
-0.032984 0.034102 0.587000 4468545
-0.033040 0.037520 0.588000 3025742
-0.033096 0.040950 0.589000 3091018
-0.033209 0.044466 0.591000 3090756
-0.033433 0.048167 0.595000 3025223
-0.033546 0.051740 0.597000 4139072
-0.033714 0.055429 0.600000 6637358
-0.032029 0.010676 0.590000 12750000
-0.031866 0.013976 0.587000 14205372
-0.031540 0.017153 0.581000 11774920
-0.031431 0.020403 0.579000 8350333
-0.031431 0.023711 0.579000 8086618
-0.031486 0.027067 0.580000 8675930
-0.031649 0.030538 0.583000 8478509
-0.031811 0.034044 0.586000 5520190
-0.031866 0.037456 0.587000 2763086
-0.031920 0.040880 0.588000 3091017
-0.032029 0.044390 0.590000 3090758
-0.032300 0.048167 0.595000 3025221
-0.032409 0.051740 0.597000 3680833
-0.032517 0.055336 0.599000 7161652
-0.030905 0.010676 0.590000 12290221
-0.030748 0.013976 0.587000 13941699
-0.030486 0.017183 0.582000 12697313
-0.030329 0.020403 0.579000 8680077
-0.030276 0.023670 0.578000 8546916
-0.030381 0.027067 0.580000 8938588
-0.030433 0.030433 0.581000 8478508
-0.030590 0.033928 0.584000 6046012
-0.030695 0.037392 0.586000 2893389
-0.030748 0.040810 0.587000 3091017
-0.030852 0.044315 0.589000 2959432
-0.031114 0.048086 0.594000 3025218
-0.031219 0.051653 0.596000 3286081
-0.031324 0.055244 0.598000 6768698
-0.029781 0.010676 0.590000 11831214
-0.029680 0.014000 0.588000 13614797
-0.029377 0.017183 0.582000 13621991
-0.029175 0.020368 0.578000 9009813
-0.029125 0.023630 0.577000 9006437
-0.029226 0.027020 0.579000 9136741
-0.029276 0.030381 0.580000 8479008
-0.029478 0.033928 0.584000 6506546
-0.029529 0.037329 0.585000 2958414
-0.029630 0.040810 0.587000 3090760
-0.029680 0.044240 0.588000 2828101
-0.029882 0.047924 0.592000 2959939
-0.030033 0.051567 0.595000 2893634
-0.030134 0.055151 0.597000 6372147
-0.030286 0.058857 0.600000 8939107
-0.028657 0.010676 0.590000 12361391
-0.028560 0.014000 0.588000 13547479
-0.028220 0.017153 0.581000 13618668
-0.028026 0.020332 0.577000 9470365
-0.027977 0.023589 0.576000 9137254
-0.028074 0.026973 0.578000 9466222
-0.028123 0.030329 0.579000 8741139
-0.028317 0.033870 0.583000 6900775
-0.028366 0.037265 0.584000 3221071
-0.028463 0.040741 0.586000 3091016
-0.028560 0.044240 0.588000 2893890
-0.028706 0.047843 0.591000 2894148
-0.028851 0.051480 0.594000 3024195
-0.028949 0.055059 0.596000 5453612
-0.029094 0.058759 0.599000 8610653
-0.027533 0.010676 0.590000 12952509
-0.027393 0.013976 0.587000 13483224
-0.027113 0.017153 0.581000 13684453
-0.026973 0.020368 0.578000 9865378
-0.026880 0.023589 0.576000 9267300
-0.026880 0.026880 0.576000 9793383
-0.027020 0.030329 0.579000 9002783
-0.027113 0.033753 0.581000 7295276
-0.027207 0.037201 0.583000 3483472
-0.027347 0.040741 0.586000 3025480
-0.027393 0.044165 0.587000 2894147
-0.027533 0.047762 0.590000 2763587
-0.027627 0.051307 0.592000 3155780
-0.027720 0.054874 0.594000 4468023
-0.027953 0.058759 0.599000 8282954
-0.026947 0.004013 0.602000 12624819
-0.026812 0.007416 0.599000 14072255
-0.026454 0.010694 0.591000 13482442
-0.026275 0.013976 0.587000 13416920
-0.026007 0.017153 0.581000 13288157
-0.025872 0.020368 0.578000 9605288
-0.025783 0.023589 0.576000 7954017
-0.025738 0.026833 0.575000 8809057
-0.025828 0.030224 0.577000 9003050
-0.025962 0.033695 0.580000 7818800
-0.026096 0.037201 0.583000 3812177
-0.026186 0.040671 0.585000 3090505
-0.026275 0.044165 0.587000 2959684
-0.026365 0.047681 0.589000 2894913
-0.026454 0.051220 0.591000 3090244
-0.026544 0.054782 0.593000 3939650
-0.026678 0.058465 0.596000 7886902
-0.025757 0.004007 0.601000 12494255
-0.025671 0.007416 0.599000 14136509
-0.025329 0.010694 0.591000 14007498
-0.025157 0.013976 0.587000 13351894
-0.024900 0.017153 0.581000 12892616
-0.024771 0.020368 0.578000 9334134
-0.024643 0.023548 0.575000 6637618
-0.024600 0.026787 0.574000 7822409
-0.024686 0.030171 0.576000 8938060
-0.024857 0.033695 0.580000 8279349
-0.024943 0.037137 0.582000 4139853
-0.025029 0.040602 0.584000 3090762
-0.025114 0.044090 0.586000 3025222
-0.025243 0.047681 0.589000 3025221
-0.025286 0.051133 0.590000 3025223
-0.025371 0.054690 0.592000 3351361
-0.025500 0.058367 0.595000 7491376
-0.024653 0.004013 0.602000 12230314
-0.024530 0.007416 0.599000 12954043
-0.024203 0.010694 0.591000 13810634
-0.023998 0.013952 0.586000 13547988
-0.023793 0.017153 0.581000 10980786
-0.023670 0.020368 0.578000 7946563
-0.023466 0.023466 0.573000 6303490
-0.023425 0.026693 0.572000 8211761
-0.023507 0.030067 0.574000 9005165
-0.023630 0.033521 0.577000 8542523
-0.023793 0.037073 0.581000 4600392
-0.023916 0.040602 0.584000 3418443
-0.023957 0.044014 0.585000 2893640
-0.024080 0.047600 0.588000 2892618
-0.024162 0.051133 0.590000 2697033
-0.024244 0.054690 0.592000 3022144
-0.024326 0.058269 0.594000 7095849
-0.023468 0.004007 0.601000 12033437
-0.023350 0.007404 0.598000 11770797
-0.023038 0.010676 0.590000 13613518
-0.022843 0.013929 0.585000 13744072
-0.022648 0.017124 0.580000 9070730
-0.022530 0.020332 0.577000 6578787
-0.022335 0.023425 0.572000 6043700
-0.022296 0.026647 0.571000 8608331
-0.022374 0.030014 0.573000 9071463
-0.022491 0.033463 0.576000 8741449
-0.022609 0.036946 0.579000 5061443
-0.022726 0.040463 0.582000 3679821
-0.022765 0.043864 0.583000 2762571
-0.022882 0.047438 0.586000 2697032
-0.022921 0.050873 0.587000 2434636
-0.022999 0.054412 0.589000 2694980
-0.023116 0.058072 0.592000 6701360
-0.023194 0.061663 0.594000 7228473
-0.022434 0.000575 0.604000 13275227
-0.022323 0.004007 0.601000 12428175
-0.022174 0.007391 0.597000 11762335
-0.021951 0.010694 0.591000 13943249
-0.021691 0.013905 0.584000 12693692
-0.021543 0.017124 0.580000 8939873
-0.021469 0.020368 0.578000 8946306
-0.021246 0.023425 0.572000 7626853
-0.021209 0.026647 0.571000 8480358
-0.021246 0.029962 0.572000 9005664
-0.021357 0.033405 0.575000 9006167
-0.021469 0.036882 0.578000 5455166
-0.021580 0.040393 0.581000 4204624
-0.021617 0.043789 0.582000 4536142
-0.021729 0.047357 0.585000 4603719
-0.021766 0.050787 0.586000 3812943
-0.021840 0.054320 0.588000 2891337
-0.021951 0.057974 0.591000 6042678
-0.022063 0.061663 0.594000 7293997
-0.021319 0.000576 0.605000 13143878
-0.021143 0.004000 0.600000 12823163
-0.021037 0.007391 0.597000 11772334
-0.020861 0.010712 0.592000 14274013
-0.020579 0.013905 0.584000 11574450
-0.020438 0.017124 0.580000 8810365
-0.020368 0.020368 0.578000 11244952
-0.020156 0.023425 0.572000 9204085
-0.020086 0.026600 0.570000 8282720
-0.020121 0.029910 0.571000 8940130
-0.020262 0.033405 0.575000 9268323
-0.020332 0.036818 0.577000 5850181
-0.020403 0.040254 0.579000 4667207
-0.020473 0.043713 0.581000 6307655
-0.020579 0.047276 0.584000 6440511
-0.020650 0.050787 0.586000 5192516
-0.020685 0.054228 0.587000 3025728
-0.020790 0.057876 0.590000 5385789
-0.020861 0.061455 0.592000 7293998
-0.020133 0.000575 0.604000 12286257
-0.020033 0.004007 0.601000 13151591
-0.019900 0.007391 0.597000 12104381
-0.019733 0.010712 0.592000 14141672
-0.019500 0.013929 0.585000 11174823
-0.019333 0.017124 0.580000 10259865
-0.019233 0.020332 0.577000 12036015
-0.019067 0.023425 0.572000 9073541
-0.019000 0.026600 0.570000 8018523
-0.019033 0.029910 0.571000 8282724
-0.019133 0.033347 0.574000 9400176
-0.019167 0.036690 0.575000 7099212
-0.019267 0.040185 0.578000 6707006
-0.019333 0.043638 0.580000 7624000
-0.019433 0.047195 0.583000 7689527
-0.019467 0.050613 0.584000 6966072
-0.019533 0.054135 0.586000 5721912
-0.019633 0.057778 0.589000 6305604
-0.019700 0.061351 0.591000 7753775
-0.019014 0.000576 0.605000 11370803
-0.018857 0.004000 0.600000 13482063
-0.018763 0.007391 0.597000 12362398
-0.018606 0.010712 0.592000 14076113
-0.018354 0.013905 0.584000 10785960
-0.018229 0.017124 0.580000 11706520
-0.018134 0.020332 0.577000 12821930
-0.017946 0.023384 0.571000 8940645
-0.017883 0.026553 0.569000 7754825
-0.017914 0.029857 0.570000 7691866
-0.017977 0.033230 0.572000 9530727
-0.018071 0.036690 0.575000 8346960
-0.018103 0.040046 0.576000 8673346
-0.018197 0.043563 0.579000 8937035
-0.018291 0.047114 0.582000 8934202
-0.018323 0.050527 0.583000 8670781
-0.018386 0.054043 0.585000 8344383
-0.018480 0.057680 0.588000 7225147
-0.018574 0.061351 0.591000 8212530
-0.017862 0.000576 0.605000 11764790
-0.017714 0.004000 0.600000 13020727
-0.017626 0.007391 0.597000 10517887
-0.017449 0.010694 0.591000 13810106
-0.017242 0.013905 0.584000 11639977
-0.017153 0.017153 0.581000 11180951
-0.017006 0.020297 0.576000 12232357
-0.016858 0.023384 0.571000 7622725
-0.016799 0.026553 0.569000 7623223
-0.016799 0.029805 0.569000 7822416
-0.016858 0.033172 0.571000 9202782
-0.016947 0.036627 0.574000 8346964
-0.016976 0.039976 0.575000 8476998
-0.017065 0.043488 0.578000 8608085
-0.017183 0.047114 0.582000 8671805
-0.017183 0.050440 0.582000 8474177
-0.017242 0.053950 0.584000 8346183
-0.017330 0.057582 0.587000 7819058
-0.017419 0.061248 0.590000 8148278
-0.016710 0.000576 0.605000 12093241
-0.016599 0.004007 0.601000 12563776
-0.016489 0.007391 0.597000 8614021
-0.016323 0.010694 0.591000 13617348
-0.016157 0.013929 0.585000 12431030
-0.016047 0.017153 0.581000 10656400
-0.015936 0.020332 0.577000 11636368
-0.015770 0.023384 0.571000 6360628
-0.015688 0.026507 0.568000 7427390
-0.015660 0.029700 0.567000 8019024
-0.015715 0.033056 0.569000 8809058
-0.015826 0.036563 0.573000 8279894
-0.015853 0.039907 0.574000 8212541
-0.015936 0.043412 0.577000 8344904
-0.016019 0.046952 0.580000 8343867
-0.016074 0.050440 0.582000 8277049
-0.016102 0.053858 0.583000 8278329
-0.016212 0.057582 0.587000 8476213
-0.016268 0.061144 0.589000 8016434
-0.015763 -0.002919 0.613000 11439002
-0.015557 0.000576 0.605000 12225084
-0.015454 0.004007 0.601000 12561480
-0.015351 0.007391 0.597000 9201035
-0.015197 0.010694 0.591000 13879502
-0.015017 0.013905 0.584000 12563907
-0.014914 0.017124 0.580000 10521224
-0.014837 0.020332 0.577000 10582651
-0.014657 0.023343 0.570000 4987426
-0.014580 0.026460 0.567000 7886404
-0.014580 0.029700 0.567000 7887183
-0.014606 0.032998 0.568000 8611175
-0.014683 0.036435 0.571000 8280152
-0.014760 0.039907 0.574000 8141363
-0.014811 0.043337 0.576000 8147514
-0.014889 0.046871 0.579000 8212538
-0.014940 0.050353 0.581000 7948337
-0.014991 0.053858 0.583000 7618859
-0.015069 0.057484 0.586000 7884600
-0.015146 0.061144 0.589000 8016687
-0.014595 -0.002919 0.613000 11640217
-0.014405 0.000576 0.605000 12289587
-0.014310 0.004007 0.601000 12632660
-0.014214 0.007391 0.597000 9733533
-0.014071 0.010694 0.591000 14206925
-0.013905 0.013905 0.584000 12627646
-0.013810 0.017124 0.580000 10388639
-0.013738 0.020332 0.577000 9536141
-0.013595 0.023384 0.571000 3610153
-0.013500 0.026460 0.567000 8280142
-0.013476 0.029648 0.566000 7755085
-0.013500 0.032940 0.567000 8348763
-0.013571 0.036371 0.570000 8344142
-0.013643 0.039837 0.573000 8081469
-0.013690 0.043262 0.575000 8015674
-0.013762 0.046790 0.578000 8081467
-0.013810 0.050267 0.580000 7685937
-0.013857 0.053766 0.582000 6965295
-0.013905 0.057288 0.584000 7360821
-0.014000 0.061040 0.588000 8016689
-0.013493 -0.006453 0.616000 10650530
-0.013450 -0.002924 0.614000 11636887
-0.013274 0.000577 0.606000 12551466
-0.013165 0.004007 0.601000 13680735
-0.013077 0.007391 0.597000 10985647
-0.012946 0.010694 0.591000 13745868
-0.012792 0.013905 0.584000 12426426
-0.012705 0.017124 0.580000 11444149
-0.012595 0.020262 0.575000 10135711
-0.012508 0.023384 0.571000 3676976
-0.012420 0.026460 0.567000 7888215
-0.012398 0.029648 0.566000 7230026
-0.012420 0.032940 0.567000 8284239
-0.012486 0.036371 0.570000 7159107
-0.012530 0.039768 0.572000 8411719
-0.012573 0.043187 0.574000 8542521
-0.012617 0.046629 0.576000 8213564
-0.012661 0.050093 0.578000 7817777
-0.012727 0.053673 0.581000 7623476
-0.012770 0.057190 0.583000 8017202
-0.012858 0.060936 0.587000 8149044
-0.012880 0.064400 0.588000 7360062
-0.012320 -0.006453 0.616000 8547747
-0.012280 -0.002924 0.614000 11704720
-0.012120 0.000577 0.606000 12816190
-0.012040 0.004013 0.602000 14729327
-0.011940 0.007391 0.597000 12230038
-0.011820 0.010694 0.591000 13350069
-0.011680 0.013905 0.584000 12235978
-0.011620 0.017153 0.581000 12499146
-0.011500 0.020262 0.575000 10654621
-0.011420 0.023384 0.571000 3743279
-0.011340 0.026460 0.567000 7426125
-0.011320 0.029648 0.566000 6769204
-0.011340 0.032940 0.567000 8144688
-0.011380 0.036308 0.569000 5972774
-0.011420 0.039698 0.571000 8672574
-0.011460 0.043111 0.573000 9068340
-0.011500 0.046548 0.575000 8345663
-0.011560 0.050093 0.578000 7949108
-0.011600 0.053581 0.580000 8279096
-0.011640 0.057091 0.582000 8673334
-0.011720 0.060832 0.586000 8214325
-0.011740 0.064290 0.587000 7098178
-0.011147 -0.006453 0.616000 5258404
-0.011092 -0.002919 0.613000 11374217
-0.010966 0.000577 0.606000 13143378
-0.010875 0.004007 0.601000 14137982
-0.010803 0.007391 0.597000 10583165
-0.010694 0.010694 0.591000 12556957
-0.010568 0.013905 0.584000 13220570
-0.010513 0.017153 0.581000 13156319
-0.010405 0.020262 0.575000 10460827
-0.010332 0.023384 0.571000 3349806
-0.010260 0.026460 0.567000 6903363
-0.010224 0.029595 0.565000 5777181
-0.010242 0.032882 0.566000 5835794
-0.010260 0.036180 0.567000 5053960
-0.010314 0.039629 0.570000 7489077
-0.010350 0.043036 0.572000 8608303
-0.010405 0.046548 0.575000 8609090
-0.010441 0.050007 0.577000 8080438
-0.010477 0.053489 0.579000 8475965
-0.010513 0.056993 0.581000 8871225
-0.010568 0.060625 0.584000 8148278
-0.010622 0.064290 0.587000 7229254
-0.009973 -0.006453 0.616000 1984425
-0.009941 -0.002924 0.614000 11048579
-0.009828 0.000578 0.607000 13474909
-0.009747 0.004013 0.602000 13546112
-0.009650 0.007379 0.596000 8877435
-0.009585 0.010712 0.592000 11768735
-0.009455 0.013905 0.584000 14205657
-0.009390 0.017124 0.580000 13748701
-0.009310 0.020262 0.575000 10259092
-0.009245 0.023384 0.571000 2957883
-0.009164 0.026413 0.566000 6306872
-0.009148 0.029595 0.565000 4728653
-0.009164 0.032882 0.566000 3484484
-0.009180 0.036180 0.567000 4132389
-0.009212 0.039559 0.569000 6242874
-0.009245 0.042961 0.571000 8083004
-0.009293 0.046467 0.574000 8869699
-0.009326 0.049920 0.576000 8212018
-0.009358 0.053396 0.578000 8672822
-0.009390 0.056895 0.580000 9134134
-0.009423 0.060417 0.582000 8013627
-0.009488 0.064181 0.586000 7360065
-0.008814 -0.006464 0.617000 2502319
-0.008771 -0.002924 0.614000 10126460
-0.008671 0.000578 0.607000 13409639
-0.008586 0.004007 0.601000 12229249
-0.008514 0.007379 0.596000 9397625
-0.008457 0.010712 0.592000 12032672
-0.008329 0.013881 0.583000 14139097
-0.008300 0.017153 0.581000 13287387
-0.008214 0.020262 0.575000 10064013
-0.008157 0.023384 0.571000 3549768
-0.008086 0.026413 0.566000 5120813
-0.008071 0.029595 0.565000 7497596
-0.008071 0.032824 0.565000 6775671
-0.008086 0.036116 0.566000 5321025
-0.008114 0.039490 0.568000 6177856
-0.008157 0.042961 0.571000 6437192
-0.008186 0.046386 0.573000 7159620
-0.008229 0.049920 0.576000 7491118
-0.008257 0.053396 0.578000 7753776
-0.008271 0.056797 0.579000 7096883
-0.008314 0.060417 0.582000 5514559
-0.008357 0.064071 0.585000 7228988
-0.007639 -0.006464 0.617000 3030695
-0.007614 -0.002929 0.615000 9207689
-0.007515 0.000578 0.607000 13280899
-0.007466 0.004020 0.603000 10983838
-0.007379 0.007379 0.596000 9860737
-0.007342 0.010730 0.593000 12298421
-0.007230 0.013905 0.584000 14009820
-0.007181 0.017124 0.580000 12827082
-0.007119 0.020262 0.575000 9796729
-0.007070 0.023384 0.571000 4144208
-0.007008 0.026413 0.566000 3941683
-0.006983 0.029543 0.564000 10191222
-0.006983 0.032766 0.564000 10056820
-0.006995 0.036052 0.565000 6509907
-0.007020 0.039420 0.567000 6110257
-0.007057 0.042886 0.570000 4729407
-0.007082 0.046305 0.572000 5384773
-0.007119 0.049833 0.575000 6835504
-0.007144 0.053304 0.577000 6766653
-0.007169 0.056797 0.579000 5060147
-0.007193 0.060313 0.581000 2957887
-0.007230 0.063962 0.584000 7098426
-0.006464 -0.006464 0.617000 3030688
-0.006443 -0.002929 0.615000 8347029
-0.006359 0.000578 0.607000 13548960
-0.006317 0.004020 0.603000 12168123
-0.006233 0.007367 0.595000 9728394
-0.006202 0.010712 0.592000 13022921
-0.006118 0.013905 0.584000 14338015
-0.006076 0.017124 0.580000 12627640
-0.006024 0.020262 0.575000 9267814
-0.005982 0.023384 0.571000 6182231
-0.005919 0.026367 0.565000 2294841
-0.005898 0.029490 0.563000 9598320
-0.005898 0.032708 0.563000 9598321
-0.005919 0.036052 0.565000 7099236
-0.005930 0.039350 0.566000 6507043
-0.005971 0.042886 0.570000 4929077
-0.005992 0.046305 0.572000 4069702
-0.006013 0.049747 0.574000 4465970
-0.006034 0.053211 0.576000 4461898
-0.006055 0.056699 0.578000 3940658
-0.006076 0.060210 0.580000 3217214
-0.006097 0.063743 0.582000 6702391
-0.005297 -0.006474 0.618000 3028130
-0.005280 -0.002933 0.616000 7562416
-0.005194 0.000577 0.606000 13741216
-0.005169 0.004020 0.603000 13350046
-0.005100 0.007367 0.595000 9539741
-0.005074 0.010712 0.592000 13749190
-0.005006 0.013905 0.584000 14600409
-0.004963 0.017094 0.579000 12431294
-0.004929 0.020262 0.575000 8676718
-0.004886 0.023343 0.570000 8156994
-0.004843 0.026367 0.565000 596286
-0.004826 0.029490 0.563000 9073257
-0.004817 0.032650 0.562000 9072749
-0.004826 0.035925 0.563000 7756898
-0.004843 0.039281 0.565000 6903366
-0.004869 0.042735 0.568000 5194546
-0.004894 0.046224 0.571000 2695241
-0.004911 0.049660 0.573000 2103869
-0.004929 0.053119 0.575000 2104392
-0.004946 0.056601 0.577000 2824762
-0.004963 0.060106 0.579000 3481150
-0.004980 0.063633 0.581000 6307895
-0.004120 -0.006474 0.618000 3163301
-0.004107 -0.002933 0.616000 9932746
-0.004040 0.000577 0.606000 12683169
-0.004020 0.004020 0.603000 12620929
-0.003967 0.007367 0.595000 11579567
-0.003947 0.010712 0.592000 13482434
-0.003893 0.013905 0.584000 14338259
-0.003867 0.017124 0.580000 12693955
-0.003833 0.020262 0.575000 8277622
-0.003793 0.023302 0.569000 8746797
-0.003767 0.026367 0.565000 4005698
-0.003753 0.029490 0.563000 8743265
-0.003740 0.032591 0.561000 9203305
-0.003747 0.035861 0.562000 8350047
-0.003767 0.039281 0.565000 8288362
-0.003787 0.042735 0.568000 5389871
-0.003800 0.046143 0.570000 3090508
-0.003807 0.049487 0.571000 2434120
-0.003827 0.053027 0.574000 2762567
-0.003847 0.056601 0.577000 2958146
-0.003860 0.060106 0.579000 2892350
-0.003867 0.063524 0.580000 5714999
-0.003887 0.067184 0.583000 7820342
-0.002976 -0.010119 0.625000 5841828
-0.002948 -0.006485 0.619000 3234730
-0.002933 -0.002933 0.616000 12305588
-0.002886 0.000577 0.606000 11635876
-0.002871 0.004020 0.603000 11963027
-0.002833 0.007367 0.595000 13608617
-0.002819 0.010712 0.592000 13218757
-0.002776 0.013881 0.583000 14008781
-0.002762 0.017124 0.580000 13022410
-0.002738 0.020262 0.575000 7890811
-0.002705 0.023261 0.568000 9339716
-0.002690 0.026367 0.565000 7364458
-0.002681 0.029490 0.563000 8483440
-0.002667 0.032533 0.560000 9268332
-0.002671 0.035797 0.561000 9006437
-0.002686 0.039211 0.564000 9598058
-0.002695 0.042585 0.566000 5587263
-0.002710 0.046062 0.569000 3417422
-0.002714 0.049400 0.570000 2697027
-0.002724 0.052842 0.572000 3351873
-0.002743 0.056503 0.576000 3155519
-0.002752 0.060002 0.578000 2303290
-0.002757 0.063414 0.579000 5122881
-0.002776 0.067184 0.583000 7229239
-0.001780 -0.010087 0.623000 4536224
-0.001766 -0.006474 0.618000 7898032
-0.001760 -0.002933 0.616000 12557725
-0.001731 0.000577 0.606000 13410727
-0.001723 0.004020 0.603000 13479332
-0.001703 0.007379 0.596000 13278115
-0.001691 0.010712 0.592000 13218760
-0.001669 0.013905 0.584000 14007496
-0.001660 0.017153 0.581000 13220816
-0.001643 0.020262 0.575000 7889536
-0.001623 0.023261 0.568000 8745306
-0.001611 0.026320 0.564000 10001297
-0.001606 0.029438 0.562000 9206911
-0.001600 0.032533 0.560000 9268591
-0.001600 0.035733 0.560000 9071722
-0.001609 0.039142 0.563000 9335147
-0.001617 0.042585 0.566000 6704719
-0.001626 0.046062 0.569000 3351120
-0.001626 0.049313 0.569000 3090494
-0.001631 0.052750 0.571000 3284795
-0.001640 0.056307 0.574000 3024443
-0.001646 0.059794 0.576000 2564406
-0.001651 0.063305 0.578000 4597067
-0.001660 0.066953 0.581000 6835255
-0.000593 -0.010087 0.623000 3227551
-0.000590 -0.006485 0.619000 12555438
-0.000587 -0.002933 0.616000 12879254
-0.000576 0.000576 0.605000 15121325
-0.000573 0.004013 0.602000 14991781
-0.000569 0.007391 0.597000 12886690
-0.000563 0.010694 0.591000 13285071
-0.000557 0.013929 0.585000 14005394
-0.000553 0.017153 0.581000 13484749
-0.000548 0.020262 0.575000 7896466
-0.000541 0.023261 0.568000 8218969
-0.000537 0.026320 0.564000 12623244
-0.000535 0.029438 0.562000 9995653
-0.000533 0.032533 0.560000 9269102
-0.000532 0.035670 0.559000 9137000
-0.000535 0.039072 0.562000 9073001
-0.000538 0.042510 0.565000 7755602
-0.000541 0.045981 0.568000 3293518
-0.000542 0.049313 0.569000 3423303
-0.000543 0.052657 0.570000 3228234
-0.000547 0.056307 0.574000 2960705
-0.000548 0.059690 0.575000 2765379
-0.000550 0.063195 0.577000 4136781
-0.000551 0.066723 0.579000 6376765
0.000593 -0.010087 0.623000 5264286
0.000590 -0.006485 0.619000 12820141
0.000586 -0.002929 0.615000 13937807
0.000577 0.000577 0.606000 15121588
0.000573 0.004013 0.602000 14397606
0.000569 0.007391 0.597000 13477282
0.000563 0.010694 0.591000 13483221
0.000556 0.013905 0.584000 14331996
0.000553 0.017153 0.581000 14140873
0.000548 0.020262 0.575000 9212835
0.000541 0.023261 0.568000 7626071
0.000538 0.026367 0.565000 12561543
0.000536 0.029490 0.563000 9797514
0.000532 0.032475 0.559000 9203565
0.000532 0.035670 0.559000 9334630
0.000534 0.039003 0.561000 9335656
0.000537 0.042434 0.564000 8545620
0.000540 0.045900 0.567000 6646859
0.000541 0.049227 0.568000 6580304
0.000543 0.052657 0.570000 6585178
0.000546 0.056209 0.573000 6380359
0.000548 0.059690 0.575000 6187344
0.000550 0.063195 0.577000 6706254
0.000551 0.066723 0.579000 7822403
0.001780 -0.010087 0.623000 7363255
0.001769 -0.006485 0.619000 13019811
0.001757 -0.002929 0.615000 14992786
0.001731 0.000577 0.606000 15055281
0.001720 0.004013 0.602000 13801378
0.001706 0.007391 0.597000 14068633
0.001689 0.010694 0.591000 13683143
0.001669 0.013905 0.584000 14661198
0.001660 0.017153 0.581000 14731453
0.001643 0.020262 0.575000 10525605
0.001623 0.023261 0.568000 7099719
0.001614 0.026367 0.565000 12493976
0.001606 0.029438 0.562000 9666192
0.001597 0.032475 0.559000 9070950
0.001597 0.035670 0.559000 9532003
0.001600 0.038933 0.560000 9530975
0.001609 0.042359 0.563000 9397839
0.001617 0.045819 0.566000 9986891
0.001620 0.049140 0.567000 9727560
0.001623 0.052472 0.568000 9856587
0.001631 0.056012 0.571000 9792577
0.001643 0.059690 0.575000 9593923
0.001649 0.063195 0.577000 9267523
0.001651 0.066608 0.578000 9264444
0.002967 -0.010087 0.623000 9602768
0.002948 -0.006485 0.619000 13678233
0.002924 -0.002924 0.614000 14524309
0.002890 0.000578 0.607000 15055279
0.002867 0.004013 0.602000 12815773
0.002843 0.007391 0.597000 14530449
0.002814 0.010694 0.591000 13481400
0.002781 0.013905 0.584000 14989632
0.002771 0.017183 0.582000 15191473
0.002738 0.020262 0.575000 10527399
0.002710 0.023302 0.569000 7494199
0.002690 0.026367 0.565000 13285801
0.002671 0.029386 0.561000 10192533
0.002662 0.032475 0.559000 8740448
0.002662 0.035670 0.559000 9268319
0.002662 0.038864 0.559000 9333078
0.002671 0.042209 0.561000 9068617
0.002690 0.045738 0.565000 8341323
0.002700 0.049140 0.567000 8081215
0.002700 0.052380 0.567000 7879996
0.002710 0.055816 0.569000 8015418
0.002733 0.059587 0.574000 8145974
0.002738 0.062976 0.575000 7950135
0.002752 0.066608 0.578000 8606261
0.004227 -0.017510 0.634000 4989088
0.004220 -0.013866 0.633000 2900645
0.004153 -0.010087 0.623000 11845814
0.004127 -0.006485 0.619000 14329247
0.004087 -0.002919 0.613000 14056086
0.004040 0.000577 0.606000 14989231
0.004007 0.004007 0.601000 11832489
0.003980 0.007391 0.597000 14986121
0.003940 0.010694 0.591000 13348782
0.003893 0.013905 0.584000 15247671
0.003880 0.017183 0.582000 15650205
0.003840 0.020297 0.576000 10520223
0.003793 0.023302 0.569000 7885635
0.003760 0.026320 0.564000 14007472
0.003740 0.029386 0.561000 10653608
0.003720 0.032417 0.558000 8348511
0.003713 0.035542 0.557000 9004342
0.003720 0.038794 0.558000 9069363
0.003727 0.042058 0.559000 8741188
0.003753 0.045576 0.563000 6701379
0.003760 0.048880 0.564000 6439992
0.003767 0.052195 0.565000 5847349
0.003793 0.055816 0.569000 6307382
0.003820 0.059483 0.573000 6702640
0.003827 0.062867 0.574000 6570028
0.003840 0.066377 0.576000 7949107
0.005434 -0.017510 0.634000 4079012
0.005426 -0.013866 0.633000 5120684
0.005331 -0.010070 0.622000 12955036
0.005297 -0.006474 0.618000 14261926
0.005263 -0.002924 0.614000 14061207
0.005194 0.000577 0.606000 13936815
0.005160 0.004013 0.602000 12094644
0.005117 0.007391 0.597000 14987904
0.005066 0.010694 0.591000 12556963
0.005014 0.013929 0.585000 14259247
0.004980 0.017153 0.581000 15256712
0.004929 0.020262 0.575000 7952536
0.004869 0.023261 0.568000 7100495
0.004826 0.026273 0.563000 13744823
0.004791 0.029281 0.559000 11443643
0.004757 0.032243 0.555000 8543069
0.004757 0.035414 0.555000 8871436
0.004774 0.038725 0.557000 9068049
0.004783 0.041983 0.558000 8806975
0.004826 0.045576 0.563000 6371899
0.004826 0.048793 0.563000 6571568
0.004843 0.052195 0.565000 5977902
0.004860 0.055620 0.567000 6307121
0.004886 0.059171 0.570000 6636843
0.004903 0.062648 0.572000 6373408
0.004929 0.066262 0.575000 7290416
0.004946 0.069790 0.577000 8019004
0.006652 -0.017538 0.635000 3166368
0.006621 -0.013844 0.632000 7367853
0.006527 -0.010087 0.623000 14064031
0.006474 -0.006474 0.618000 14192551
0.006422 -0.002919 0.613000 14060709
0.006338 0.000576 0.605000 12820128
0.006296 0.004007 0.601000 12360101
0.006233 0.007367 0.595000 14987672
0.006181 0.010676 0.590000 11770782
0.006118 0.013905 0.584000 13273657
0.006076 0.017124 0.580000 14928508
0.006024 0.020262 0.575000 5331616
0.005961 0.023302 0.569000 6311214
0.005898 0.026273 0.563000 13417397
0.005877 0.029386 0.561000 12164552
0.005814 0.032243 0.555000 8745317
0.005814 0.035414 0.555000 8738836
0.005835 0.038725 0.557000 9066266
0.005846 0.041983 0.558000 8938297
0.005888 0.045495 0.562000 6046771
0.005898 0.048793 0.563000 6637871
0.005919 0.052195 0.565000 6109479
0.005930 0.055522 0.566000 6306603
0.005961 0.059068 0.569000 6570795
0.005992 0.062648 0.572000 6175782
0.006013 0.066147 0.574000 6635311
0.006045 0.069790 0.577000 8414264
0.007924 -0.021333 0.640000 11379628
0.007850 -0.017510 0.634000 3098524
0.007825 -0.013844 0.632000 10131885
0.007701 -0.010070 0.622000 14002849
0.007639 -0.006464 0.617000 14120871
0.007590 -0.002919 0.613000 14200499
0.007490 0.000576 0.605000 12153489
0.007441 0.004007 0.601000 12751510
0.007379 0.007379 0.596000 14861489
0.007305 0.010676 0.590000 11371928
0.007230 0.013905 0.584000 11761986
0.007181 0.017124 0.580000 14137456
0.007107 0.020227 0.574000 8808105
0.007032 0.023261 0.568000 6831884
0.006983 0.026320 0.564000 14075059
0.006933 0.029333 0.560000 12562132
0.006871 0.032243 0.555000 9075821
0.006871 0.035414 0.555000 7816731
0.006884 0.038655 0.556000 7947298
0.006896 0.041908 0.557000 8937266
0.006958 0.045495 0.562000 6502443
0.006958 0.048707 0.562000 6768942
0.006983 0.052103 0.564000 6110241
0.007008 0.055522 0.566000 6175781
0.007032 0.058964 0.568000 6636330
0.007057 0.062429 0.570000 6373163
0.007107 0.066147 0.574000 6831919
0.007131 0.069669 0.576000 8346675
0.009143 -0.021333 0.640000 12492712
0.009057 -0.017510 0.634000 3032220
0.009014 -0.013822 0.631000 12816814
0.008857 -0.010038 0.620000 14007967
0.008800 -0.006453 0.616000 13994918
0.008757 -0.002919 0.613000 14403499
0.008643 0.000576 0.605000 11504528
0.008571 0.004000 0.600000 13207453
0.008514 0.007379 0.596000 14662829
0.008443 0.010694 0.591000 11046289
0.008357 0.013929 0.585000 10251071
0.008300 0.017153 0.581000 13353595
0.008214 0.020262 0.575000 12233423
0.008114 0.023261 0.568000 7351606
0.008043 0.026273 0.563000 14667461
0.008014 0.029386 0.561000 12958942
0.007929 0.032243 0.555000 9405058
0.007929 0.035414 0.555000 6962202
0.007929 0.038586 0.555000 6832150
0.007943 0.041832 0.556000 8936756
0.008000 0.045333 0.560000 6965811
0.008029 0.048707 0.562000 6965562
0.008043 0.052010 0.563000 6110250
0.008071 0.055424 0.565000 6044703
0.008100 0.058860 0.567000 6701615
0.008129 0.062319 0.569000 6570278
0.008171 0.065916 0.572000 6962729
0.008200 0.069427 0.574000 8346170
0.010362 -0.021333 0.640000 12626339
0.010265 -0.017510 0.634000 5261724
0.010216 -0.013822 0.631000 13278127
0.010038 -0.010038 0.620000 13802909
0.009973 -0.006453 0.616000 14262182
0.009925 -0.002919 0.613000 13807779
0.009779 0.000575 0.604000 11763600
0.009714 0.004000 0.600000 13936803
0.009650 0.007379 0.596000 14597290
0.009569 0.010694 0.591000 11307401
0.009471 0.013929 0.585000 10644028
0.009407 0.017153 0.581000 13875590
0.009293 0.020227 0.574000 14480117
0.009196 0.023261 0.568000 9664351
0.009115 0.026273 0.563000 14801112
0.009083 0.029386 0.561000 13288679
0.008986 0.032243 0.555000 10524823
0.008953 0.035287 0.553000 6830360
0.008986 0.038586 0.555000 6372362
0.008986 0.041757 0.555000 8408118
0.009050 0.045252 0.559000 7424571
0.009083 0.048620 0.561000 6900037
0.009115 0.052010 0.563000 6110259
0.009148 0.055424 0.565000 6042648
0.009180 0.058860 0.567000 6635060
0.009212 0.062319 0.569000 6504225
0.009245 0.065801 0.571000 6764323
0.009293 0.069427 0.574000 8279616
0.011671 -0.025186 0.645000 13477518
0.011599 -0.021367 0.641000 12755601
0.011490 -0.017538 0.635000 7487142
0.011418 -0.013822 0.631000 13740467
0.011255 -0.010070 0.622000 13602476
0.011147 -0.006453 0.616000 14461865
0.011092 -0.002919 0.613000 13283754
0.010930 0.000575 0.604000 11963024
0.010857 0.004000 0.600000 14730662
0.010767 0.007367 0.595000 14528427
0.010694 0.010694 0.591000 11637918
0.010568 0.013905 0.584000 10975046
0.010513 0.017153 0.581000 14469768
0.010405 0.020262 0.575000 16642808
0.010260 0.023220 0.567000 12027041
0.010188 0.026273 0.563000 14930389
0.010151 0.029386 0.561000 13623528
0.010025 0.032185 0.554000 11571368
0.009989 0.035223 0.552000 6630675
0.010007 0.038447 0.553000 5848840
0.010043 0.041757 0.555000 7945757
0.010115 0.045252 0.559000 7886659
0.010151 0.048620 0.561000 6833989
0.010170 0.051918 0.562000 6046524
0.010224 0.055424 0.565000 6040886
0.010260 0.058860 0.567000 6505520
0.010296 0.062319 0.569000 6438704
0.010314 0.065686 0.570000 6505000
0.010369 0.069306 0.573000 8278586
0.012900 -0.025186 0.645000 13084047
0.012820 -0.021367 0.641000 12886911
0.012680 -0.017510 0.634000 9071792
0.012620 -0.013822 0.631000 13806775
0.012400 -0.010038 0.620000 13865146
0.012340 -0.006464 0.617000 14730925
0.012280 -0.002924 0.614000 12293553
0.012080 0.000575 0.604000 12159376
0.012020 0.004007 0.601000 14991017
0.011920 0.007379 0.596000 14197933
0.011840 0.010712 0.592000 12363698
0.011680 0.013905 0.584000 11105105
0.011620 0.017153 0.581000 13940874
0.011480 0.020227 0.574000 16182523
0.011340 0.023220 0.567000 12692194
0.011260 0.026273 0.563000 14207954
0.011220 0.029386 0.561000 14014696
0.011060 0.032127 0.553000 11573946
0.011040 0.035223 0.552000 7093518
0.011040 0.038377 0.552000 6569989
0.011100 0.041757 0.555000 7949059
0.011160 0.045171 0.558000 8676171
0.011220 0.048620 0.561000 8346437
0.011240 0.051918 0.562000 7823174
0.011300 0.055424 0.565000 7820115
0.011320 0.058756 0.566000 7954476
0.011340 0.062100 0.567000 7886398
0.011400 0.065686 0.570000 7888174
0.011460 0.069306 0.573000 8805172
0.014129 -0.025186 0.645000 12755604
0.014063 -0.021400 0.642000 12952708
0.013910 -0.017538 0.635000 10647993
0.013778 -0.013778 0.629000 13874613
0.013581 -0.010038 0.620000 14192313
0.013493 -0.006453 0.616000 14923178
0.013450 -0.002924 0.614000 11306904
0.013252 0.000576 0.605000 12360092
0.013165 0.004007 0.601000 15186604
0.013033 0.007367 0.595000 13871274
0.012946 0.010694 0.591000 13152955
0.012792 0.013905 0.584000 11241347
0.012705 0.017124 0.580000 13417360
0.012573 0.020227 0.574000 15722738
0.012420 0.023220 0.567000 13350120
0.012332 0.026273 0.563000 13482946
0.012267 0.029333 0.560000 14344935
0.012135 0.032185 0.554000 11577282
0.012091 0.035223 0.552000 7490916
0.012113 0.038447 0.553000 7226412
0.012157 0.041757 0.555000 7948843
