# .PCD v.7 - Point Cloud Data file format
VERSION .7
FIELDS x y z rgb
SIZE 4 4 4 4
TYPE F F F I
COUNT 1 1 1 1
WIDTH 1316
HEIGHT 1
POINTS 1316
DATA ascii
-0.010700 0.092224 0.535000 4147316
-0.010720 0.095459 0.536000 4343668
-0.010820 0.099441 0.541000 3817335
-0.010840 0.102722 0.542000 9335395
-0.010940 0.106795 0.547000 11236965
-0.010960 0.110122 0.548000 10777960
-0.011000 0.113667 0.550000 11962481
-0.011080 0.117659 0.554000 4994912
-0.011120 0.121261 0.556000 3292018
-0.010875 0.028047 0.601000 13618387
-0.010839 0.031376 0.599000 5147112
-0.010676 0.034276 0.590000 5737447
-0.010658 0.037584 0.589000 4936112
-0.010586 0.040671 0.585000 8026515
-0.010441 0.043412 0.577000 12430281
-0.010369 0.046386 0.573000 14135223
-0.010278 0.049227 0.568000 14068373
-0.010224 0.052195 0.565000 13947317
-0.010188 0.055228 0.563000 12822458
-0.010115 0.058030 0.559000 12760257
-0.010043 0.060786 0.555000 14143726
-0.009934 0.063266 0.549000 13738617
-0.009916 0.066282 0.548000 11830604
-0.009826 0.068780 0.543000 11436118
-0.009790 0.071618 0.541000 11768406
-0.009699 0.074019 0.536000 13087147
-0.009663 0.076794 0.534000 13813714
-0.009627 0.079547 0.532000 15328475
-0.009609 0.082431 0.531000 4596088
-0.009609 0.085466 0.531000 4146553
-0.009645 0.088833 0.533000 4147064
-0.009681 0.092224 0.535000 4277622
-0.009735 0.095815 0.538000 4343926
-0.009790 0.099441 0.541000 3684980
-0.009808 0.102722 0.542000 10122854
-0.009898 0.106795 0.547000 11042155
-0.009916 0.110122 0.548000 10384742
-0.009952 0.113667 0.550000 11503465
-0.010025 0.117659 0.554000 4931163
-0.010061 0.121261 0.556000 3484277
-0.009730 0.028047 0.601000 13286611
-0.009698 0.031376 0.599000 5016555
-0.009569 0.034334 0.591000 5803752
-0.009536 0.037584 0.589000 4095435
-0.009488 0.040741 0.586000 1794733
-0.009326 0.043337 0.576000 11637409
-0.009277 0.046386 0.573000 14854045
-0.009196 0.049227 0.568000 14474138
-0.009148 0.052195 0.565000 14524824
-0.009115 0.055228 0.563000 11834232
-0.009050 0.058030 0.559000 12630474
-0.008986 0.060786 0.555000 14873846
-0.008889 0.063266 0.549000 14725758
-0.008856 0.066161 0.547000 12228691
-0.008791 0.068780 0.543000 11699536
-0.008759 0.071618 0.541000 12161844
-0.008678 0.074019 0.536000 12563883
-0.008646 0.076794 0.534000 13682373
-0.008613 0.079547 0.532000 15324628
-0.008597 0.082431 0.531000 3670648
-0.008613 0.085627 0.532000 4146810
-0.008646 0.089000 0.534000 4147064
-0.008678 0.092396 0.536000 4409207
-0.008727 0.095993 0.539000 4409464
-0.008775 0.099625 0.542000 3555446
-0.008791 0.102911 0.543000 10846569
-0.008856 0.106795 0.547000 10777445
-0.008872 0.110122 0.548000 9925989
-0.008905 0.113667 0.550000 11041382
-0.008970 0.117659 0.554000 4862818
-0.009018 0.121479 0.557000 3685490
-0.008557 0.031376 0.599000 5212653
-0.008429 0.034276 0.590000 5869801
-0.008400 0.037520 0.588000 4884966
-0.008371 0.040741 0.586000 3501512
-0.008243 0.043412 0.577000 6897528
-0.008186 0.046386 0.573000 8282756
-0.008114 0.049227 0.568000 8943262
-0.008071 0.052195 0.565000 9903739
-0.008043 0.055228 0.563000 11437877
-0.007986 0.058030 0.559000 13547731
-0.007929 0.060786 0.555000 15067646
-0.007843 0.063266 0.549000 14398850
-0.007814 0.066161 0.547000 13412185
-0.007757 0.068780 0.543000 11766091
-0.007729 0.071618 0.541000 10187538
-0.007657 0.074019 0.536000 12892331
-0.007629 0.076794 0.534000 13417400
-0.007600 0.079547 0.532000 14079693
-0.007586 0.082431 0.531000 3549304
-0.007600 0.085627 0.532000 4212603
-0.007629 0.089000 0.534000 4212600
-0.007657 0.092396 0.536000 4474745
-0.007714 0.096171 0.540000 4475001
-0.007743 0.099625 0.542000 4076920
-0.007757 0.102911 0.543000 11107436
-0.007814 0.106795 0.547000 10710624
-0.007843 0.110323 0.549000 10253667
-0.007871 0.113873 0.551000 10975844
-0.007929 0.117871 0.555000 4405097
-0.007957 0.121479 0.557000 4729711
-0.007416 0.031376 0.599000 5408483
-0.007305 0.034276 0.590000 5934569
-0.007268 0.037456 0.587000 5672938
-0.007243 0.040671 0.585000 5210071
-0.007144 0.043412 0.577000 2253740
-0.007119 0.046548 0.575000 1656992
-0.007045 0.049313 0.569000 3414448
-0.006995 0.052195 0.565000 5261951
-0.006970 0.055228 0.563000 11049515
-0.006909 0.057926 0.558000 14473695
-0.006871 0.060786 0.555000 15330555
-0.006797 0.063266 0.549000 14002828
-0.006760 0.066040 0.546000 14660962
-0.006723 0.068780 0.543000 11834710
-0.006710 0.071750 0.542000 8279891
-0.006636 0.074019 0.536000 13216915
-0.006599 0.076650 0.533000 13088450
-0.006587 0.079547 0.532000 12823239
-0.006587 0.082587 0.532000 3419769
-0.006587 0.085627 0.532000 4212601
-0.006624 0.089167 0.535000 4343673
-0.006636 0.092396 0.536000 4474746
-0.006698 0.096350 0.541000 4540536
-0.006710 0.099625 0.542000 4607346
-0.006723 0.102911 0.543000 11303275
-0.006772 0.106795 0.547000 10580065
-0.006797 0.110323 0.549000 10646625
-0.006822 0.113873 0.551000 10908771
-0.006871 0.117871 0.555000 3882093
-0.006150 0.037456 0.587000 5541357
-0.006118 0.040602 0.584000 5476070
-0.006055 0.043488 0.578000 3899615
-0.006013 0.046467 0.574000 3370941
-0.005971 0.049400 0.570000 6712769
-0.005919 0.052195 0.565000 8621443
-0.005898 0.055228 0.563000 11637281
-0.005835 0.057822 0.557000 15594220
-0.005814 0.060786 0.555000 15395831
-0.005762 0.063381 0.550000 11305622
-0.005730 0.066161 0.547000 14729323
-0.005689 0.068780 0.543000 11898978
-0.005678 0.071750 0.542000 8942996
-0.005626 0.074157 0.537000 12495228
-0.005594 0.076794 0.534000 13220299
-0.005573 0.079547 0.532000 11182274
-0.005573 0.082587 0.532000 3356025
-0.005573 0.085627 0.532000 4212856
-0.005605 0.089167 0.535000 4278393
-0.005615 0.092396 0.536000 4474747
-0.005668 0.096350 0.541000 4343671
-0.005678 0.099625 0.542000 5525613
-0.005699 0.103101 0.544000 11501418
-0.005730 0.106795 0.547000 10381666
-0.005751 0.110323 0.549000 10515294
-0.005783 0.114080 0.552000 9598563
-0.005825 0.118084 0.556000 3619697
-0.005031 0.037456 0.587000 5474797
-0.005006 0.040602 0.584000 5738217
-0.004971 0.043638 0.580000 5607396
-0.004929 0.046548 0.575000 5078995
-0.004886 0.049400 0.570000 10075841
-0.004851 0.052288 0.566000 11972008
-0.004826 0.055228 0.563000 12225879
-0.004774 0.057822 0.557000 16709876
-0.004757 0.060786 0.555000 15464443
-0.004714 0.063381 0.550000 8619936
-0.004689 0.066161 0.547000 14794598
-0.004663 0.068907 0.544000 11968882
-0.004646 0.071750 0.542000 9675684
-0.004594 0.074019 0.536000 11701881
-0.004577 0.076794 0.534000 13352148
-0.004560 0.079547 0.532000 9535926
-0.004560 0.082587 0.532000 3358846
-0.004560 0.085627 0.532000 4212857
-0.004594 0.089333 0.536000 4212857
-0.004603 0.092569 0.537000 4474488
-0.004646 0.096528 0.542000 4212600
-0.004646 0.099625 0.542000 6444394
-0.004663 0.103101 0.544000 11698804
-0.004697 0.106990 0.548000 10123110
-0.004714 0.110524 0.550000 10449757
-0.004740 0.114287 0.553000 8215653
-0.004766 0.118084 0.556000 3359859
-0.003887 0.040532 0.583000 5476332
-0.003867 0.043638 0.580000 5672680
-0.003833 0.046548 0.575000 4949737
-0.003807 0.049487 0.571000 11124161
-0.003773 0.052288 0.566000 13094093
-0.003747 0.055130 0.562000 13020044
-0.003713 0.057822 0.557000 16710396
-0.003700 0.060786 0.555000 15462654
-0.003667 0.063381 0.550000 9138090
-0.003640 0.066040 0.546000 12554336
-0.003627 0.068907 0.544000 12165762
-0.003613 0.071750 0.542000 10725555
-0.003573 0.074019 0.536000 8480631
-0.003567 0.076938 0.535000 13682396
-0.003547 0.079547 0.532000 8223147
-0.003547 0.082587 0.532000 3489923
-0.003560 0.085949 0.534000 4278138
-0.003573 0.089333 0.536000 4278136
-0.003580 0.092569 0.537000 4473974
-0.003613 0.096528 0.542000 4146553
-0.003613 0.099625 0.542000 7230054
-0.003633 0.103290 0.545000 11437693
-0.003653 0.106990 0.548000 10386793
-0.003667 0.110524 0.550000 10581339
-0.003693 0.114493 0.554000 6835048
-0.003707 0.118084 0.556000 3423605
-0.002776 0.040532 0.583000 5147371
-0.002757 0.043563 0.579000 5738219
-0.002743 0.046629 0.576000 4753384
-0.002724 0.049573 0.572000 12179120
-0.002695 0.052288 0.566000 14140882
-0.002671 0.055031 0.561000 13808806
-0.002652 0.057822 0.557000 16710909
-0.002643 0.060786 0.555000 15464956
-0.002624 0.063496 0.551000 9605042
-0.002600 0.066040 0.546000 10315890
-0.002590 0.068907 0.544000 12298648
-0.002581 0.071750 0.542000 11713973
-0.002557 0.074157 0.537000 5204860
-0.002548 0.076938 0.535000 13948118
-0.002538 0.079696 0.533000 6840998
-0.002533 0.082587 0.532000 3623296
-0.002548 0.086110 0.535000 4278138
-0.002552 0.089333 0.536000 4343161
-0.002562 0.092741 0.538000 4474488
-0.002581 0.096528 0.542000 4147062
-0.002581 0.099625 0.542000 8019049
-0.002595 0.103290 0.545000 11111554
-0.002610 0.106990 0.548000 10582891
-0.002619 0.110524 0.550000 10711916
-0.002643 0.114700 0.555000 5392486
-0.002648 0.118084 0.556000 3556719
-0.001663 0.040463 0.582000 6457835
-0.001654 0.043563 0.579000 5213422
-0.001643 0.046548 0.575000 4424424
-0.001631 0.049487 0.571000 12568479
-0.001620 0.052380 0.567000 13682391
-0.001606 0.055130 0.562000 13943488
-0.001591 0.057822 0.557000 16711422
-0.001586 0.060786 0.555000 15066361
-0.001574 0.063496 0.551000 10787259
-0.001563 0.066161 0.547000 10717316
-0.001551 0.068780 0.543000 12365486
-0.001549 0.071750 0.542000 12039862
-0.001537 0.074295 0.538000 4024450
-0.001529 0.076938 0.535000 13617360
-0.001523 0.079696 0.533000 4540578
-0.001529 0.083052 0.535000 3884413
-0.001529 0.086110 0.535000 4278138
-0.001531 0.089333 0.536000 4343161
-0.001537 0.092741 0.538000 4540281
-0.001549 0.096528 0.542000 4080755
-0.001551 0.099809 0.543000 8478828
-0.001560 0.103480 0.546000 11374982
-0.001569 0.107186 0.549000 10713452
-0.001580 0.111127 0.553000 10979452
-0.001586 0.114700 0.555000 4533348
-0.001589 0.118084 0.556000 4013672
-0.000554 0.040463 0.582000 7776222
-0.000552 0.043638 0.580000 4687600
-0.000548 0.046548 0.575000 4031722
-0.000544 0.049487 0.571000 12902046
-0.000540 0.052380 0.567000 13219791
-0.000535 0.055130 0.562000 14138301
-0.000530 0.057822 0.557000 16711421
-0.000529 0.060786 0.555000 14735583
-0.000525 0.063496 0.551000 11969722
-0.000521 0.066161 0.547000 11113370
-0.000517 0.068780 0.543000 12365234
-0.000516 0.071750 0.542000 12433589
-0.000511 0.074157 0.537000 2780317
-0.000510 0.077082 0.536000 13292748
-0.000509 0.079846 0.534000 2246812
-0.000510 0.083052 0.535000 4212863
-0.000510 0.086270 0.536000 4212347
-0.000511 0.089500 0.537000 4343156
-0.000513 0.092913 0.539000 4606074
-0.000516 0.096528 0.542000 4016247
-0.000517 0.099809 0.543000 8937837
-0.000521 0.103670 0.547000 11637364
-0.000524 0.107381 0.550000 10780518
-0.000528 0.111328 0.554000 11309683
-0.000529 0.114700 0.555000 3684971
-0.000530 0.118296 0.557000 4537193
0.000550 0.043488 0.578000 7051761
0.000547 0.046467 0.574000 2784237
0.000544 0.049487 0.571000 13225628
0.000540 0.052380 0.567000 12428488
0.000535 0.055130 0.562000 13351097
0.000531 0.057926 0.558000 16252667
0.000530 0.060895 0.556000 13614788
0.000526 0.063611 0.552000 12298682
0.000521 0.066161 0.547000 11377840
0.000517 0.068780 0.543000 12497078
0.000516 0.071750 0.542000 12498100
0.000511 0.074157 0.537000 6448568
0.000510 0.077082 0.536000 12829639
0.000509 0.079846 0.534000 1317015
0.000510 0.083052 0.535000 3752320
0.000510 0.086270 0.536000 3949692
0.000512 0.089667 0.538000 4080495
0.000514 0.093086 0.540000 4278906
0.000516 0.096528 0.542000 4211835
0.000519 0.100176 0.545000 9069422
0.000522 0.103859 0.548000 11372386
0.000524 0.107381 0.550000 11240801
0.000528 0.111328 0.554000 10059114
0.000529 0.114700 0.555000 3948658
0.000530 0.118296 0.557000 5193577
0.001651 0.043488 0.578000 9418204
0.001640 0.046467 0.574000 1542122
0.001631 0.049487 0.571000 13555618
0.001620 0.052380 0.567000 11644102
0.001609 0.055228 0.563000 12560297
0.001594 0.057926 0.558000 15783644
0.001589 0.060895 0.556000 12491167
0.001571 0.063381 0.550000 12562630
0.001563 0.066161 0.547000 11576232
0.001554 0.068907 0.544000 12628408
0.001546 0.071618 0.541000 12630721
0.001534 0.074157 0.537000 10066629
0.001531 0.077082 0.536000 12376020
0.001526 0.079846 0.534000 342164
0.001531 0.083208 0.536000 3291007
0.001531 0.086270 0.536000 3688058
0.001537 0.089667 0.538000 3817331
0.001543 0.093086 0.540000 3885178
0.001549 0.096528 0.542000 4408700
0.001560 0.100360 0.546000 9134448
0.001566 0.103859 0.548000 11176031
0.001574 0.107576 0.551000 11635309
0.001586 0.111529 0.555000 8812114
0.001586 0.114700 0.555000 4210294
0.001594 0.118509 0.558000 5780327
0.002733 0.046467 0.574000 6063591
0.002719 0.049487 0.571000 13880999
0.002705 0.052472 0.568000 11712196
0.002681 0.055228 0.563000 12096921
0.002662 0.058030 0.559000 14070974
0.002648 0.060895 0.556000 12164217
0.002619 0.063381 0.550000 12695506
0.002605 0.066161 0.547000 11708064
0.002586 0.068780 0.543000 12825530
0.002571 0.071486 0.540000 12761805
0.002557 0.074157 0.537000 11776723
0.002552 0.077082 0.536000 12765153
0.002548 0.079995 0.535000 4934034
0.002552 0.083208 0.536000 5920382
0.002552 0.086270 0.536000 5724537
0.002557 0.089500 0.537000 5459319
0.002576 0.093258 0.541000 5195642
0.002586 0.096706 0.543000 4736124
0.002610 0.100728 0.548000 9329265
0.002610 0.103859 0.548000 11173724
0.002624 0.107576 0.551000 11965817
0.002643 0.111529 0.555000 7493434
0.002648 0.114907 0.556000 4211066
0.002657 0.118509 0.558000 6048868
0.003827 0.046467 0.574000 10531543
0.003807 0.049487 0.571000 14206128
0.003780 0.052380 0.567000 11774659
0.003753 0.055228 0.563000 11700395
0.003720 0.057926 0.558000 12299718
0.003707 0.060895 0.556000 11903885
0.003680 0.063611 0.552000 12827075
0.003653 0.066282 0.548000 11839653
0.003620 0.068780 0.543000 12956352
0.003607 0.071618 0.541000 12963544
0.003580 0.074157 0.537000 13484248
0.003573 0.077082 0.536000 13094099
0.003567 0.079995 0.535000 9533314
0.003573 0.083208 0.536000 8548722
0.003573 0.086270 0.536000 7694187
0.003593 0.089833 0.539000 7102314
0.003607 0.093258 0.541000 6511466
0.003620 0.096706 0.543000 5131111
0.003653 0.100728 0.548000 9463907
0.003660 0.104049 0.549000 11173733
0.003673 0.107576 0.551000 12290417
0.003700 0.111529 0.555000 6179406
0.003700 0.114700 0.555000 4210543
0.003720 0.118509 0.558000 6375800
0.004886 0.049400 0.570000 14535609
0.004843 0.052195 0.565000 11444931
0.004826 0.055228 0.563000 11968956
0.004791 0.058030 0.559000 12827342
0.004766 0.060895 0.556000 12234144
0.004731 0.063611 0.552000 11777971
0.004697 0.066282 0.548000 11772329
0.004654 0.068780 0.543000 13154757
0.004620 0.071353 0.539000 13421794
0.004594 0.074019 0.536000 13552094
0.004586 0.076938 0.535000 12564420
0.004577 0.079846 0.534000 9928305
0.004586 0.083052 0.535000 9469541
0.004594 0.086270 0.536000 8812894
0.004611 0.089667 0.538000 8351324
0.004629 0.093086 0.540000 8024153
0.004654 0.096706 0.543000 7299665
0.004689 0.100544 0.547000 9465174
0.004706 0.104049 0.549000 10976366
0.004731 0.107771 0.552000 11238250
0.004757 0.111529 0.555000 7625057
0.004766 0.114907 0.556000 6902629
0.004791 0.118721 0.559000 8481931
0.005971 0.049400 0.570000 14794940
0.005919 0.052195 0.565000 11119815
0.005877 0.055031 0.561000 12299186
0.005846 0.057926 0.558000 13349306
0.005814 0.060786 0.555000 12633755
0.005751 0.063266 0.549000 10651794
0.005741 0.066282 0.548000 11772548
0.005699 0.068907 0.544000 13288655
0.005647 0.071353 0.539000 13954030
0.005615 0.074019 0.536000 13552092
0.005605 0.076938 0.535000 12104378
0.005594 0.079846 0.534000 10324871
0.005615 0.083208 0.536000 10324867
0.005615 0.086270 0.536000 9927510
0.005636 0.089667 0.538000 9531474
0.005668 0.093258 0.541000 9466198
0.005699 0.096884 0.544000 9462371
0.005730 0.100544 0.547000 9467012
0.005751 0.104049 0.549000 10713200
0.005783 0.107771 0.552000 10122866
0.005804 0.111328 0.554000 9071726
0.005825 0.114907 0.556000 9530746
0.005856 0.118721 0.559000 10655108
0.006946 0.055031 0.561000 11506087
0.006896 0.057822 0.557000 12824743
0.006871 0.060786 0.555000 12106133
0.006797 0.063266 0.549000 7883121
0.006785 0.066282 0.548000 11439454
0.006735 0.068907 0.544000 13881050
0.006686 0.071486 0.540000 14477049
0.006636 0.074019 0.536000 13681883
0.006624 0.076938 0.535000 11706800
0.006611 0.079846 0.534000 10524316
0.006636 0.083208 0.536000 10719136
0.006649 0.086431 0.537000 10716495
0.006673 0.089833 0.539000 10518344
0.006698 0.093258 0.541000 10715475
0.006748 0.097062 0.545000 10847605
0.006785 0.100728 0.548000 10914483
0.006810 0.104238 0.550000 11044721
0.006834 0.107771 0.552000 9992315
0.006871 0.111529 0.555000 9467770
0.006896 0.115113 0.557000 10255247
0.006933 0.118933 0.560000 10980988
0.008014 0.055031 0.561000 10654904
0.007943 0.057718 0.556000 12295076
0.007914 0.060676 0.554000 11515553
0.007843 0.063266 0.549000 5066575
0.007829 0.066282 0.548000 11108955
0.007771 0.068907 0.544000 14407129
0.007729 0.071618 0.541000 15003127
0.007657 0.074019 0.536000 13748446
0.007643 0.076938 0.535000 11309987
0.007643 0.079995 0.535000 10652821
0.007657 0.083208 0.536000 11113372
0.007671 0.086431 0.537000 11437129
0.007714 0.090000 0.540000 11502906
0.007743 0.093430 0.542000 11962683
0.007800 0.097240 0.546000 12235905
0.007829 0.100728 0.548000 12298930
0.007871 0.104428 0.551000 11442054
0.007900 0.107967 0.553000 9794417
0.007929 0.111529 0.555000 9930126
0.007971 0.115320 0.558000 10984088
0.008000 0.118933 0.560000 11308690
0.009002 0.057718 0.556000 11698594
0.008970 0.060676 0.554000 10918317
0.008905 0.063381 0.550000 6180652
0.008872 0.066282 0.548000 10978647
0.008808 0.068907 0.544000 14602456
0.008775 0.071750 0.542000 14802932
0.008694 0.074157 0.537000 14207970
0.008662 0.076938 0.535000 11111830
0.008662 0.079995 0.535000 10322573
0.008678 0.083208 0.536000 11309975
0.008710 0.086592 0.538000 11569988
0.008743 0.090000 0.540000 11701292
0.008791 0.093603 0.543000 11894820
0.008840 0.097240 0.546000 12232333
0.008872 0.100728 0.548000 12167858
0.008921 0.104428 0.551000 10259866
0.008953 0.107967 0.553000 7687527
0.008986 0.111529 0.555000 10525857
0.009034 0.115320 0.558000 10924450
0.009067 0.118933 0.560000 11837351
0.010007 0.060567 0.553000 10334908
0.009952 0.063381 0.550000 7230777
0.009916 0.066282 0.548000 10910551
0.009844 0.068907 0.544000 14735323
0.009808 0.071750 0.542000 14670314
0.009717 0.074157 0.537000 14603240
0.009681 0.076938 0.535000 10980765
0.009681 0.079995 0.535000 9995666
0.009699 0.083208 0.536000 11573153
0.009735 0.086592 0.538000 11702620
0.009790 0.090167 0.541000 11964487
0.009826 0.093603 0.543000 11833678
0.009880 0.097240 0.546000 12230040
0.009952 0.101095 0.550000 12035242
0.009989 0.104617 0.552000 9074328
0.010025 0.108162 0.554000 5587026
0.010079 0.111930 0.557000 11189165
0.010115 0.115527 0.559000 10784654
0.011060 0.060567 0.553000 11184843
0.010960 0.063150 0.548000 7230791
0.010940 0.066161 0.547000 10648918
0.010860 0.068780 0.543000 14737375
0.010820 0.071618 0.541000 14340319
0.010740 0.074157 0.537000 14934255
0.010700 0.076938 0.535000 11112356
0.010700 0.079995 0.535000 10324886
0.010740 0.083363 0.537000 11377067
0.010760 0.086592 0.538000 11571060
0.010820 0.090167 0.541000 11965793
0.010880 0.093775 0.544000 12164728
0.010960 0.097596 0.548000 12033698
0.011020 0.101279 0.551000 11836579
0.011040 0.104617 0.552000 9334934
0.011100 0.108357 0.555000 6372413
0.011160 0.112131 0.558000 10724793
0.011180 0.115527 0.559000 9654138
0.012004 0.063150 0.548000 7232108
0.011960 0.066040 0.546000 10383952
0.011894 0.068780 0.543000 14669784
0.011850 0.071618 0.541000 14009303
0.011785 0.074295 0.538000 15195113
0.011719 0.076938 0.535000 11240349
0.011741 0.080145 0.536000 10652822
0.011785 0.083518 0.538000 11245471
0.011807 0.086753 0.539000 11375756
0.011872 0.090333 0.542000 11904402
0.011916 0.093775 0.544000 12426639
0.012004 0.097596 0.548000 11837097
0.012070 0.101279 0.551000 11573920
0.012091 0.104617 0.552000 9541781
0.012157 0.108357 0.555000 7163979
0.012223 0.112131 0.558000 10327697
0.012267 0.115733 0.560000 8545911
0.013048 0.063150 0.548000 9661586
0.012976 0.065919 0.545000 10581577
0.012905 0.068653 0.542000 14471633
0.012881 0.071618 0.541000 13482958
0.012786 0.074157 0.537000 14999780
0.012738 0.076938 0.535000 10782357
0.012762 0.080145 0.536000 10849173
0.012810 0.083518 0.538000 11047314
0.012857 0.086914 0.540000 11704229
0.012905 0.090333 0.542000 12036035
0.012952 0.093775 0.544000 12099749
0.013048 0.097596 0.548000 11706031
0.013119 0.101279 0.551000 11243165
0.013167 0.104807 0.553000 9669779
0.013214 0.108357 0.555000 7824474
0.013310 0.112332 0.559000 9796713
0.013357 0.115940 0.561000 9006196
0.014091 0.063150 0.548000 12101039
0.014014 0.065919 0.545000 10783369
0.013937 0.068653 0.542000 14272973
0.013911 0.071618 0.541000 13020857
0.013809 0.074157 0.537000 14732506
0.013757 0.076938 0.535000 10322067
0.013783 0.080145 0.536000 10980757
0.013834 0.083518 0.538000 10917268
0.013886 0.086914 0.540000 12032679
0.013937 0.090333 0.542000 12170426
0.014014 0.093948 0.545000 11770009
0.014091 0.097596 0.548000 11575199
0.014169 0.101279 0.551000 10915477
0.014220 0.104807 0.553000 9803151
0.014271 0.108357 0.555000 8413010
0.014374 0.112332 0.559000 9270129
0.014451 0.116147 0.562000 9404277
0.015052 0.065919 0.545000 12694472
0.014970 0.068653 0.542000 14075593
0.014914 0.071486 0.540000 12759459
0.014831 0.074157 0.537000 14076111
0.014804 0.077082 0.536000 10322576
0.014804 0.080145 0.536000 10916245
0.014887 0.083673 0.539000 10586261
0.014942 0.087075 0.541000 12166825
0.014970 0.090333 0.542000 11378352
0.015080 0.094120 0.546000 11638669
0.015135 0.097596 0.548000 10586510
0.015218 0.101279 0.551000 10849422
0.015301 0.104996 0.554000 8748426
0.015356 0.108552 0.556000 6900042
0.015439 0.112332 0.559000 8481400
0.015522 0.116147 0.562000 9403511
0.015943 0.071486 0.540000 12434856
0.015825 0.074019 0.536000 13417933
0.015825 0.077082 0.536000 10256526
0.015825 0.080145 0.536000 10849423
0.015913 0.083673 0.539000 10321546
0.015943 0.086914 0.540000 12296358
0.016002 0.090333 0.542000 10593447
0.016120 0.094120 0.546000 11436686
0.016209 0.097774 0.549000 9599110
0.016297 0.101463 0.552000 10709880
0.016386 0.105186 0.555000 7695954
0.016415 0.108552 0.556000 5321519
0.016592 0.112935 0.562000 7757117
0.016971 0.071486 0.540000 12760236
0.016846 0.074019 0.536000 13156811
0.016846 0.077082 0.536000 10455179
0.016877 0.080294 0.537000 10519434
0.016971 0.083829 0.540000 10453118
0.016971 0.086914 0.540000 12034467
0.017066 0.090500 0.543000 10195357
0.017191 0.094292 0.547000 10910095
0.017254 0.097774 0.549000 7431037
0.017349 0.101463 0.552000 6627427
0.017443 0.105186 0.555000 4727322
0.017537 0.108943 0.558000 2884372
0.017694 0.113136 0.563000 5845761
0.017833 0.073881 0.535000 12890820
0.017833 0.076938 0.535000 10654894
0.017933 0.080444 0.538000 10128033
0.018000 0.083829 0.540000 10650785
0.018000 0.086914 0.540000 11774135
0.018100 0.090500 0.543000 9865135
0.018233 0.094292 0.547000 10387619
0.018267 0.097596 0.548000 5268897
0.018400 0.101463 0.552000 2568313
0.018500 0.105186 0.555000 1769814
0.018700 0.109529 0.561000 399703
0.018800 0.113337 0.564000 3939161
0.018852 0.073881 0.535000 13149885
0.018852 0.076938 0.535000 12694480
0.018958 0.080444 0.538000 12298424
0.019029 0.083829 0.540000 12627140
0.019029 0.086914 0.540000 13285835
0.019134 0.090500 0.543000 11902400
0.019310 0.097596 0.548000 9540548
0.019451 0.101463 0.552000 7891855
0.019522 0.104996 0.554000 7301265
0.019769 0.109529 0.561000 6578074
0.019874 0.113337 0.564000 8616368
0.019871 0.073881 0.535000 13418691
0.019871 0.076938 0.535000 14734284
0.020094 0.083984 0.541000 14668998
0.020057 0.086914 0.540000 14797511
0.020503 0.101463 0.552000 13218225
0.020577 0.104996 0.554000 12896433
0.020949 0.113337 0.564000 13290177
0.021125 0.083984 0.541000 14731719
0.022062 0.113538 0.565000 14207953
0.023138 0.113538 0.565000 15123657
-0.077352 0.019486 0.620000 12017777
-0.077228 0.022991 0.619000 12360592
-0.076604 0.029823 0.614000 13349038
-0.076479 0.033277 0.613000 13481658
-0.076171 0.019486 0.620000 10459042
-0.075557 0.022843 0.615000 10649996
-0.075434 0.026314 0.614000 11898761
-0.075311 0.029774 0.613000 12624781
-0.075311 0.033277 0.613000 13084057
-0.074990 0.019486 0.620000 12964308
-0.074265 0.022806 0.614000 11045511
-0.074265 0.026314 0.614000 10122357
-0.074023 0.029726 0.612000 10846828
-0.073452 0.019391 0.617000 15391185
-0.073095 0.022806 0.614000 11504788
-0.072976 0.026271 0.613000 8352106
-0.072857 0.029726 0.612000 9137267
-0.072629 0.015943 0.620000 12693171
-0.072277 0.019391 0.617000 15130573
-0.071809 0.022769 0.613000 11243936
-0.071574 0.026186 0.611000 8087392
-0.071574 0.029677 0.611000 9072762
-0.071574 0.033169 0.611000 9462117
-0.071448 0.015943 0.620000 12232621
-0.071102 0.019391 0.617000 14799822
-0.070641 0.022769 0.613000 11040929
-0.070410 0.026186 0.611000 7826542
-0.070410 0.029677 0.611000 9074754
-0.070410 0.033169 0.611000 9729648
-0.070267 0.015943 0.620000 12363175
-0.070040 0.019423 0.618000 13882319
-0.069587 0.022806 0.614000 11639201
-0.069020 0.026100 0.609000 7897468
-0.068907 0.029531 0.608000 7886345
-0.068907 0.033006 0.608000 10192762
-0.068680 0.036360 0.606000 9863020
-0.069086 0.015943 0.620000 12426918
-0.068863 0.019423 0.618000 12892353
-0.068306 0.022769 0.613000 12231844
-0.067860 0.026100 0.609000 7955830
-0.067860 0.029580 0.609000 6710820
-0.067749 0.033006 0.608000 10650741
-0.067303 0.036240 0.604000 10849661
-0.067191 0.039626 0.603000 10190727
-0.068124 0.012440 0.622000 13811908
-0.068124 0.015994 0.622000 12824229
-0.067686 0.019423 0.618000 12688562
-0.067029 0.022731 0.612000 12300711
-0.066700 0.026100 0.609000 6970225
-0.066590 0.029531 0.608000 6903358
-0.066590 0.033006 0.608000 10322289
-0.066152 0.036240 0.604000 11311501
-0.065824 0.039494 0.601000 12030897
-0.066939 0.012440 0.622000 13679547
-0.066939 0.015994 0.622000 13216389
-0.066509 0.019423 0.618000 12430468
-0.065755 0.022694 0.611000 12369816
-0.065432 0.026057 0.608000 5987449
-0.065432 0.029531 0.608000 7099986
-0.065325 0.032951 0.607000 9991790
-0.065002 0.036240 0.604000 11708836
-0.064679 0.039494 0.601000 13813708
-0.065860 0.012460 0.623000 13545907
-0.065860 0.016020 0.623000 12494180
-0.065331 0.019423 0.618000 13544790
-0.064591 0.022694 0.611000 13026440
-0.064274 0.026057 0.608000 7501442
-0.064274 0.029531 0.608000 7959141
-0.064169 0.032951 0.607000 9398892
-0.063851 0.036240 0.604000 12299962
-0.063429 0.039429 0.600000 14543848
-0.063111 0.042643 0.597000 11114431
-0.062689 0.045746 0.593000 8610677
-0.064673 0.012460 0.623000 13350321
-0.064673 0.016020 0.623000 11769157
-0.064154 0.019423 0.618000 14594370
-0.063428 0.022694 0.611000 13685354
-0.063116 0.026057 0.608000 9010826
-0.063116 0.029531 0.608000 8819566
-0.062909 0.032897 0.606000 8749182
-0.062597 0.036180 0.603000 12891316
-0.062286 0.039429 0.600000 15261415
-0.061767 0.042500 0.595000 11503527
-0.061351 0.045591 0.591000 6975891
-0.060729 0.048471 0.585000 7626870
-0.060625 0.051726 0.584000 8742255
-0.063487 0.012460 0.623000 13219248
-0.063487 0.016020 0.623000 11568678
-0.063079 0.019454 0.619000 14530094
-0.062366 0.022731 0.612000 13614411
-0.061958 0.026057 0.608000 9607058
-0.061958 0.029531 0.608000 7957622
-0.061754 0.032897 0.606000 10719376
-0.061550 0.036240 0.604000 13022381
-0.061041 0.039363 0.599000 14998502
-0.060633 0.042500 0.595000 10784399
-0.060226 0.045591 0.591000 5600177
-0.059614 0.048471 0.585000 6380911
-0.059512 0.051726 0.584000 7159392
-0.059003 0.054591 0.579000 8612459
-0.062500 0.012500 0.625000 13019811
-0.062400 0.016046 0.624000 11367467
-0.061800 0.019423 0.618000 14397735
-0.061200 0.022731 0.612000 13547356
-0.060900 0.026100 0.609000 10128533
-0.060800 0.029531 0.608000 7102812
-0.060500 0.032843 0.605000 12691109
-0.060300 0.036180 0.603000 13152701
-0.059800 0.039297 0.598000 14735585
-0.059400 0.042429 0.594000 10126476
-0.059100 0.045591 0.591000 4158643
-0.058500 0.048471 0.585000 5204375
-0.058400 0.051726 0.584000 5525635
-0.057900 0.054591 0.579000 7032908
-0.061506 0.012540 0.627000 12229015
-0.061211 0.016046 0.624000 11104816
-0.060623 0.019423 0.618000 14068256
-0.060034 0.022731 0.612000 13612652
-0.059740 0.026100 0.609000 10330264
-0.059642 0.029531 0.608000 8351809
-0.059250 0.032789 0.604000 12695226
-0.059053 0.036120 0.602000 13484749
-0.058661 0.039297 0.598000 13948123
-0.058269 0.042429 0.594000 8946568
-0.057876 0.045514 0.590000 4616630
-0.057288 0.048389 0.584000 5205950
-0.057190 0.051637 0.583000 5532583
-0.056699 0.054497 0.578000 6242604
-0.056503 0.057600 0.576000 7425859
-0.060311 0.012540 0.627000 11377812
-0.060023 0.016046 0.624000 10840887
-0.059446 0.019423 0.618000 13737763
-0.058869 0.022731 0.612000 13678952
-0.058580 0.026100 0.609000 10457498
-0.058388 0.029483 0.607000 9604450
-0.058099 0.032789 0.604000 12630467
-0.057907 0.036120 0.602000 13752025
-0.057522 0.039297 0.598000 13089231
-0.057137 0.042429 0.594000 7832466
-0.056752 0.045514 0.590000 5073331
-0.056271 0.048471 0.585000 5272255
-0.055887 0.051460 0.581000 5534133
-0.055502 0.054403 0.577000 5528183
-0.055213 0.057400 0.574000 5459805
-0.054829 0.060257 0.570000 7037258
-0.059023 0.012520 0.626000 11836305
-0.058834 0.016046 0.624000 11171901
-0.058269 0.019423 0.618000 13471526
-0.057703 0.022731 0.612000 14007652
-0.057420 0.026100 0.609000 9935771
-0.057231 0.029483 0.607000 10392962
-0.056949 0.032789 0.604000 13288652
-0.056666 0.036060 0.601000 14211301
-0.056289 0.039231 0.597000 12428739
-0.055911 0.042357 0.593000 7170715
-0.055440 0.045360 0.588000 4940720
-0.054969 0.048306 0.583000 5074879
-0.054686 0.051371 0.580000 5338308
-0.054214 0.054214 0.575000 5402049
-0.054026 0.057300 0.573000 5527671
-0.053554 0.060046 0.568000 6836794
-0.053554 0.063291 0.568000 8346196
-0.052517 0.068431 0.557000 8741719
-0.057830 0.012520 0.626000 12297092
-0.057646 0.016046 0.624000 11501893
-0.056999 0.019391 0.617000 13211953
-0.056445 0.022694 0.611000 14399836
-0.056168 0.026057 0.608000 9339035
-0.055983 0.029434 0.606000 11184268
-0.055613 0.032680 0.602000 13944257
-0.055429 0.036000 0.600000 14672109
-0.055059 0.039166 0.596000 11773367
-0.054690 0.042286 0.592000 6571421
-0.054043 0.045129 0.585000 4808615
-0.053858 0.048306 0.583000 4942514
-0.053396 0.051194 0.578000 5141179
-0.053119 0.054214 0.575000 5338045
-0.052842 0.057200 0.572000 5598110
-0.052472 0.060046 0.568000 6640501
-0.052288 0.063069 0.566000 7956844
-0.051456 0.065249 0.557000 7821156
-0.051364 0.068309 0.556000 8807256
-0.056548 0.012500 0.625000 13020023
-0.056367 0.016020 0.623000 11371085
-0.055733 0.019360 0.616000 13211709
-0.055281 0.022694 0.611000 14334803
-0.055010 0.026057 0.608000 8947612
-0.054829 0.029434 0.606000 10852501
-0.054467 0.032680 0.602000 13288374
-0.054195 0.035940 0.599000 14343668
-0.053833 0.039100 0.595000 11900331
-0.053471 0.042214 0.591000 5591966
-0.052929 0.045129 0.585000 4742047
-0.052748 0.048306 0.583000 4940964
-0.052295 0.051194 0.578000 5074611
-0.052024 0.054214 0.575000 5272761
-0.051662 0.057100 0.571000 5535173
-0.051210 0.059834 0.566000 6318256
-0.051029 0.062846 0.564000 9341828
-0.050395 0.065249 0.557000 8876388
-0.050305 0.068309 0.556000 8741209
-0.055357 0.012500 0.625000 13741434
-0.055180 0.016020 0.623000 11237712
-0.054560 0.019360 0.616000 13211970
-0.053940 0.022620 0.609000 14333556
-0.053763 0.026014 0.607000 8548242
-0.053586 0.029386 0.605000 10526877
-0.053231 0.032626 0.601000 12625784
-0.053054 0.035940 0.599000 14013370
-0.052611 0.039034 0.594000 12032157
-0.052257 0.042143 0.590000 4672671
-0.051814 0.045129 0.585000 4676257
-0.051549 0.048223 0.582000 5004708
-0.051106 0.051106 0.577000 5007279
-0.050840 0.054120 0.574000 5207221
-0.050486 0.057000 0.570000 5404352
-0.050043 0.059729 0.565000 5927604
-0.049954 0.062846 0.564000 10718857
-0.049423 0.065366 0.558000 9932434
-0.049157 0.068186 0.555000 8677477
-0.049069 0.071229 0.554000 9266777
-0.054167 0.012500 0.625000 13544830
-0.053907 0.015994 0.622000 11635026
-0.053387 0.019360 0.616000 13537096
-0.052780 0.022620 0.609000 14400916
-0.052607 0.026014 0.607000 7296649
-0.052433 0.029386 0.605000 11313828
-0.052087 0.032626 0.601000 12157755
-0.051827 0.035880 0.598000 12095103
-0.051393 0.038969 0.593000 11509903
-0.051133 0.042143 0.590000 4608160
-0.050613 0.045051 0.584000 4872610
-0.050440 0.048223 0.582000 4938916
-0.049920 0.051017 0.576000 4873387
-0.049573 0.053931 0.572000 5073585
-0.049313 0.056900 0.569000 5273019
-0.048967 0.059729 0.565000 6059703
-0.048707 0.062623 0.562000 11113103
-0.048273 0.065249 0.557000 10985664
-0.048100 0.068186 0.555000 9595506
-0.047840 0.070971 0.552000 9399641
-0.047493 0.073589 0.548000 9269347
-0.052976 0.012500 0.625000 13279859
-0.052722 0.015994 0.622000 12029015
-0.052129 0.019329 0.615000 13804118
-0.051620 0.022620 0.609000 14530478
-0.051450 0.026014 0.607000 6049414
-0.051281 0.029386 0.605000 12107699
-0.050942 0.032626 0.601000 11636571
-0.050688 0.035880 0.598000 10252159
-0.050179 0.038903 0.592000 10911886
-0.049925 0.042071 0.589000 4544672
-0.049501 0.045051 0.584000 5069475
-0.049331 0.048223 0.582000 4938916
-0.048908 0.051106 0.577000 4742054
-0.048484 0.053931 0.572000 5005484
-0.048145 0.056800 0.568000 5074612
-0.047890 0.059729 0.565000 6126259
-0.047636 0.062623 0.562000 11505559
-0.047212 0.065249 0.557000 12042424
-0.047043 0.068186 0.555000 10456984
-0.046704 0.070843 0.551000 9469305
-0.046450 0.073589 0.548000 9268836
-0.051786 0.012500 0.625000 12820072
-0.051371 0.015943 0.620000 12950108
-0.051040 0.019360 0.616000 14199141
-0.050377 0.022583 0.608000 14272712
-0.050294 0.026014 0.607000 5379203
-0.050046 0.029337 0.604000 12564930
-0.049797 0.032626 0.601000 11834235
-0.049466 0.035820 0.597000 10782591
-0.049051 0.038903 0.592000 8480910
-0.048803 0.042071 0.589000 3624608
-0.048306 0.044974 0.583000 4217252
-0.048140 0.048140 0.581000 4873380
-0.047726 0.051017 0.576000 4872866
-0.047394 0.053931 0.572000 5004710
-0.047063 0.056800 0.568000 5071788
-0.046731 0.059623 0.564000 7042735
-0.046483 0.062511 0.561000 11239840
-0.046151 0.065249 0.557000 13291440
-0.045986 0.068186 0.555000 11970239
-0.045654 0.070843 0.551000 9997209
-0.045323 0.073454 0.547000 9203300
-0.045323 0.076580 0.547000 8743006
-0.050433 0.012460 0.623000 12347737
-0.050190 0.015943 0.620000 13937267
-0.049786 0.019329 0.615000 14593659
-0.049300 0.022620 0.609000 14010046
-0.049138 0.026014 0.607000 4741535
-0.048895 0.029337 0.604000 13026494
-0.048652 0.032626 0.601000 12033654
-0.048329 0.035820 0.597000 11376016
-0.047924 0.038903 0.592000 5994406
-0.047600 0.042000 0.588000 2703534
-0.047195 0.044974 0.583000 3363759
-0.046952 0.048057 0.580000 4742304
-0.046710 0.051106 0.577000 5004450
-0.046224 0.053837 0.571000 5069988
-0.045900 0.056700 0.567000 5004966
-0.045576 0.059517 0.563000 7891369
-0.045414 0.062511 0.561000 10918559
-0.045010 0.065131 0.556000 14601127
-0.044767 0.067940 0.553000 13419962
-0.044524 0.070714 0.550000 10524590
-0.044281 0.073454 0.547000 9140103
-0.044200 0.076440 0.546000 8677231
-0.049247 0.012460 0.623000 9109834
-0.048930 0.015917 0.619000 13941386
-0.048614 0.019329 0.615000 13216401
-0.048140 0.022620 0.609000 13876404
-0.047982 0.026014 0.607000 6243771
-0.047666 0.029289 0.603000 13088698
-0.047508 0.032626 0.601000 12360561
-0.047112 0.035760 0.596000 12431009
-0.046796 0.038903 0.592000 9279678
-0.046480 0.042000 0.588000 7570876
-0.046006 0.044897 0.582000 6379451
-0.045769 0.047974 0.579000 4544412
-0.045531 0.051017 0.576000 5004194
-0.045136 0.053837 0.571000 5070241
-0.044741 0.056600 0.566000 4610721
-0.044504 0.059517 0.563000 8354722
-0.044346 0.062511 0.561000 11112350
-0.043950 0.065131 0.556000 13610910
-0.043634 0.067817 0.552000 13686709
-0.043318 0.070457 0.548000 12433603
-0.043160 0.073320 0.546000 9928617
-0.043081 0.076300 0.545000 9269375
-0.042370 0.081166 0.536000 9401172
-0.042923 0.107049 0.543000 7424562
-0.042844 0.109949 0.542000 7097399
-0.048060 0.012460 0.623000 5856876
-0.047674 0.015891 0.618000 13881022
-0.047443 0.019329 0.615000 11772578
-0.046980 0.022620 0.609000 13747651
-0.046749 0.025971 0.606000 7701698
-0.046517 0.029289 0.603000 13219274
-0.046286 0.032571 0.600000 12626836
-0.045977 0.035760 0.596000 13481629
-0.045669 0.038903 0.592000 12558500
-0.045283 0.041929 0.587000 12499368
-0.044897 0.044897 0.582000 9345718
-0.044666 0.047974 0.579000 4414137
-0.044357 0.050929 0.575000 5002918
-0.043971 0.053743 0.570000 5070243
-0.043740 0.056700 0.567000 4216482
-0.043431 0.059517 0.563000 8752541
-0.043277 0.062511 0.561000 11248544
-0.042814 0.065014 0.555000 12688550
-0.042583 0.067817 0.552000 13873826
-0.042274 0.070457 0.548000 14405811
-0.042120 0.073320 0.546000 10661572
-0.041889 0.076020 0.543000 9932445
-0.041426 0.078249 0.537000 9929848
-0.041349 0.081166 0.536000 9795153
-0.041889 0.107049 0.543000 7361354
-0.041811 0.109949 0.542000 6376260
-0.046873 0.012460 0.623000 8876687
-0.046497 0.015891 0.618000 14143985
-0.046271 0.019329 0.615000 11704755
-0.045820 0.022620 0.609000 14077650
-0.045594 0.025971 0.606000 9141962
-0.045369 0.029289 0.603000 13221338
-0.045143 0.032571 0.600000 12432823
-0.044767 0.035700 0.595000 12685464
-0.044466 0.038837 0.591000 12485514
-0.044165 0.041929 0.587000 12164500
-0.043713 0.044820 0.581000 10993842
-0.043563 0.047974 0.579000 8427734
-0.043187 0.050840 0.574000 4215466
-0.042810 0.053649 0.569000 4807589
-0.042660 0.056700 0.567000 4085155
-0.042284 0.059411 0.562000 9604760
-0.042133 0.062400 0.560000 12298914
-0.041757 0.065014 0.555000 13151917
-0.041456 0.067694 0.551000 12814479
-0.041230 0.070457 0.548000 13614243
-0.041005 0.073186 0.545000 12639455
-0.040629 0.075600 0.540000 11314363
-0.040403 0.078249 0.537000 11048589
-0.040252 0.081014 0.535000 8938317
-0.040177 0.083914 0.534000 8938312
-0.040854 0.107049 0.543000 8481121
-0.040779 0.109949 0.542000 7822418
-0.045687 0.012460 0.623000 11837864
-0.045320 0.015891 0.618000 14410222
-0.045173 0.019360 0.616000 11643840
-0.044587 0.022583 0.608000 14408409
-0.044367 0.025929 0.605000 10528473
-0.044220 0.029289 0.603000 13289683
-0.044000 0.032571 0.600000 12231333
-0.043633 0.035700 0.595000 11896478
-0.043340 0.038837 0.591000 12429476
-0.042973 0.041857 0.586000 11838890
-0.042607 0.044820 0.581000 12558754
-0.042460 0.047974 0.579000 12435873
-0.042093 0.050840 0.574000 3374524
-0.041727 0.053649 0.569000 4544414
-0.041580 0.056700 0.567000 3953831
-0.041213 0.059411 0.562000 10530954
-0.041067 0.062400 0.560000 13350061
-0.040700 0.065014 0.555000 13614764
-0.040407 0.067694 0.551000 11770781
-0.040187 0.070457 0.548000 12885903
-0.039967 0.073186 0.545000 14597818
-0.039527 0.075460 0.539000 12699085
-0.039380 0.078249 0.537000 12102577
-0.039233 0.081014 0.535000 8016999
-0.038940 0.083443 0.531000 8481145
-0.039307 0.102606 0.536000 8873561
-0.039747 0.106851 0.542000 9664350
-0.039747 0.109949 0.542000 9269086
-0.039820 0.113254 0.543000 6966605
-0.044500 0.012460 0.623000 13881026
-0.044143 0.015891 0.618000 14276586
-0.044000 0.019360 0.616000 12631757
-0.043500 0.022620 0.609000 14539487
-0.043214 0.025929 0.605000 11906024
-0.043071 0.029289 0.603000 13154252
-0.042857 0.032571 0.600000 13276307
-0.042500 0.035700 0.595000 13349284
-0.042214 0.038837 0.591000 13616062
-0.041786 0.041786 0.585000 13222336
-0.041429 0.044743 0.580000 13408914
-0.041286 0.047891 0.578000 12427883
-0.040929 0.050751 0.573000 8433613
-0.040643 0.053649 0.569000 4938647
-0.040357 0.056500 0.565000 3557804
-0.040143 0.059411 0.562000 11117435
-0.040000 0.062400 0.560000 14007479
-0.039571 0.064897 0.554000 14139306
-0.039357 0.067694 0.551000 13151403
-0.039071 0.070329 0.547000 12686970
-0.038786 0.072917 0.543000 13540245
-0.038500 0.075460 0.539000 13158623
-0.038286 0.078103 0.536000 13492438
-0.038214 0.081014 0.535000 10784385
-0.037929 0.083443 0.531000 10519979
-0.038286 0.102606 0.536000 8741208
-0.038500 0.106260 0.539000 9202523
-0.038714 0.109949 0.542000 9273451
-0.038786 0.113254 0.543000 8284004
-0.043313 0.012460 0.623000 15847891
-0.042966 0.015891 0.618000 14144231
-0.042757 0.019329 0.615000 13548487
-0.042340 0.022620 0.609000 14669536
-0.042062 0.025929 0.605000 13287648
-0.041923 0.029289 0.603000 13089205
-0.041714 0.032571 0.600000 14332837
-0.041297 0.035640 0.594000 14796710
-0.041089 0.038837 0.591000 14797245
-0.040741 0.041857 0.586000 14599359
-0.040324 0.044743 0.580000 14267556
-0.040115 0.047809 0.577000 12426647
-0.039768 0.050663 0.572000 13477807
-0.039559 0.053649 0.569000 5398707
-0.039281 0.056500 0.565000 3102371
-0.039072 0.059411 0.562000 11707255
-0.038864 0.062289 0.559000 14663355
-0.038516 0.064897 0.554000 14664108
-0.038308 0.067694 0.551000 14532525
-0.038030 0.070329 0.547000 12560024
-0.037751 0.072917 0.543000 12428439
-0.037404 0.075320 0.538000 13614265
-0.037265 0.078103 0.536000 14792367
-0.037126 0.080863 0.534000 13488300
-0.036917 0.083443 0.531000 12565190
-0.036639 0.085826 0.527000 10595993
-0.036639 0.088837 0.527000 9863302
-0.036639 0.091849 0.527000 8806515
-0.036709 0.095040 0.528000 8610121
-0.037265 0.102606 0.536000 8544340
-0.037404 0.106063 0.538000 8741968
-0.037612 0.109746 0.541000 9270377
-0.037682 0.113046 0.542000 9665378
-0.037890 0.116786 0.545000 7887442
-0.042127 0.012460 0.623000 16251108
-0.041721 0.015866 0.617000 14143204
-0.041586 0.019329 0.615000 12758721
-0.041180 0.022620 0.609000 14340576
-0.040910 0.025929 0.605000 13419480
-0.040774 0.029289 0.603000 13545118
-0.040504 0.032517 0.599000 14469304
-0.040166 0.035640 0.594000 14730919
-0.039895 0.038771 0.590000 14863293
-0.039625 0.041857 0.586000 14070205
-0.039219 0.044743 0.580000 14269878
-0.039016 0.047809 0.577000 13675714
-0.038678 0.050663 0.572000 12750226
-0.038475 0.053649 0.569000 8032462
-0.038205 0.056500 0.565000 5064602
-0.037934 0.059306 0.561000 12165235
-0.037799 0.062289 0.559000 14730942
-0.037461 0.064897 0.554000 14663854
-0.037258 0.067694 0.551000 14534064
-0.037055 0.070457 0.548000 13745077
-0.036717 0.072917 0.543000 13019290
-0.036311 0.075180 0.537000 12424850
-0.036244 0.078103 0.536000 13275529
-0.036041 0.080711 0.533000 14013142
-0.035838 0.083286 0.530000 14215905
-0.035635 0.085826 0.527000 12303520
-0.035635 0.088837 0.527000 10848424
-0.035635 0.091849 0.527000 9664664
-0.035703 0.095040 0.528000 7952445
-0.035973 0.098800 0.532000 8346968
-0.036244 0.102606 0.536000 8346959
-0.036311 0.105866 0.537000 8347717
-0.036447 0.109340 0.539000 8546151
-0.036650 0.113046 0.542000 9336416
-0.036852 0.116786 0.545000 8215893
-0.041006 0.012480 0.624000 16575460
-0.040546 0.015866 0.617000 14076388
-0.040349 0.019297 0.614000 11905193
-0.040020 0.022620 0.609000 13948373
-0.039757 0.025929 0.605000 13550796
-0.039560 0.029240 0.602000 14000552
-0.039363 0.032517 0.599000 14533299
-0.038969 0.035580 0.593000 14666412
-0.038771 0.038771 0.590000 14928059
-0.038443 0.041786 0.585000 13544895
-0.038114 0.044743 0.580000 14195107
-0.037917 0.047809 0.577000 14917301
-0.037523 0.050574 0.571000 11969442
-0.037326 0.053554 0.568000 10663866
-0.037129 0.056500 0.565000 7041182
-0.036866 0.059306 0.561000 12622232
-0.036734 0.062289 0.559000 14797500
-0.036340 0.064780 0.553000 14729137
-0.036209 0.067694 0.551000 14533295
-0.035946 0.070329 0.547000 14993848
-0.035617 0.072783 0.542000 13612713
-0.035354 0.075320 0.538000 11247257
-0.035223 0.078103 0.536000 11707278
-0.034960 0.080560 0.532000 14462383
-0.034829 0.083286 0.530000 15782853
-0.034631 0.085826 0.527000 14073508
-0.034566 0.088669 0.526000 11840179
-0.034631 0.091849 0.527000 10526112
-0.034697 0.095040 0.528000 7234651
-0.034894 0.098614 0.531000 8083543
-0.035157 0.102414 0.535000 8152669
-0.035289 0.105866 0.537000 7888980
-0.035354 0.109137 0.538000 7756897
-0.035617 0.113046 0.542000 9071709
-0.035749 0.116571 0.544000 8477775
-0.039817 0.012480 0.624000 16645860
-0.039434 0.015891 0.618000 14273764
-0.039179 0.019297 0.614000 11376530
-0.038796 0.022583 0.608000 13156809
-0.038605 0.025929 0.605000 13812928
-0.038413 0.029240 0.602000 14005682
-0.038222 0.032517 0.599000 13743789
-0.037839 0.035580 0.593000 14005680
-0.037648 0.038771 0.590000 14993081
-0.037329 0.041786 0.585000 13740736
-0.036946 0.044666 0.579000 13726607
-0.036754 0.047726 0.576000 14525352
-0.036371 0.050486 0.570000 13417138
-0.036244 0.053554 0.568000 11773349
-0.036052 0.056500 0.565000 9536418
-0.035797 0.059306 0.561000 12822973
-0.035542 0.062066 0.557000 14731194
-0.035287 0.064780 0.553000 14795188
-0.035159 0.067694 0.551000 14401967
-0.034904 0.070329 0.547000 14927290
-0.034585 0.072783 0.542000 14534073
-0.034330 0.075320 0.538000 12823712
-0.034202 0.078103 0.536000 12754579
-0.033947 0.080560 0.532000 13738375
-0.033819 0.083286 0.530000 14528425
-0.033628 0.085826 0.527000 13416871
-0.033564 0.088669 0.526000 12106430
-0.033628 0.091849 0.527000 10524072
-0.033691 0.095040 0.528000 8748410
-0.033947 0.098800 0.532000 8545109
-0.034074 0.102223 0.534000 9206635
-0.034202 0.105669 0.536000 8677475
-0.034330 0.109137 0.538000 8475739
-0.034585 0.113046 0.542000 9137498
-0.034776 0.116786 0.545000 8607817
-0.035159 0.124369 0.551000 7360039
-0.038629 0.012480 0.624000 16710127
-0.038257 0.015891 0.618000 14402783
-0.038010 0.019297 0.614000 10786957
-0.037638 0.022583 0.608000 12435896
-0.037452 0.025929 0.605000 14006193
-0.037267 0.029240 0.602000 14010041
-0.037081 0.032517 0.599000 12886163
-0.036771 0.035640 0.594000 13345456
-0.036524 0.038771 0.590000 14992811
-0.036276 0.041857 0.586000 14007996
-0.035843 0.044666 0.579000 13272986
-0.035657 0.047726 0.576000 14128297
-0.035286 0.050486 0.570000 14853013
-0.035162 0.053554 0.568000 12884892
-0.034914 0.056400 0.564000 12038311
-0.034729 0.059306 0.561000 12956869
-0.034543 0.062177 0.558000 14665399
-0.034233 0.064780 0.553000 14795702
-0.034110 0.067694 0.551000 14267551
-0.033862 0.070329 0.547000 14927534
-0.033552 0.072783 0.542000 15386038
-0.033305 0.075320 0.538000 14464416
-0.033181 0.078103 0.536000 13810601
-0.032933 0.080560 0.532000 13020581
-0.032748 0.083129 0.529000 13284015
-0.032624 0.085826 0.527000 12822445
-0.032562 0.088669 0.526000 12361602
-0.032624 0.091849 0.527000 10585987
-0.032748 0.095220 0.529000 10192517
-0.032933 0.098800 0.532000 9003837
-0.033057 0.102223 0.534000 10191229
-0.033243 0.105866 0.537000 9400958
-0.033367 0.109340 0.539000 9139574
-0.033552 0.113046 0.542000 9274489
-0.033738 0.116786 0.545000 8748148
-0.033924 0.120560 0.548000 7626064
-0.034048 0.124143 0.550000 7101000
-0.037440 0.012480 0.624000 16711417
-0.037080 0.015891 0.618000 14009306
-0.036840 0.019297 0.614000 10912137
-0.036480 0.022583 0.608000 11707302
-0.036360 0.025971 0.606000 13349795
-0.036120 0.029240 0.602000 13547711
-0.035880 0.032463 0.598000 12094842
-0.035580 0.035580 0.593000 12951216
-0.035400 0.038771 0.590000 14729886
-0.035040 0.041714 0.584000 14468280
-0.034620 0.044511 0.577000 13865893
-0.034560 0.047726 0.576000 13795753
-0.034200 0.050486 0.570000 13921656
-0.033900 0.053271 0.565000 13346450
-0.033840 0.056400 0.564000 13356204
-0.033600 0.059200 0.560000 13221324
-0.033420 0.062066 0.557000 14730675
-0.033180 0.064780 0.553000 14861240
-0.033060 0.067694 0.551000 13474703
-0.032820 0.070329 0.547000 14334369
-0.032520 0.072783 0.542000 15254707
-0.032280 0.075320 0.538000 14596255
-0.032160 0.078103 0.536000 14732479
-0.031920 0.080560 0.532000 14073795
-0.031800 0.083286 0.530000 14070709
-0.031620 0.085826 0.527000 12031667
-0.031560 0.088669 0.526000 10846023
-0.031620 0.091849 0.527000 10124381
-0.031740 0.095220 0.529000 10917520
-0.031920 0.098800 0.532000 9201700
-0.032040 0.102223 0.534000 10390159
-0.032220 0.105866 0.537000 10456984
-0.032400 0.109543 0.540000 9536146
-0.032520 0.113046 0.542000 10195351
-0.032700 0.116786 0.545000 10528160
-0.032880 0.120560 0.548000 8877681
-0.033000 0.124143 0.550000 8682857
-0.036542 0.008986 0.629000 12166789
-0.036251 0.012480 0.624000 16710132
-0.035903 0.015891 0.618000 13605801
