# .PCD v.7 - Point Cloud Data file format
VERSION .7
FIELDS x y z rgb
SIZE 4 4 4 4
TYPE F F F I
COUNT 1 1 1 1
WIDTH 1318
HEIGHT 1
POINTS 1318
DATA ascii
0.021766 0.044090 0.586000 12359050
0.021840 0.047600 0.588000 11111560
0.021914 0.051133 0.590000 10848129
0.021914 0.054505 0.590000 11044990
0.022174 0.058563 0.597000 11307391
0.022249 0.062182 0.599000 11044987
0.022211 0.065495 0.598000 11109247
0.022471 0.069719 0.605000 10650250
0.022360 0.072813 0.602000 11437183
0.023975 0.011110 0.614000 11966536
0.023897 0.014571 0.612000 11901321
0.023741 0.017950 0.608000 13487863
0.023624 0.021319 0.605000 12755836
0.023468 0.024612 0.601000 9593657
0.023350 0.027907 0.598000 9461281
0.023272 0.031219 0.596000 11834662
0.023077 0.034334 0.591000 10852753
0.022960 0.037520 0.588000 10325143
0.022921 0.040810 0.587000 11770532
0.022882 0.044090 0.586000 12096380
0.022960 0.047600 0.588000 11241858
0.023038 0.051133 0.590000 11176577
0.023077 0.054597 0.591000 11176579
0.023350 0.058661 0.598000 11373185
0.023429 0.062286 0.600000 11308415
0.023546 0.066043 0.603000 11373444
0.023624 0.069719 0.605000 11045256
0.023858 0.073902 0.611000 11569781
0.025145 0.011110 0.614000 11310674
0.025063 0.014571 0.612000 10389095
0.024940 0.017980 0.609000 13291222
0.024776 0.021319 0.605000 12621932
0.024653 0.024653 0.602000 9986378
0.024490 0.027907 0.598000 9330477
0.024367 0.031167 0.595000 11505685
0.024162 0.034276 0.590000 10785935
0.024080 0.037520 0.588000 10325658
0.024080 0.040880 0.588000 12818844
0.024039 0.044165 0.587000 11900038
0.024162 0.047762 0.590000 11372664
0.024203 0.051220 0.591000 11505021
0.024244 0.054690 0.592000 11309438
0.024490 0.058661 0.598000 11438719
0.024612 0.062390 0.601000 11571068
0.024653 0.065933 0.602000 11702919
0.024817 0.069834 0.606000 11439755
0.025022 0.073902 0.611000 11702145
0.026314 0.011110 0.614000 11441500
0.026229 0.014571 0.612000 9787718
0.026057 0.017950 0.608000 12035253
0.025929 0.021319 0.605000 12358748
0.025800 0.024653 0.602000 10450266
0.025671 0.027953 0.599000 9327674
0.025500 0.031167 0.595000 11308548
0.025286 0.034276 0.590000 10719374
0.025200 0.037520 0.588000 10718365
0.025200 0.040880 0.588000 12294037
0.025200 0.044240 0.588000 11438480
0.025286 0.047762 0.590000 10846319
0.025371 0.051307 0.592000 11438201
0.025543 0.055059 0.596000 11834490
0.025671 0.058759 0.599000 11899004
0.025800 0.062493 0.602000 11833466
0.025971 0.066371 0.606000 11965577
0.026014 0.069950 0.607000 12030863
0.027484 0.011110 0.614000 11574409
0.027394 0.014571 0.612000 9141605
0.027215 0.017950 0.608000 10786998
0.027081 0.021319 0.605000 12031860
0.026902 0.024612 0.601000 10913107
0.026812 0.027953 0.599000 9266472
0.026633 0.031167 0.595000 11179337
0.026410 0.034276 0.590000 10656147
0.026320 0.037520 0.588000 11046041
0.026320 0.040880 0.588000 11770259
0.026365 0.044315 0.589000 11042957
0.026454 0.047843 0.591000 10259585
0.026544 0.051393 0.593000 11305349
0.026768 0.055244 0.598000 12360584
0.026991 0.059151 0.603000 12359049
0.027036 0.062701 0.604000 12032138
0.027350 0.066919 0.611000 12295562
0.027394 0.070526 0.612000 12622994
0.028513 0.014548 0.611000 10456965
0.028373 0.017950 0.608000 11116470
0.028233 0.021319 0.605000 11441036
0.028047 0.024612 0.601000 11175756
0.027953 0.027953 0.599000 9925142
0.027767 0.031167 0.595000 11771790
0.027580 0.034334 0.591000 11248280
0.027487 0.037584 0.589000 11836820
0.027487 0.040950 0.589000 12623761
0.027627 0.044541 0.592000 12231050
0.027767 0.048167 0.595000 12037524
0.027720 0.051480 0.594000 12428433
0.028000 0.055429 0.600000 12954005
0.028187 0.059250 0.604000 12821909
0.028280 0.062909 0.606000 12756891
0.028607 0.067138 0.613000 12691082
0.028560 0.070526 0.612000 12953493
0.029677 0.014548 0.611000 11705239
0.029531 0.017950 0.608000 11510456
0.029386 0.021319 0.605000 10851479
0.029191 0.024612 0.601000 11503424
0.029046 0.027907 0.598000 10519639
0.028900 0.031167 0.595000 12368812
0.028706 0.034334 0.591000 11771555
0.028609 0.037584 0.589000 12626846
0.028657 0.041019 0.590000 13477525
0.028803 0.044616 0.593000 13480082
0.028949 0.048248 0.596000 13740950
0.028997 0.051740 0.597000 13544852
0.029289 0.055706 0.603000 13543833
0.029386 0.059348 0.605000 13282714
0.029774 0.063635 0.613000 13411993
0.029871 0.067357 0.615000 13020304
0.029823 0.070756 0.614000 13215373
0.030740 0.014500 0.609000 11839145
0.030639 0.017921 0.607000 11642042
0.030538 0.021319 0.605000 10784674
0.030387 0.024653 0.602000 11109428
0.030185 0.027907 0.598000 11573911
0.030033 0.031167 0.595000 12762057
0.029882 0.034392 0.592000 11113647
0.029781 0.037648 0.590000 12165031
0.029882 0.041158 0.592000 13018265
0.029983 0.044691 0.594000 12623002
0.030134 0.048329 0.597000 12820889
0.030134 0.051740 0.597000 12622230
0.030690 0.056168 0.608000 12886684
0.030740 0.059740 0.609000 12557983
0.030992 0.063739 0.614000 12557464
0.031093 0.067467 0.616000 12359830
0.031900 0.014500 0.609000 11904179
0.031795 0.017921 0.607000 11707323
0.031690 0.021319 0.605000 10720421
0.031533 0.024653 0.602000 10781288
0.031324 0.027907 0.598000 12630958
0.031219 0.031219 0.596000 13156569
0.031010 0.034392 0.592000 10459566
0.031062 0.037839 0.593000 11772320
0.031219 0.041436 0.596000 12490121
0.031167 0.044767 0.595000 11831943
0.031376 0.048490 0.599000 11897990
0.031900 0.052780 0.609000 11699581
0.031900 0.056260 0.609000 12160895
0.032110 0.060132 0.613000 11769221
0.032214 0.063843 0.615000 11636353
0.032267 0.067467 0.616000 11765130
0.033060 0.014500 0.609000 11969212
0.032897 0.017891 0.606000 11772860
0.032843 0.021319 0.605000 10982056
0.032680 0.024653 0.602000 11048860
0.032463 0.027907 0.598000 13158854
0.032354 0.031219 0.596000 13091048
0.032246 0.034509 0.594000 11245229
0.032354 0.038030 0.596000 12231065
0.032409 0.041506 0.597000 11239801
0.032517 0.045068 0.599000 10779508
0.032626 0.048652 0.601000 11042164
0.033060 0.052780 0.609000 10583396
0.033169 0.056445 0.611000 10516065
0.033331 0.060230 0.614000 10714731
0.033440 0.063947 0.616000 10911338
0.034051 0.017891 0.606000 11839161
0.033995 0.021319 0.605000 11179945
0.033827 0.024653 0.602000 11313563
0.033658 0.027953 0.599000 13615044
0.033546 0.031271 0.597000 13091543
0.033490 0.034625 0.596000 12034730
0.033546 0.038094 0.597000 12758425
0.033602 0.041575 0.598000 9928567
0.033658 0.045068 0.599000 9729388
0.033770 0.048652 0.601000 10124405
0.034220 0.052780 0.609000 9469803
0.034389 0.056537 0.612000 8875876
0.034557 0.060329 0.615000 9662322
0.034782 0.064258 0.619000 10189422
0.035206 0.017891 0.606000 12102838
0.035148 0.021319 0.605000 11048619
0.034915 0.024612 0.601000 11114905
0.034857 0.028000 0.600000 13286595
0.034741 0.031324 0.598000 12626373
0.034741 0.034741 0.598000 12428967
0.034741 0.038158 0.598000 12031641
0.034741 0.041575 0.598000 9794934
0.034973 0.045293 0.602000 9663843
0.035206 0.049057 0.606000 9993079
0.035496 0.052953 0.611000 9270129
0.035670 0.056722 0.614000 8939366
0.035845 0.060525 0.617000 9860728
0.036135 0.064570 0.622000 10187635
0.036360 0.017891 0.606000 12367288
0.036300 0.021319 0.605000 10854062
0.036060 0.024612 0.601000 10915230
0.036000 0.028000 0.600000 12889269
0.036000 0.031429 0.600000 12163000
0.035880 0.034741 0.598000 12756387
0.036000 0.038286 0.600000 11306369
0.036060 0.041784 0.601000 9663603
0.036360 0.045594 0.606000 9599083
0.036540 0.049300 0.609000 9861491
0.036720 0.053040 0.612000 9072238
0.036900 0.056814 0.615000 9005676
0.037140 0.060721 0.619000 10058872
0.037320 0.064570 0.622000 10126722
0.037452 0.017862 0.605000 12366009
0.037390 0.021284 0.604000 10657201
0.037205 0.024612 0.601000 10982563
0.037143 0.028000 0.600000 12098471
0.037143 0.031429 0.600000 12230058
0.037143 0.034857 0.600000 12887711
0.037143 0.038286 0.600000 10518632
0.037329 0.041923 0.603000 9662064
0.037514 0.045594 0.606000 9796211
0.037824 0.049462 0.611000 9664623
0.038010 0.053213 0.614000 9071979
0.038133 0.056907 0.616000 9399410
0.038319 0.060721 0.619000 10058871
0.038505 0.064570 0.622000 11247250
0.038605 0.017862 0.605000 12365754
0.038541 0.021284 0.604000 10455975
0.038350 0.024612 0.601000 11118775
0.038286 0.028000 0.600000 11246253
0.038350 0.031481 0.601000 12296869
0.038350 0.034915 0.601000 13016210
0.038413 0.038413 0.602000 9730924
0.038541 0.041992 0.604000 9598573
0.038732 0.045670 0.607000 9993333
0.039179 0.049705 0.614000 9401711
0.039243 0.053300 0.615000 9071214
0.039370 0.056999 0.617000 9729652
0.039498 0.060721 0.619000 10124914
0.039757 0.017862 0.605000 12496059
0.039626 0.021249 0.603000 9660062
0.039494 0.024612 0.601000 11710411
0.039494 0.028047 0.601000 11375795
0.039494 0.031481 0.601000 12823200
0.039494 0.034915 0.601000 11438981
0.039691 0.038541 0.604000 9598576
0.040020 0.042340 0.609000 9730667
0.040283 0.046121 0.613000 9861750
0.040414 0.049786 0.615000 9334639
0.040480 0.053387 0.616000 9202288
0.040546 0.056999 0.617000 9995126
0.040743 0.060819 0.620000 10716525
0.040774 0.021249 0.603000 8884912
0.040639 0.024612 0.601000 12300997
0.040639 0.028047 0.601000 11444399
0.040707 0.031533 0.602000 13347742
0.040707 0.034973 0.602000 9864057
0.040774 0.038477 0.603000 9401198
0.041315 0.042479 0.611000 9861995
0.041450 0.046121 0.613000 9730161
0.041653 0.049867 0.616000 9268842
0.041653 0.053387 0.616000 9333362
0.041856 0.057184 0.619000 10190450
0.041853 0.021213 0.602000 10595267
0.041784 0.024612 0.601000 12101566
0.041784 0.028047 0.601000 12102060
0.041853 0.031533 0.602000 12360091
0.041923 0.035031 0.603000 9794925
0.042062 0.038605 0.605000 9399916
0.042618 0.042618 0.613000 9796716
0.042688 0.046196 0.614000 9335659
0.042827 0.049867 0.616000 8873830
0.042966 0.053560 0.618000 9465715
0.043383 0.057646 0.624000 9991277
0.043000 0.021213 0.602000 12232632
0.043214 0.024776 0.605000 11901874
0.043000 0.028093 0.602000 12690601
0.043214 0.031690 0.605000 11443349
0.043071 0.035031 0.603000 9730177
0.043357 0.038732 0.607000 9398148
0.044000 0.042827 0.616000 9731972
0.044000 0.046347 0.616000 8940930
0.044071 0.049948 0.617000 8416897
0.044143 0.053560 0.618000 9598348
0.044714 0.057830 0.626000 9799051
0.044147 0.021213 0.602000 11902637
0.044220 0.024694 0.603000 11768998
0.044147 0.028093 0.602000 12822438
0.044293 0.031638 0.604000 12098447
0.044293 0.035090 0.604000 11241877
0.044440 0.038669 0.606000 11177883
0.045173 0.042827 0.616000 11506588
0.045173 0.046347 0.616000 11112345
0.045173 0.049867 0.616000 10915996
0.045320 0.053560 0.618000 11573669
0.045907 0.057830 0.626000 11838377
0.045369 0.024694 0.603000 11703978
0.045369 0.028140 0.603000 12887978
0.045444 0.031638 0.604000 12821408
0.045444 0.035090 0.604000 12688803
0.045594 0.038669 0.606000 12957349
0.046422 0.046422 0.617000 13285029
0.046347 0.049867 0.616000 13413287
0.046517 0.024694 0.603000 12560045
0.046671 0.028233 0.605000 13084335
0.046826 0.031795 0.607000 12953264
0.046594 0.035090 0.604000 12756912
0.046749 0.038669 0.606000 13086383
0.047597 0.046422 0.617000 13282736
0.047520 0.049867 0.616000 13215922
0.047666 0.024694 0.603000 13414061
0.047824 0.028233 0.605000 13215404
0.047982 0.031795 0.607000 13150129
0.047745 0.035090 0.604000 12822188
0.047982 0.038732 0.607000 13150893
0.048814 0.024694 0.603000 13281709
0.048976 0.028233 0.605000 13084584
-0.089571 0.063514 0.570000 10780533
-0.089729 0.066889 0.571000 11506036
-0.090043 0.070397 0.573000 11505788
-0.088486 0.063514 0.570000 9068376
-0.088486 0.066771 0.570000 9465687
-0.088641 0.070151 0.571000 10191979
-0.087400 0.060257 0.570000 11447983
-0.087093 0.063291 0.568000 7364454
-0.087093 0.066537 0.568000 7491930
-0.087247 0.069906 0.569000 8810078
-0.087400 0.073286 0.570000 9203304
-0.088627 0.077617 0.578000 9726311
-0.086163 0.060151 0.569000 11842768
-0.086011 0.063291 0.568000 7362676
-0.085860 0.066420 0.567000 7756381
-0.086163 0.069906 0.569000 8609874
-0.086466 0.073414 0.571000 8147787
-0.087526 0.077617 0.578000 6435656
-0.085079 0.060151 0.569000 12239820
-0.084780 0.063180 0.567000 7368588
-0.084630 0.066303 0.566000 8020061
-0.084780 0.069660 0.567000 8413523
-0.085229 0.073286 0.570000 7166034
-0.086275 0.077483 0.577000 3092812
-0.086425 0.080920 0.578000 4267079
-0.087023 0.084806 0.582000 6506315
-0.083848 0.060046 0.568000 12500424
-0.083700 0.063180 0.567000 9208739
-0.083405 0.066186 0.565000 7757404
-0.083552 0.069537 0.566000 8282708
-0.083848 0.073029 0.568000 7560281
-0.085176 0.077483 0.577000 4274000
-0.085324 0.080920 0.578000 4467009
-0.085914 0.084806 0.582000 5119545
-0.086210 0.088434 0.584000 6110001
-0.082911 0.060151 0.569000 12827825
-0.082329 0.062957 0.565000 10982309
-0.082329 0.066186 0.565000 7427936
-0.082329 0.069414 0.565000 8085596
-0.082474 0.072771 0.566000 8019801
-0.083931 0.077349 0.576000 5457992
-0.084223 0.080920 0.578000 4666439
-0.084660 0.084660 0.581000 3746623
-0.085097 0.088434 0.584000 3550781
-0.085680 0.092400 0.588000 5717831
-0.086263 0.096411 0.592000 6312003
-0.081828 0.060151 0.569000 13154713
-0.081396 0.063069 0.566000 10981544
-0.081252 0.066186 0.565000 8087907
-0.081252 0.069414 0.565000 8085348
-0.081252 0.072643 0.565000 8085849
-0.082547 0.077080 0.574000 6641472
-0.082403 0.080220 0.573000 4468813
-0.083553 0.084660 0.581000 3879236
-0.083985 0.088434 0.584000 3813960
-0.084560 0.092400 0.588000 4467267
-0.085135 0.096411 0.592000 6245165
-0.081028 0.057100 0.571000 14862496
-0.080744 0.060151 0.569000 13483172
-0.080318 0.063069 0.566000 10986941
-0.080176 0.066186 0.565000 8683140
-0.080176 0.069414 0.565000 8020323
-0.080176 0.072643 0.565000 8151388
-0.081170 0.076811 0.572000 7821886
-0.081170 0.080080 0.572000 4271442
-0.082447 0.084660 0.581000 3945287
-0.082730 0.088283 0.583000 4076617
-0.083298 0.092243 0.587000 3223367
-0.083724 0.096086 0.590000 6182449
-0.079940 0.057100 0.571000 14273698
-0.079660 0.060151 0.569000 13285551
-0.079240 0.063069 0.566000 12501459
-0.078960 0.066069 0.564000 9670308
-0.078960 0.069291 0.564000 8282979
-0.079100 0.072643 0.565000 8282974
-0.079380 0.076140 0.567000 8150589
-0.079940 0.079940 0.571000 4732759
-0.080500 0.083786 0.575000 3879754
-0.081340 0.087980 0.581000 3945289
-0.082040 0.092086 0.586000 3551563
-0.082320 0.095760 0.588000 5653045
-0.078990 0.057200 0.572000 13610395
-0.078576 0.060151 0.569000 13089467
-0.078024 0.062957 0.565000 13944527
-0.077886 0.066069 0.564000 10657463
-0.077748 0.069169 0.563000 8546671
-0.077886 0.072514 0.564000 8414569
-0.078162 0.076006 0.566000 8478783
-0.078576 0.079660 0.569000 5191249
-0.078576 0.082911 0.569000 3813961
-0.080233 0.087980 0.581000 3879241
-0.080924 0.092086 0.586000 3813705
-0.081200 0.095760 0.588000 5060150
-0.081476 0.099457 0.590000 5915702
-0.078310 0.054214 0.575000 10126738
-0.077901 0.057200 0.572000 12816532
-0.077492 0.060151 0.569000 13023174
-0.076948 0.062957 0.565000 13683658
-0.076811 0.066069 0.564000 11447241
-0.076403 0.068923 0.561000 8350844
-0.076403 0.072129 0.561000 8612723
-0.076948 0.075871 0.565000 8480065
-0.077356 0.079520 0.568000 5784650
-0.077356 0.082766 0.568000 3879239
-0.079127 0.087980 0.581000 3813705
-0.079944 0.092243 0.587000 3747911
-0.079944 0.095597 0.587000 4470070
-0.080080 0.099120 0.588000 6574658
-0.077214 0.054214 0.575000 9864084
-0.076811 0.057200 0.572000 12035497
-0.076543 0.060257 0.570000 12956105
-0.075871 0.062957 0.565000 13419212
-0.075603 0.065951 0.563000 12235471
-0.075200 0.068800 0.560000 8090240
-0.075200 0.072000 0.560000 8876131
-0.075871 0.075871 0.565000 8414789
-0.076140 0.079380 0.567000 6377535
-0.076140 0.082620 0.567000 3944522
-0.076409 0.086163 0.569000 3748427
-0.078826 0.092243 0.587000 3682375
-0.078557 0.095271 0.585000 3944768
-0.078691 0.098783 0.586000 7229248
-0.076119 0.054214 0.575000 10522006
-0.075722 0.057200 0.572000 12432318
-0.075325 0.060151 0.569000 12760011
-0.074795 0.062957 0.565000 13023183
-0.074530 0.065951 0.563000 11777236
-0.074133 0.068800 0.560000 7826052
-0.074001 0.071871 0.559000 7166035
-0.074398 0.075469 0.562000 8215882
-0.074795 0.079100 0.565000 7297075
-0.074795 0.082329 0.565000 4140366
-0.075325 0.086163 0.569000 3747916
-0.075854 0.090043 0.573000 3682375
-0.077443 0.095271 0.585000 3943754
-0.077575 0.098783 0.586000 6177087
-0.075024 0.054214 0.575000 11244203
-0.074632 0.057200 0.572000 12825282
-0.074241 0.060151 0.569000 12628682
-0.073719 0.062957 0.565000 12563404
-0.073328 0.065834 0.562000 11384478
-0.072936 0.068677 0.559000 7560804
-0.072806 0.071743 0.558000 5521998
-0.073197 0.075334 0.561000 8018775
-0.073589 0.078960 0.564000 8282174
-0.073719 0.082329 0.565000 4274507
-0.074110 0.086011 0.568000 3748172
-0.074763 0.090043 0.573000 3682121
-0.075937 0.094783 0.582000 3943755
-0.076198 0.098446 0.584000 5125185
-0.074700 0.051460 0.581000 12561074
-0.073929 0.054214 0.575000 12300735
-0.073671 0.057300 0.573000 12760263
-0.073157 0.060151 0.569000 12694985
-0.072643 0.062957 0.565000 11971786
-0.072257 0.065834 0.562000 9008232
-0.071871 0.068677 0.559000 7493445
-0.071743 0.071743 0.558000 6441800
-0.071871 0.075066 0.559000 8086373
-0.072386 0.078820 0.563000 8282952
-0.072643 0.082329 0.565000 5391433
-0.072900 0.085860 0.567000 3813452
-0.073543 0.089886 0.572000 3944011
-0.074829 0.094783 0.582000 3944012
-0.074957 0.098277 0.583000 4464964
-0.073720 0.051549 0.582000 12036276
-0.072707 0.054120 0.574000 13354431
-0.072580 0.057300 0.573000 12628933
-0.072073 0.060151 0.569000 12827340
-0.071567 0.062957 0.565000 11378608
-0.071187 0.065834 0.562000 6703201
-0.070807 0.068677 0.559000 7369834
-0.070553 0.071614 0.557000 7428451
-0.070680 0.074931 0.558000 8086108
-0.071187 0.078680 0.562000 8217167
-0.071567 0.082329 0.565000 6443341
-0.071820 0.085860 0.567000 3944784
-0.072327 0.089729 0.571000 4140878
-0.072580 0.093317 0.573000 4010063
-0.073720 0.098109 0.582000 3811648
-0.074100 0.101957 0.585000 6508860
-0.072736 0.048306 0.583000 11642025
-0.072487 0.051460 0.581000 12035766
-0.071738 0.054214 0.575000 13288894
-0.071489 0.057300 0.573000 12560579
-0.071114 0.060257 0.570000 12761550
-0.070490 0.062957 0.565000 10127511
-0.069991 0.065717 0.561000 7561562
-0.069742 0.068677 0.559000 9212815
-0.069492 0.071614 0.557000 8155005
-0.069368 0.074663 0.556000 7954260
-0.069617 0.078120 0.558000 8217942
-0.070366 0.082183 0.564000 7299153
-0.070740 0.085860 0.567000 4141396
-0.071114 0.089571 0.570000 4337488
-0.071364 0.093154 0.572000 3878737
-0.072487 0.097940 0.581000 3483964
-0.072736 0.101609 0.583000 5979962
-0.071626 0.048306 0.583000 11579044
-0.071503 0.051549 0.582000 12035501
-0.070766 0.054309 0.576000 13158590
-0.070397 0.057300 0.573000 12429505
-0.069906 0.060151 0.569000 12630208
-0.069414 0.062957 0.565000 8813713
-0.068923 0.065717 0.561000 8417658
-0.068554 0.068554 0.558000 11050399
-0.068431 0.071614 0.557000 8880008
-0.068186 0.074529 0.555000 7822931
-0.068309 0.077840 0.556000 8218204
-0.069046 0.081891 0.562000 8086872
-0.069537 0.085709 0.566000 4402764
-0.069906 0.089414 0.569000 4471110
-0.070151 0.092991 0.571000 3747143
-0.070766 0.097097 0.576000 3157308
-0.071503 0.101434 0.582000 5385535
-0.070515 0.048306 0.583000 11247774
-0.070394 0.051549 0.582000 11640228
-0.069669 0.054309 0.576000 12629949
-0.069185 0.057200 0.572000 12559295
-0.068822 0.060151 0.569000 11838898
-0.068338 0.062957 0.565000 9136011
-0.067854 0.065717 0.561000 9932697
-0.067491 0.068554 0.558000 11840176
-0.067250 0.071486 0.556000 8681619
-0.067129 0.074529 0.555000 7363666
-0.067129 0.077700 0.555000 7625058
-0.067250 0.081017 0.556000 8548190
-0.068338 0.085557 0.565000 6376260
-0.068701 0.089257 0.568000 6510907
-0.068943 0.092829 0.570000 5983036
-0.069548 0.096929 0.575000 5258301
-0.070273 0.101260 0.581000 5450564
-0.070515 0.104940 0.583000 6704693
-0.069405 0.048306 0.583000 10918301
-0.069286 0.051549 0.582000 11179169
-0.068690 0.054403 0.577000 12173255
-0.068214 0.057300 0.573000 12630478
-0.067738 0.060151 0.569000 11049640
-0.067262 0.062957 0.565000 9403524
-0.066786 0.065717 0.561000 11445921
-0.066429 0.068554 0.558000 12560040
-0.066071 0.071357 0.555000 8482155
-0.066071 0.074529 0.555000 6903634
-0.066071 0.077700 0.555000 7098460
-0.066071 0.080871 0.555000 9005655
-0.066429 0.084497 0.558000 8344900
-0.067381 0.088943 0.566000 8542015
-0.067619 0.092503 0.568000 8147774
-0.068452 0.096929 0.575000 7293498
-0.068810 0.100737 0.578000 5516860
-0.069167 0.104580 0.581000 6572598
-0.068294 0.048306 0.583000 10918299
-0.068060 0.051460 0.581000 11046558
-0.067474 0.054309 0.576000 12828880
-0.067006 0.057200 0.572000 13290204
-0.066654 0.060151 0.569000 10852509
-0.066186 0.062957 0.565000 9602174
-0.065834 0.065834 0.562000 10919593
-0.065483 0.068677 0.559000 11576481
-0.065014 0.071357 0.555000 6044995
-0.064897 0.074394 0.554000 6575955
-0.064897 0.077560 0.554000 7099733
-0.065014 0.080871 0.555000 8546128
-0.065483 0.084649 0.559000 8083779
-0.066186 0.088786 0.565000 8213571
-0.066303 0.092177 0.566000 8081984
-0.066537 0.095749 0.568000 7491128
-0.067591 0.100563 0.577000 6768435
-0.067943 0.104400 0.580000 6900790
-0.067184 0.048306 0.583000 10918274
-0.066838 0.051371 0.580000 10852265
-0.066377 0.054309 0.576000 13550528
-0.065801 0.057100 0.571000 13878738
-0.065455 0.060046 0.568000 10724283
-0.065110 0.062957 0.565000 9798778
-0.064764 0.065834 0.562000 10395022
-0.064533 0.068800 0.560000 10587014
-0.063957 0.071357 0.555000 3670348
-0.063842 0.074394 0.554000 6244162
-0.063727 0.077420 0.553000 7100496
-0.063727 0.080580 0.553000 8086092
-0.064188 0.084346 0.557000 7820860
-0.064649 0.088157 0.561000 7885632
-0.065110 0.092014 0.565000 8015679
-0.065455 0.095749 0.568000 7687737
-0.066377 0.100389 0.576000 8017204
-0.066608 0.104040 0.578000 7163705
-0.066300 0.045129 0.585000 12821570
-0.066073 0.048306 0.583000 11509353
-0.065733 0.051371 0.580000 11247029
-0.065393 0.054403 0.577000 12297904
-0.064713 0.057100 0.571000 13746887
-0.064373 0.060046 0.568000 11776985
-0.064033 0.062957 0.565000 9732983
-0.063693 0.065834 0.562000 9864562
-0.063353 0.068677 0.559000 10584171
-0.062900 0.071357 0.555000 4071764
-0.062673 0.074260 0.553000 5255985
-0.062560 0.077280 0.552000 7166282
-0.062560 0.080434 0.552000 7756872
-0.062900 0.084043 0.555000 7689269
-0.063353 0.087843 0.559000 7754044
-0.063920 0.091851 0.564000 7884862
-0.064033 0.095243 0.565000 7228987
-0.064940 0.099866 0.573000 7687733
-0.065393 0.103860 0.577000 7295549
-0.065620 0.107529 0.579000 6835772
-0.065186 0.045129 0.585000 12885545
-0.064851 0.048223 0.582000 12099927
-0.064629 0.051371 0.580000 11640474
-0.064183 0.054309 0.576000 11108992
-0.063626 0.057100 0.571000 13614534
-0.063291 0.060046 0.568000 12832474
-0.062957 0.062957 0.565000 9604495
-0.062734 0.065951 0.563000 9405812
-0.062289 0.068677 0.559000 10587012
-0.061843 0.071357 0.555000 4471365
-0.061397 0.073991 0.551000 4207163
-0.061397 0.077140 0.551000 7297860
-0.061397 0.080289 0.551000 7359293
-0.061954 0.084194 0.556000 7556381
-0.062177 0.087686 0.558000 7558202
-0.062623 0.091526 0.562000 7754054
-0.062846 0.095074 0.564000 6704444
-0.063737 0.099691 0.572000 7424559
-0.064183 0.103680 0.576000 7426361
-0.064294 0.107157 0.577000 7032892
-0.064290 0.045283 0.587000 12753425
-0.063743 0.048223 0.582000 11969092
-0.063524 0.051371 0.580000 9997952
-0.063195 0.054403 0.577000 10649936
-0.062648 0.057200 0.572000 13550021
-0.062210 0.060046 0.568000 12763866
-0.061881 0.062957 0.565000 10983847
-0.061662 0.065951 0.563000 9800054
-0.061224 0.068677 0.559000 10921372
-0.060786 0.071357 0.555000 4537141
-0.060457 0.074126 0.552000 3287622
-0.060238 0.077000 0.550000 6245949
-0.060238 0.080143 0.550000 5578290
-0.060786 0.084043 0.555000 5384453
-0.061114 0.087686 0.558000 7624249
-0.061443 0.091363 0.561000 8083533
-0.061662 0.094906 0.563000 7163709
-0.062648 0.099691 0.572000 7425065
-0.062976 0.103500 0.575000 7688758
-0.063086 0.106971 0.576000 7164219
-0.063280 0.045360 0.588000 12621846
-0.062634 0.048223 0.582000 11905855
-0.062419 0.051371 0.580000 8353868
-0.061989 0.054309 0.576000 10197121
-0.061558 0.057200 0.572000 13418181
-0.061128 0.060046 0.568000 12632760
-0.060805 0.062957 0.565000 12365233
-0.060590 0.065951 0.563000 10193813
-0.060159 0.068677 0.559000 11247261
-0.059729 0.071357 0.555000 4534583
-0.059406 0.074126 0.552000 2305082
-0.059190 0.077000 0.550000 5197864
-0.059190 0.080143 0.550000 3817037
-0.059621 0.083891 0.554000 3214889
-0.059944 0.087529 0.557000 7619384
-0.060159 0.091037 0.559000 8478532
-0.060374 0.094569 0.561000 7623993
-0.061558 0.099691 0.572000 7490862
-0.061666 0.103140 0.573000 7885628
-0.061881 0.106786 0.575000 7295542
-0.062477 0.042214 0.591000 10056760
-0.062054 0.045283 0.587000 12621595
-0.061631 0.048306 0.583000 11773242
-0.061314 0.051371 0.580000 7827224
-0.060786 0.054214 0.575000 10920625
-0.060469 0.057200 0.572000 13220038
-0.060046 0.060046 0.568000 12299413
-0.059729 0.062957 0.565000 13224124
-0.059517 0.065951 0.563000 11248563
-0.059094 0.068677 0.559000 11313566
-0.058671 0.071357 0.555000 4405304
-0.058354 0.074126 0.552000 2960942
-0.058143 0.077000 0.550000 5128978
-0.058037 0.079997 0.549000 6909544
-0.058460 0.083740 0.553000 5785165
-0.058777 0.087371 0.556000 6172215
-0.058989 0.090874 0.558000 7163450
-0.059200 0.094400 0.560000 7624501
-0.059306 0.097774 0.561000 7754035
-0.060469 0.102960 0.572000 8345666
-0.060574 0.106414 0.573000 7559217
-0.061351 0.042214 0.591000 10253353
-0.061040 0.045360 0.588000 12556061
-0.060521 0.048306 0.583000 11645764
-0.060210 0.051371 0.580000 7239769
-0.059690 0.054214 0.575000 11709102
-0.059379 0.057200 0.572000 13023168
-0.059068 0.060151 0.569000 12037042
-0.058860 0.063180 0.567000 14010826
-0.058341 0.065834 0.562000 12236227
-0.057926 0.068554 0.558000 11311761
-0.057614 0.071357 0.555000 4337731
-0.057303 0.074126 0.552000 3616570
-0.057095 0.077000 0.550000 5055779
-0.056888 0.079851 0.548000 9990486
-0.057095 0.083286 0.550000 8351073
-0.057614 0.087214 0.555000 4666941
-0.057822 0.090711 0.557000 5914926
-0.058030 0.094231 0.559000 7555648
-0.058237 0.097774 0.561000 8017205
-0.059068 0.102420 0.569000 8804920
-0.059379 0.106229 0.572000 7756853
-0.060430 0.038969 0.593000 10257016
-0.060328 0.042286 0.592000 10119449
-0.059920 0.045360 0.588000 12688160
-0.059410 0.048306 0.583000 12562765
-0.059105 0.051371 0.580000 9743002
-0.058595 0.054214 0.575000 10918315
-0.058290 0.057200 0.572000 12362938
-0.057984 0.060151 0.569000 12630734
-0.057780 0.063180 0.567000 13419993
-0.057270 0.065834 0.562000 12302547
-0.057067 0.068800 0.560000 11116420
-0.056557 0.071357 0.555000 6113870
-0.056251 0.074126 0.552000 3748167
-0.056048 0.077000 0.550000 3019315
-0.055844 0.079851 0.548000 9269060
-0.055844 0.082983 0.548000 8416884
-0.056353 0.086900 0.553000 5191748
-0.056557 0.090386 0.555000 5717282
-0.056863 0.094063 0.558000 5712716
-0.057169 0.097774 0.561000 6308662
-0.057984 0.102420 0.569000 7229998
-0.058188 0.106043 0.571000 6506041
-0.059300 0.038969 0.593000 10456451
-0.059100 0.042214 0.591000 9985816
-0.058800 0.045360 0.588000 12754204
-0.058400 0.048389 0.584000 13548112
-0.058100 0.051460 0.581000 12168861
-0.057400 0.054120 0.574000 10124670
-0.057200 0.057200 0.572000 11639972
-0.056900 0.060151 0.569000 13223120
-0.056600 0.063069 0.566000 12827597
-0.056200 0.065834 0.562000 12431814
-0.055800 0.068554 0.558000 10849658
-0.055400 0.071229 0.554000 7953480
-0.055100 0.073991 0.551000 3886154
-0.054900 0.076860 0.549000 1049414
-0.054700 0.079706 0.547000 8477774
-0.054800 0.082983 0.548000 8547181
-0.055000 0.086429 0.550000 5722708
-0.055400 0.090223 0.554000 5590087
-0.055600 0.093726 0.556000 3811653
-0.056100 0.097774 0.561000 4599613
-0.056500 0.101700 0.565000 5585716
-0.057000 0.105857 0.570000 5258304
-0.056800 0.108731 0.568000 6176831
-0.058170 0.038969 0.593000 11048077
-0.057974 0.042214 0.591000 10119191
-0.057680 0.045360 0.588000 13084184
-0.057288 0.048389 0.584000 13482322
-0.056797 0.051283 0.579000 11445664
-0.056209 0.054026 0.573000 9003345
-0.056012 0.057100 0.571000 11571854
-0.055718 0.060046 0.568000 13485265
-0.055424 0.062957 0.565000 12496578
-0.055031 0.065717 0.561000 12101304
-0.054639 0.068431 0.557000 9469553
-0.054345 0.071229 0.554000 8283714
-0.054050 0.073991 0.551000 6384718
-0.053756 0.076720 0.548000 3879001
-0.053658 0.079706 0.547000 8149337
-0.053560 0.082680 0.546000 8546918
-0.053854 0.086271 0.549000 7169636
-0.054247 0.090060 0.553000 6970475
-0.054443 0.093557 0.555000 3352895
-0.054639 0.097077 0.557000 4009284
-0.055228 0.101340 0.563000 4400955
-0.055522 0.105114 0.566000 4401991
-0.055718 0.108731 0.568000 5321020
-0.056945 0.038903 0.592000 11573641
-0.056752 0.042143 0.590000 10315092
-0.056368 0.045206 0.586000 13411100
-0.055983 0.048223 0.582000 13416795
-0.055694 0.051283 0.579000 10720418
-0.055117 0.054026 0.573000 7886924
-0.054925 0.057100 0.571000 11444120
-0.054636 0.060046 0.568000 13748953
-0.054348 0.062957 0.565000 12170178
-0.053963 0.065717 0.561000 11837626
-0.053578 0.068431 0.557000 8091248
-0.053290 0.071229 0.554000 8676420
-0.053001 0.073991 0.551000 8810827
-0.052712 0.076720 0.548000 6713210
-0.052616 0.079706 0.547000 7828342
-0.052424 0.082529 0.545000 8546671
-0.052616 0.085957 0.547000 8611685
-0.052905 0.089571 0.550000 8350820
-0.053290 0.093389 0.554000 2897484
-0.053482 0.096903 0.556000 3484747
-0.053867 0.100800 0.560000 3222341
-0.054444 0.105114 0.566000 3549514
-0.054636 0.108731 0.568000 4468796
-0.055817 0.038903 0.592000 12164484
-0.055629 0.042143 0.590000 10386576
-0.055251 0.045206 0.586000 13281311
-0.054874 0.048223 0.582000 12363363
-0.054591 0.051283 0.579000 10718884
-0.054026 0.054026 0.573000 8413767
-0.053837 0.057100 0.571000 12233378
-0.053554 0.060046 0.568000 13814752
-0.053271 0.062957 0.565000 12497858
-0.052800 0.065600 0.560000 11969467
-0.052517 0.068431 0.557000 8351088
-0.052329 0.071357 0.555000 8348997
-0.051857 0.073857 0.550000 8616009
-0.051669 0.076720 0.548000 8620443
-0.051574 0.079706 0.547000 8882324
-0.051386 0.082529 0.545000 8743800
-0.051386 0.085643 0.545000 8546151
-0.051669 0.089246 0.548000 8481117
-0.052140 0.093220 0.553000 4801370
-0.052329 0.096729 0.555000 3222098
-0.052706 0.100620 0.559000 3091535
-0.053083 0.104557 0.563000 3155276
-0.053460 0.108540 0.567000 4006460
-0.054690 0.038903 0.592000 12748419
-0.054505 0.042143 0.590000 10522773
-0.053950 0.045051 0.584000 13146421
-0.053858 0.048306 0.583000 11310954
-0.053396 0.051194 0.578000 10718351
-0.053027 0.054120 0.574000 9006166
-0.052750 0.057100 0.571000 12957618
-0.052472 0.060046 0.568000 13879770
-0.052195 0.062957 0.565000 12761540
-0.051733 0.065600 0.560000 12100541
-0.051456 0.068431 0.557000 8551047
-0.051271 0.071357 0.555000 8019007
-0.050810 0.073857 0.550000 8351302
-0.050625 0.076720 0.548000 10594956
-0.050532 0.079706 0.547000 9866138
-0.050255 0.082377 0.544000 8940154
-0.050163 0.085329 0.543000 8415591
-0.050255 0.088594 0.544000 8677221
-0.050994 0.093051 0.552000 6706258
-0.051179 0.096554 0.554000 3024963
-0.051364 0.100080 0.556000 2961736
-0.051826 0.104186 0.561000 2825794
-0.052195 0.108157 0.565000 3549506
-0.052288 0.111583 0.566000 6505270
-0.053562 0.038903 0.592000 11042690
-0.053290 0.042071 0.589000 11046810
-0.052838 0.045051 0.584000 12487499
-0.052657 0.048223 0.582000 11177073
-0.052295 0.051194 0.578000 10518651
-0.051933 0.054120 0.574000 9335653
-0.051662 0.057100 0.571000 12828097
-0.051300 0.059940 0.567000 13353171
-0.051119 0.062957 0.565000 13023686
-0.050757 0.065717 0.561000 12299710
-0.050395 0.068431 0.557000 9405342
-0.050214 0.071357 0.555000 7625528
-0.049762 0.073857 0.550000 7693123
-0.049581 0.076720 0.548000 10392445
-0.049400 0.079560 0.546000 9733280
-0.049129 0.082226 0.543000 9006971
-0.049038 0.085171 0.542000 8416103
-0.049129 0.088431 0.543000 8612204
-0.049762 0.092714 0.550000 7890507
-0.050124 0.096554 0.554000 5722164
-0.050214 0.099900 0.555000 5527362
-0.050667 0.104000 0.560000 5063480
-0.051119 0.108157 0.565000 5124681
-0.051119 0.111386 0.565000 6307386
-0.052346 0.038837 0.591000 9333644
-0.052169 0.042071 0.589000 11568761
-0.051726 0.045051 0.584000 11837583
-0.051460 0.048140 0.581000 11109014
-0.051194 0.051194 0.578000 10327963
-0.050840 0.054120 0.574000 9728651
-0.050574 0.057100 0.571000 12694972
-0.050309 0.060046 0.568000 12893645
-0.050043 0.062957 0.565000 13286078
-0.049689 0.065717 0.561000 12497341
-0.049246 0.068309 0.556000 10197937
-0.049157 0.071357 0.555000 7230779
-0.048714 0.073857 0.550000 7035204
-0.048537 0.076720 0.548000 10199184
-0.048360 0.079560 0.546000 9540780
-0.048006 0.082074 0.542000 9074321
-0.048006 0.085171 0.542000 8348509
-0.048094 0.088431 0.543000 8546387
-0.048449 0.092209 0.547000 9070148
-0.048980 0.096380 0.553000 8478267
-0.049157 0.099900 0.555000 8018235
-0.049511 0.103814 0.559000 7362869
-0.049954 0.107966 0.564000 6638398
-0.050043 0.111386 0.565000 6175793
-0.050309 0.115223 0.568000 5916476
-0.051480 0.035640 0.594000 2966427
-0.051220 0.038837 0.591000 6179733
-0.051047 0.042071 0.589000 11701592
-0.050613 0.045051 0.584000 12501204
-0.050440 0.048223 0.582000 11969722
-0.050093 0.051194 0.578000 11582140
-0.049660 0.054026 0.573000 11247793
-0.049487 0.057100 0.571000 12430776
-0.049227 0.060046 0.568000 12431302
-0.048967 0.062957 0.565000 13352119
-0.048620 0.065717 0.561000 12761532
-0.048187 0.068309 0.556000 12039620
-0.048013 0.071229 0.554000 7036222
-0.047667 0.073857 0.550000 6443333
-0.047493 0.076720 0.548000 10986403
-0.047320 0.079560 0.546000 10920377
-0.046973 0.082074 0.542000 9471398
-0.046973 0.085171 0.542000 8214100
-0.046973 0.088269 0.542000 8414010
-0.047233 0.091871 0.545000 8610622
-0.047840 0.096206 0.552000 7950913
-0.048013 0.099720 0.554000 7557685
-0.048187 0.103257 0.556000 7099698
-0.048793 0.107774 0.563000 7169587
-0.048967 0.111386 0.565000 7231527
-0.049140 0.115020 0.567000 6838083
-0.050349 0.035640 0.594000 3034779
-0.050094 0.038837 0.591000 2967445
-0.049925 0.042071 0.589000 11831428
-0.049501 0.045051 0.584000 13085617
-0.049331 0.048223 0.582000 12886420
-0.048992 0.051194 0.578000 12820371
-0.048569 0.054026 0.573000 12695460
-0.048399 0.057100 0.571000 12168120
-0.048060 0.059940 0.567000 11905962
-0.047890 0.062957 0.565000 13414514
-0.047467 0.065600 0.560000 13024693
-0.047128 0.068309 0.556000 13879255
-0.046958 0.071229 0.554000 6836031
-0.046619 0.073857 0.550000 5854787
-0.046450 0.076720 0.548000 11713188
-0.046195 0.079414 0.545000 12299460
-0.045941 0.082074 0.542000 9936804
-0.045941 0.085171 0.542000 8020306
-0.045941 0.088269 0.542000 8281654
-0.046026 0.091534 0.543000 8151090
-0.046450 0.095509 0.548000 7424060
-0.046873 0.099540 0.553000 7031857
-0.047043 0.103071 0.555000 6901042
-0.047636 0.107583 0.562000 7689525
-0.047806 0.111189 0.564000 8347954
-0.047975 0.114817 0.566000 7755585
-0.049300 0.035700 0.595000 3230875
-0.048969 0.038837 0.591000 3023253
-0.048720 0.042000 0.588000 11969456
-0.048389 0.045051 0.584000 11821967
-0.048223 0.048223 0.582000 12620142
-0.047891 0.051194 0.578000 12420457
-0.047477 0.054026 0.573000 12229783
-0.047311 0.057100 0.571000 12430520
-0.046980 0.059940 0.567000 12561293
-0.046814 0.062957 0.565000 13610028
-0.046400 0.065600 0.560000 13483949
-0.046151 0.068431 0.557000 14147561
-0.045903 0.071229 0.554000 6575423
-0.045571 0.073857 0.550000 5722946
-0.045406 0.076720 0.548000 11643812
-0.045240 0.079560 0.546000 13023440
-0.044909 0.082074 0.542000 10788002
-0.044743 0.084857 0.540000 8151888
-0.044909 0.088269 0.542000 7950130
-0.044991 0.091534 0.543000 8216870
-0.045323 0.095334 0.547000 7556918
-0.045654 0.099180 0.551000 6704174
-0.045820 0.102700 0.553000 6438194
-0.046483 0.107391 0.561000 6767415
-0.046566 0.110794 0.562000 7161916
-0.046814 0.114614 0.565000 7294016
-0.048490 0.032517 0.599000 3693996
-0.048167 0.035700 0.595000 3493016
-0.047924 0.038903 0.592000 3038625
-0.047600 0.042000 0.588000 12106646
-0.047276 0.045051 0.584000 10519956
-0.047033 0.048140 0.581000 12363658
-0.046790 0.051194 0.578000 12033675
-0.046386 0.054026 0.573000 11767941
-0.046143 0.057000 0.570000 12629434
-0.045819 0.059834 0.566000 13216872
-0.045738 0.062957 0.565000 13742116
-0.045414 0.065717 0.561000 13877379
-0.045010 0.068309 0.556000 14340828
-0.044848 0.071229 0.554000 6305079
-0.044605 0.073991 0.551000 5592888
-0.044362 0.076720 0.548000 11577238
-0.044119 0.079414 0.545000 13681622
-0.043876 0.082074 0.542000 11638458
-0.043795 0.085014 0.541000 8223091
-0.043795 0.088106 0.541000 7620122
-0.043876 0.091366 0.542000 8277534
-0.044200 0.095160 0.546000 7755588
-0.044443 0.098820 0.549000 6375220
-0.044686 0.102514 0.552000 6042930
-0.045333 0.107200 0.560000 5783083
-0.045414 0.110597 0.561000 5979185
-0.045738 0.114614 0.565000 6833205
-0.047350 0.032517 0.599000 3160239
-0.047112 0.035760 0.596000 3815829
-0.046796 0.038903 0.592000 8035757
-0.046559 0.042071 0.589000 11964540
-0.046164 0.045051 0.584000 12429209
-0.045927 0.048140 0.581000 13022886
-0.045769 0.051283 0.579000 12958381
-0.045294 0.054026 0.573000 12294771
-0.045057 0.057000 0.570000 13222844
-0.044820 0.059940 0.567000 13347907
-0.044662 0.062957 0.565000 14004763
-0.044267 0.065600 0.560000 14139737
-0.044030 0.068431 0.557000 13554384
-0.043792 0.071229 0.554000 4073262
-0.043555 0.073991 0.551000 5000750
-0.043318 0.076720 0.548000 11509639
-0.043081 0.079414 0.545000 13552604
-0.042844 0.082074 0.542000 11840721
-0.042686 0.084857 0.540000 9735062
-0.042686 0.087943 0.540000 7028994
-0.042765 0.091197 0.541000 7026454
-0.043081 0.094986 0.545000 7690834
-0.043318 0.098640 0.548000 6572857
-0.043476 0.102143 0.550000 5979185
-0.044030 0.106626 0.557000 5848607
-0.044346 0.110597 0.561000 6111270
-0.044583 0.114411 0.564000 6634539
-0.046209 0.032517 0.599000 2638244
-0.045977 0.035760 0.596000 4143775
-0.045746 0.038969 0.593000 12950172
-0.045360 0.042000 0.588000 11895947
-0.045051 0.045051 0.584000 14332832
-0.044820 0.048140 0.581000 13679273
-0.044589 0.051194 0.578000 13806225
-0.044203 0.054026 0.573000 12818819
-0.043971 0.057000 0.570000 13744038
-0.043663 0.059834 0.566000 13478178
-0.043586 0.062957 0.565000 14199840
-0.043277 0.065717 0.561000 14335299
-0.042891 0.068309 0.556000 12692150
-0.042737 0.071229 0.554000 1900922
-0.042506 0.073991 0.551000 4406579
-0.042274 0.076720 0.548000 11518380
-0.042043 0.079414 0.545000 13354716
-0.041811 0.082074 0.542000 12042973
-0.041657 0.084857 0.540000 11177643
-0.041349 0.087291 0.536000 6501945
-0.041580 0.090860 0.539000 5715733
-0.041889 0.094637 0.543000 7627075
-0.042274 0.098640 0.548000 6768956
-0.042351 0.101957 0.549000 5914427
-0.042814 0.106243 0.555000 5913895
-0.043046 0.110006 0.558000 6243120
-0.043277 0.113803 0.561000 6438193
-0.043586 0.117843 0.565000 7362626
-0.045293 0.029240 0.602000 8620700
-0.045068 0.032517 0.599000 2246810
-0.044842 0.035760 0.596000 7105960
-0.044541 0.038903 0.592000 12289676
-0.044240 0.042000 0.588000 12952729
-0.043939 0.045051 0.584000 14071207
-0.043789 0.048223 0.582000 12953772
-0.043412 0.051106 0.577000 12358005
-0.043111 0.054026 0.573000 13018258
-0.042886 0.057000 0.570000 12888719
-0.042585 0.059834 0.566000 12291073
-0.042510 0.062957 0.565000 13475108
-0.042209 0.065717 0.561000 14137644
-0.041832 0.068309 0.556000 10717085
-0.041682 0.071229 0.554000 6317253
-0.041456 0.073991 0.551000 3876664
-0.041230 0.076720 0.548000 12371408
-0.041080 0.079560 0.546000 13551324
-0.040704 0.081923 0.541000 12896745
-0.040553 0.084700 0.539000 10918080
-0.040403 0.087454 0.537000 7426671
-0.040478 0.090691 0.538000 5847572
-0.040779 0.094463 0.542000 7622707
-0.041155 0.098460 0.547000 7096383
-0.041306 0.101957 0.549000 6243396
-0.041607 0.105860 0.553000 5912623
-0.041832 0.109611 0.556000 6111033
-0.042058 0.113397 0.559000 5978168
-0.042510 0.117843 0.565000 7425607
-0.044220 0.029289 0.603000 5925267
-0.044000 0.032571 0.600000 1783710
-0.043707 0.035760 0.596000 10070950
-0.043413 0.038903 0.592000 11573396
-0.043120 0.042000 0.588000 14006681
-0.042827 0.045051 0.584000 13743007
-0.042607 0.048140 0.581000 12232617
-0.042313 0.051106 0.577000 10911342
-0.042020 0.054026 0.573000 13285528
-0.041800 0.057000 0.570000 12032914
-0.041507 0.059834 0.566000 11105553
-0.041433 0.062957 0.565000 12685850
-0.041140 0.065717 0.561000 14007321
-0.040847 0.068431 0.557000 8688053
-0.040627 0.071229 0.554000 10673890
-0.040333 0.073857 0.550000 3365229
-0.040187 0.076720 0.548000 13226443
-0.040040 0.079560 0.546000 13749216
-0.039673 0.081923 0.541000 13818858
-0.039527 0.084700 0.539000 10657216
-0.039307 0.087291 0.536000 8353436
-0.039307 0.090354 0.536000 5978922
-0.039747 0.094463 0.542000 7686702
-0.040040 0.098280 0.546000 7362885
-0.040187 0.101771 0.548000 6573374
-0.040480 0.105669 0.552000 5849402
-0.040773 0.109611 0.556000 6044208
-0.040847 0.112991 0.557000 5455406
-0.041287 0.117426 0.563000 7489338
-0.043071 0.029289 0.603000 4413065
-0.042857 0.032571 0.600000 4137635
-0.042500 0.035700 0.595000 11248035
-0.042286 0.038903 0.592000 12693404
-0.042000 0.042000 0.588000 13874584
-0.041643 0.044974 0.583000 14005144
-0.041500 0.048140 0.581000 12427942
-0.041214 0.051106 0.577000 10777448
-0.040929 0.054026 0.573000 13086110
-0.040714 0.057000 0.570000 11836310
-0.040429 0.059834 0.566000 10382112
-0.040357 0.062957 0.565000 11171856
-0.040071 0.065717 0.561000 13612038
-0.039786 0.068431 0.557000 11114445
-0.039571 0.071229 0.554000 13033726
-0.039286 0.073857 0.550000 6712481
-0.039071 0.076580 0.547000 12433605
-0.039000 0.079560 0.546000 13748452
-0.038714 0.082074 0.542000 13685226
-0.038500 0.084700 0.539000 10983616
-0.038286 0.087291 0.536000 10592969
-0.038286 0.090354 0.536000 7688256
-0.038643 0.094289 0.541000 8477736
-0.038857 0.097920 0.544000 8350282
-0.039143 0.101771 0.548000 8021048
-0.039357 0.105477 0.551000 7429700
-0.039643 0.109414 0.555000 7491878
-0.039714 0.112789 0.556000 6835748
-0.040071 0.117009 0.561000 7557420
-0.041992 0.025886 0.604000 10718087
-0.041923 0.029289 0.603000 2899862
-0.041714 0.032571 0.600000 6449318
-0.041367 0.035700 0.595000 12425881
-0.041228 0.038969 0.593000 13798520
-0.040880 0.042000 0.588000 13808795
-0.040532 0.044974 0.583000 14267037
-0.040324 0.048057 0.580000 12562604
-0.040115 0.051106 0.577000 10643072
-0.039837 0.054026 0.573000 12958625
-0.039629 0.057000 0.570000 11637134
-0.039350 0.059834 0.566000 9659413
-0.039281 0.062957 0.565000 9661205
-0.039003 0.065717 0.561000 13220109
-0.038725 0.068431 0.557000 13553375
-0.038586 0.071357 0.555000 15458551
-0.038238 0.073857 0.550000 10002110
-0.038030 0.076580 0.547000 11647152
-0.037890 0.079414 0.545000 13746902
-0.037682 0.082074 0.542000 13552600
-0.037473 0.084700 0.539000 11249089
-0.037265 0.087291 0.536000 12894920
-0.037265 0.090354 0.536000 9337960
-0.037612 0.094289 0.541000 9336147
-0.037821 0.097920 0.544000 9335906
-0.038030 0.101586 0.547000 9464117
-0.038308 0.105477 0.551000 9003075
-0.038516 0.109217 0.554000 8936010
-0.038586 0.112586 0.555000 8214858
-0.038864 0.116591 0.559000 7688772
-0.040842 0.025886 0.604000 6912389
-0.040774 0.029289 0.603000 3159202
-0.040571 0.032571 0.600000 9609640
-0.040233 0.035700 0.595000 12689807
-0.040030 0.038903 0.592000 12465492
-0.039760 0.042000 0.588000 13872541
-0.039490 0.045051 0.584000 12888227
-0.039219 0.048057 0.580000 12825010
-0.039016 0.051106 0.577000 11366808
-0.038746 0.054026 0.573000 13086884
-0.038543 0.057000 0.570000 11177606
-0.038340 0.059940 0.567000 9725193
-0.038205 0.062957 0.565000 9921307
-0.037867 0.065600 0.560000 13217043
-0.037664 0.068431 0.557000 14147825
-0.037529 0.071357 0.555000 15130352
-0.037190 0.073857 0.550000 11845339
-0.037055 0.076720 0.548000 10917786
-0.036852 0.079414 0.545000 13746632
-0.036650 0.082074 0.542000 13155526
-0.036447 0.084700 0.539000 11577794
-0.036244 0.087291 0.536000 12759239
-0.036379 0.090691 0.538000 11048593
-0.036582 0.094289 0.541000 10981501
-0.036785 0.097920 0.544000 9929083
-0.036988 0.101586 0.547000 7289906
-0.037258 0.105477 0.551000 8147777
-0.037461 0.109217 0.554000 9334894
-0.037529 0.112586 0.555000 9071217
-0.037867 0.116800 0.560000 8413788
-0.039691 0.025886 0.604000 3101580
-0.039626 0.029289 0.603000 3489696
-0.039429 0.032571 0.600000 12688295
-0.039100 0.035700 0.595000 12953501
-0.038903 0.038903 0.592000 11162443
-0.038640 0.042000 0.588000 13938851
-0.038311 0.044974 0.583000 11505808
-0.038114 0.048057 0.580000 13023653
-0.037851 0.051017 0.576000 12095383
-0.037589 0.053931 0.572000 13286304
-0.037457 0.057000 0.570000 10717574
-0.037260 0.059940 0.567000 9791318
-0.037063 0.062846 0.564000 10119953
-0.036800 0.065600 0.560000 13215517
-0.036669 0.068554 0.558000 14735079
-0.036471 0.071357 0.555000 14801391
-0.036143 0.073857 0.550000 13616351
-0.036011 0.076720 0.548000 10258314
-0.035814 0.079414 0.545000 13681091
-0.035617 0.082074 0.542000 12824765
-0.035486 0.084857 0.540000 11903666
-0.035223 0.087291 0.536000 12625577
-0.035289 0.090523 0.537000 12754316
-0.035551 0.094289 0.541000 12625278
-0.035749 0.097920 0.544000 10523015
-0.035946 0.101586 0.547000 5128029
-0.036143 0.105286 0.550000 7300198
-0.036406 0.109217 0.554000 9803405
-0.036471 0.112586 0.555000 9865357
-0.036800 0.116800 0.560000 9137254
-0.038605 0.025929 0.605000 3817108
-0.038413 0.029240 0.602000 5398686
-0.038222 0.032517 0.599000 12162215
-0.037903 0.035640 0.594000 13281194
-0.037711 0.038837 0.591000 11600194
-0.037520 0.042000 0.588000 14070440
-0.037201 0.044974 0.583000 10577022
-0.037010 0.048057 0.580000 11832215
-0.036754 0.051017 0.576000 13083287
-0.036499 0.053931 0.572000 13217692
-0.036435 0.057100 0.571000 10587270
-0.036180 0.059940 0.567000 10915491
-0.036052 0.062957 0.565000 10185992
-0.035733 0.065600 0.560000 12293158
-0.035606 0.068554 0.558000 13614812
-0.035414 0.071357 0.555000 14736621
-0.035095 0.073857 0.550000 13684964
-0.034904 0.076580 0.547000 9927289
-0.034776 0.079414 0.545000 13552319
-0.034585 0.082074 0.542000 12430260
-0.034393 0.084700 0.539000 11569569
-0.034266 0.087454 0.537000 12624266
-0.034266 0.090523 0.537000 12688775
-0.034585 0.094463 0.542000 12492671
-0.034776 0.098100 0.545000 11250323
-0.034968 0.101771 0.548000 8748167
-0.035159 0.105477 0.551000 9671307
-0.035350 0.109217 0.554000 10789803
-0.035478 0.112789 0.556000 11250602
-0.035733 0.116800 0.560000 10848623
-0.037638 0.022583 0.608000 6315662
-0.037452 0.025929 0.605000 4474007
-0.037267 0.029240 0.602000 7302834
-0.037081 0.032517 0.599000 11640731
-0.036833 0.035700 0.595000 13610136
-0.036648 0.038903 0.592000 12021108
-0.036462 0.042071 0.589000 14202272
-0.036029 0.044897 0.582000 9599113
-0.035905 0.048057 0.580000 10653595
-0.035657 0.051017 0.576000 14003105
-0.035410 0.053931 0.572000 13218711
-0.035286 0.057000 0.570000 10391445
-0.035100 0.059940 0.567000 12109253
-0.034914 0.062846 0.564000 10254133
-0.034667 0.065600 0.560000 11442022
-0.034543 0.068554 0.558000 12433866
-0.034357 0.071357 0.555000 14673132
-0.034048 0.073857 0.550000 13748706
-0.033862 0.076580 0.547000 9597053
-0.033676 0.079269 0.544000 13415596
-0.033552 0.082074 0.542000 12034485
-0.033429 0.084857 0.540000 11180960
-0.033243 0.087454 0.537000 12689290
-0.033367 0.090860 0.539000 12557190
-0.033552 0.094463 0.542000 12425857
-0.033800 0.098280 0.546000 11900810
-0.033924 0.101771 0.548000 12356735
-0.034233 0.105860 0.553000 12030333
-0.034357 0.109414 0.555000 11771781
-0.034481 0.112991 0.557000 12556672
-0.034667 0.116800 0.560000 12622455
-0.036420 0.022546 0.607000 4739981
-0.036300 0.025929 0.605000 2967705
-0.036120 0.029240 0.602000 9078982
-0.035880 0.032463 0.598000 12757135
-0.035640 0.035640 0.594000 13340294
-0.035520 0.038903 0.592000 13016487
-0.035280 0.042000 0.588000 13082008
-0.034920 0.044897 0.582000 10453653
-0.034800 0.048057 0.580000 12099487
-0.034680 0.051194 0.578000 14005931
-0.034320 0.053931 0.572000 13084817
-0.034200 0.057000 0.570000 10128291
-0.034080 0.060046 0.568000 12567782
