# .PCD v.7 - Point Cloud Data file format
VERSION .7
FIELDS x y z rgb
SIZE 4 4 4 4
TYPE F F F I
COUNT 1 1 1 1
WIDTH 1302
HEIGHT 1
POINTS 1302
DATA ascii
-0.047195 0.033870 0.583000 6374977
-0.047519 0.037456 0.587000 2894410
-0.047600 0.040880 0.588000 3222606
-0.047681 0.044315 0.589000 3288142
-0.048167 0.048167 0.595000 3222095
-0.048410 0.051827 0.598000 5123407
-0.048571 0.055429 0.600000 5980712
-0.047191 0.003980 0.597000 12495281
-0.047033 0.007367 0.595000 15261660
-0.046559 0.010658 0.589000 13482191
-0.046164 0.013905 0.584000 13877729
-0.045848 0.017124 0.580000 14407668
-0.045531 0.020297 0.576000 10913456
-0.045373 0.023507 0.574000 9138542
-0.045452 0.026833 0.575000 8744287
-0.045610 0.030224 0.577000 8938799
-0.046006 0.033811 0.582000 6702142
-0.046322 0.037392 0.586000 2959940
-0.046480 0.040880 0.588000 3223118
-0.046559 0.044315 0.589000 3222351
-0.046954 0.048086 0.594000 3222098
-0.047191 0.051740 0.597000 4928078
-0.047429 0.055429 0.600000 5981474
-0.046286 0.000571 0.600000 12429181
-0.046054 0.003980 0.597000 12360373
-0.045823 0.007354 0.594000 15518165
-0.045360 0.010640 0.588000 14073555
-0.044974 0.013881 0.583000 13812701
-0.044666 0.017094 0.579000 14472678
-0.044357 0.020262 0.575000 10983604
-0.044280 0.023507 0.574000 9268845
-0.044357 0.026833 0.575000 9269611
-0.044434 0.030171 0.576000 9070366
-0.044820 0.033753 0.581000 6965816
-0.045206 0.037392 0.586000 2959947
-0.045283 0.040810 0.587000 3222862
-0.045437 0.044315 0.589000 3222094
-0.045746 0.048005 0.593000 3222349
-0.046054 0.051740 0.597000 4728654
-0.046209 0.055336 0.599000 5919030
-0.045143 0.000571 0.600000 13282911
-0.044917 0.003980 0.597000 12165561
-0.044691 0.007354 0.594000 14728398
-0.044240 0.010640 0.588000 13811926
-0.043864 0.013881 0.583000 13745626
-0.043563 0.017094 0.579000 14207448
-0.043262 0.020262 0.575000 11443897
-0.043111 0.023466 0.573000 9335404
-0.043187 0.026787 0.574000 9664119
-0.043337 0.030171 0.576000 9201933
-0.043638 0.033695 0.580000 7295538
-0.044014 0.037329 0.585000 3090513
-0.044165 0.040810 0.587000 3157326
-0.044315 0.044315 0.589000 3156812
-0.044541 0.047924 0.592000 3156809
-0.044842 0.051653 0.596000 4401742
-0.045068 0.055336 0.599000 7364427
-0.044293 -0.002876 0.604000 12218921
-0.044000 0.000571 0.600000 14069595
-0.043780 0.003980 0.597000 11970486
-0.043560 0.007354 0.594000 13875662
-0.043120 0.010640 0.588000 13613772
-0.042680 0.013857 0.582000 13681884
-0.042387 0.017065 0.578000 14009039
-0.042167 0.020262 0.575000 11837090
-0.041947 0.023425 0.572000 9467752
-0.042020 0.026740 0.573000 9992048
-0.042167 0.030119 0.575000 9333797
-0.042460 0.033637 0.579000 7557424
-0.042753 0.037201 0.583000 3221842
-0.042973 0.040741 0.586000 3026254
-0.043193 0.044315 0.589000 3091276
-0.043340 0.047843 0.591000 3091274
-0.043633 0.051567 0.595000 4138317
-0.043853 0.055244 0.598000 8740425
-0.043143 -0.002876 0.604000 12088862
-0.042786 0.000570 0.599000 14399063
-0.042571 0.003973 0.596000 12099507
-0.042357 0.007342 0.593000 14271950
-0.041857 0.010604 0.586000 13679553
-0.041571 0.013857 0.582000 13813471
-0.041286 0.017065 0.578000 12365253
-0.041071 0.020262 0.575000 10066059
-0.040857 0.023425 0.572000 8152932
-0.040929 0.026740 0.573000 9336169
-0.041071 0.030119 0.575000 9333052
-0.041357 0.033637 0.579000 7753006
-0.041500 0.037073 0.581000 3484242
-0.041714 0.040602 0.584000 3091534
-0.042000 0.044240 0.588000 3091275
-0.042214 0.047843 0.591000 3025483
-0.042429 0.051480 0.594000 3875915
-0.042643 0.055151 0.597000 8478279
-0.041992 -0.002876 0.604000 11959860
-0.041645 0.000570 0.599000 14727247
-0.041436 0.003973 0.596000 12231095
-0.041228 0.007342 0.593000 14667225
-0.040671 0.010586 0.585000 13745622
-0.040393 0.013833 0.581000 13941195
-0.040185 0.017065 0.578000 10718613
-0.039976 0.020262 0.575000 8219247
-0.039698 0.023384 0.571000 6836020
-0.039768 0.026693 0.572000 8609869
-0.039907 0.030067 0.574000 9331783
-0.040185 0.033579 0.578000 7951409
-0.040324 0.037010 0.580000 3746386
-0.040532 0.040532 0.583000 3156814
-0.040880 0.044240 0.588000 3091275
-0.041019 0.047762 0.590000 2960204
-0.041228 0.051393 0.593000 3615563
-0.041506 0.055151 0.597000 8213322
-0.040977 -0.006349 0.606000 11107183
-0.040774 -0.002871 0.603000 12290377
-0.040504 0.000570 0.599000 14990919
-0.040233 0.003967 0.595000 12101051
-0.040030 0.007330 0.592000 14472421
-0.039557 0.010586 0.585000 13879274
-0.039354 0.013857 0.582000 12363191
-0.039151 0.017094 0.579000 9200997
-0.038881 0.020262 0.575000 8082771
-0.038610 0.023384 0.571000 6304260
-0.038678 0.026693 0.572000 8472881
-0.038813 0.030067 0.574000 9333586
-0.039084 0.033579 0.578000 8213044
-0.039219 0.037010 0.580000 4074834
-0.039354 0.040463 0.582000 3222350
-0.039692 0.044165 0.587000 3025739
-0.039828 0.047681 0.589000 2960206
-0.040030 0.051307 0.592000 3221066
-0.040301 0.055059 0.596000 7754317
-0.039823 -0.006349 0.606000 11373940
-0.039626 -0.002871 0.603000 12620866
-0.039363 0.000570 0.599000 15185229
-0.039100 0.003967 0.595000 11901567
-0.038903 0.007330 0.592000 14203068
-0.038443 0.010586 0.585000 14014691
-0.038180 0.013833 0.581000 10719656
-0.037983 0.017065 0.578000 7693440
-0.037786 0.020262 0.575000 7960699
-0.037523 0.023384 0.571000 5848891
-0.037523 0.026647 0.571000 8281678
-0.037654 0.030014 0.573000 9335386
-0.037983 0.033579 0.578000 8411710
-0.038114 0.037010 0.580000 4402259
-0.038180 0.040393 0.581000 3222096
-0.038509 0.044090 0.586000 2960462
-0.038640 0.047600 0.588000 2960461
-0.038837 0.051220 0.591000 2894149
-0.039100 0.054967 0.595000 7226441
-0.038669 -0.006349 0.606000 11243386
-0.038477 -0.002871 0.603000 12620858
-0.038222 0.000570 0.599000 14792787
-0.037967 0.003967 0.595000 9729859
-0.037775 0.007330 0.592000 13403027
-0.037392 0.010604 0.586000 13879260
-0.037073 0.013833 0.581000 10716570
-0.036882 0.017065 0.578000 9669018
-0.036690 0.020262 0.575000 10000036
-0.036435 0.023384 0.571000 7562609
-0.036435 0.026647 0.571000 8482411
-0.036499 0.029962 0.572000 9203553
-0.036818 0.033521 0.577000 8608839
-0.036946 0.036946 0.579000 4403796
-0.037073 0.040393 0.581000 3091025
-0.037329 0.044014 0.585000 2828881
-0.037520 0.047600 0.588000 3157325
-0.037711 0.051220 0.591000 2959680
-0.037903 0.054874 0.594000 6832453
-0.037886 -0.009909 0.612000 8217005
-0.037514 -0.006349 0.606000 11046778
-0.037329 -0.002871 0.603000 12687415
-0.037081 0.000570 0.599000 14397797
-0.036833 0.003967 0.595000 7571521
-0.036648 0.007330 0.592000 12559282
-0.036214 0.010586 0.585000 13749483
-0.035967 0.013833 0.581000 10652831
-0.035719 0.017035 0.577000 11645873
-0.035595 0.020262 0.575000 11968688
-0.035286 0.023343 0.570000 9270896
-0.035286 0.026600 0.570000 8678249
-0.035410 0.029962 0.572000 9072231
-0.035595 0.033405 0.575000 8742491
-0.035843 0.036946 0.579000 4470348
-0.035905 0.040324 0.580000 2894930
-0.036152 0.043939 0.584000 2697043
-0.036400 0.047600 0.588000 3287633
-0.036524 0.051133 0.590000 3025993
-0.036710 0.054782 0.593000 6437698
-0.036780 -0.009925 0.613000 7692464
-0.036420 -0.006359 0.607000 11374971
-0.036120 -0.002867 0.602000 13607988
-0.035880 0.000570 0.598000 14531703
-0.035700 0.003967 0.595000 9472318
-0.035520 0.007330 0.592000 13352146
-0.035100 0.010586 0.585000 14143737
-0.034860 0.013833 0.581000 10782373
-0.034620 0.017035 0.577000 12104903
-0.034500 0.020262 0.575000 12364220
-0.034200 0.023343 0.570000 9205614
-0.034200 0.026600 0.570000 8611431
-0.034260 0.029910 0.571000 9072748
-0.034500 0.033405 0.575000 9073776
-0.034620 0.036818 0.577000 4994372
-0.034800 0.040324 0.580000 4403028
-0.034980 0.043864 0.583000 4272981
-0.035220 0.047519 0.587000 3549526
-0.035400 0.051133 0.590000 2696785
-0.035580 0.054782 0.593000 6043456
-0.035903 -0.013537 0.618000 7169714
-0.035554 -0.009909 0.612000 7169967
-0.035264 -0.006359 0.607000 11703170
-0.034973 -0.002867 0.602000 14529859
-0.034799 0.000570 0.599000 14664574
-0.034567 0.003967 0.595000 11442827
-0.034334 0.007317 0.591000 14074833
-0.033986 0.010586 0.585000 14536178
-0.033753 0.013833 0.581000 10851230
-0.033463 0.017006 0.576000 12496544
-0.033347 0.020227 0.574000 12756654
-0.033056 0.023302 0.569000 9205860
-0.033056 0.026553 0.569000 8541522
-0.033172 0.029910 0.571000 9072493
-0.033347 0.033347 0.574000 9335405
-0.033521 0.036818 0.577000 5519162
-0.033695 0.040324 0.580000 5849161
-0.033811 0.043789 0.582000 5851210
-0.034102 0.047519 0.587000 3815493
-0.034218 0.051047 0.589000 2433871
-0.034392 0.054690 0.592000 5648453
-0.034670 -0.013515 0.617000 4670638
-0.034389 -0.009909 0.612000 7299758
-0.034108 -0.006359 0.607000 12031882
-0.033827 -0.002867 0.602000 14332241
-0.033658 0.000570 0.599000 14666886
-0.033433 0.003967 0.595000 11971800
-0.033209 0.007317 0.591000 13943760
-0.032928 0.010604 0.586000 14338794
-0.032590 0.013810 0.580000 11243928
-0.032366 0.017006 0.576000 11573112
-0.032253 0.020227 0.574000 10986145
-0.031972 0.023302 0.569000 8150105
-0.031972 0.026553 0.569000 6826557
-0.032085 0.029910 0.571000 8940141
-0.032253 0.033347 0.574000 9533547
-0.032366 0.036754 0.576000 7032368
-0.032534 0.040254 0.579000 7430206
-0.032703 0.043789 0.582000 7428159
-0.032928 0.047438 0.586000 6314292
-0.033096 0.051047 0.589000 4601932
-0.033265 0.054690 0.592000 5123659
-0.033490 0.058465 0.596000 7492143
-0.033766 -0.017179 0.622000 11982274
-0.033494 -0.013515 0.617000 2113455
-0.033277 -0.009925 0.613000 7428272
-0.032951 -0.006359 0.607000 12295310
-0.032680 -0.002867 0.602000 14201685
-0.032517 0.000570 0.599000 14664080
-0.032246 0.003960 0.594000 12426402
-0.032083 0.007317 0.591000 13742007
-0.031811 0.010604 0.586000 14141904
-0.031540 0.013833 0.581000 11575982
-0.031269 0.017006 0.576000 10583677
-0.031106 0.020191 0.573000 9137279
-0.030834 0.023261 0.568000 7089989
-0.030834 0.026507 0.568000 5129550
-0.030997 0.029910 0.571000 8875107
-0.031106 0.033289 0.573000 9728612
-0.031269 0.036754 0.576000 8541503
-0.031431 0.040254 0.579000 9003078
-0.031540 0.043713 0.581000 8936264
-0.031757 0.047357 0.585000 8804151
-0.031920 0.050960 0.588000 6770755
-0.032137 0.054690 0.592000 4535623
-0.032354 0.058465 0.596000 7426869
-0.032581 -0.017179 0.622000 8618174
-0.032319 -0.013515 0.617000 3822512
-0.032057 -0.009909 0.612000 6181553
-0.031848 -0.006370 0.608000 12557202
-0.031533 -0.002867 0.602000 12949848
-0.031376 0.000570 0.599000 13415835
-0.031114 0.003960 0.594000 10647916
-0.030905 0.007305 0.590000 13143454
-0.030695 0.010604 0.586000 14007733
-0.030433 0.013833 0.581000 12893123
-0.030171 0.017006 0.576000 10849153
-0.029962 0.020156 0.572000 6766173
-0.029752 0.023261 0.568000 6502193
-0.029752 0.026507 0.568000 6379104
-0.029910 0.029910 0.571000 8677209
-0.030014 0.033289 0.573000 9400670
-0.030171 0.036754 0.576000 8673613
-0.030276 0.040185 0.578000 8872526
-0.030381 0.043638 0.580000 8935760
-0.030590 0.047276 0.584000 8737083
-0.030748 0.050873 0.587000 7819834
-0.030957 0.054597 0.591000 5980740
-0.031497 -0.020800 0.624000 12689060
-0.031396 -0.017179 0.622000 5251512
-0.031144 -0.013515 0.617000 5460653
-0.030891 -0.009909 0.612000 4931267
-0.030690 -0.006370 0.608000 12825261
-0.030387 -0.002867 0.602000 11767965
-0.030185 0.000570 0.598000 12165284
-0.029983 0.003960 0.594000 8808571
-0.029781 0.007305 0.590000 12557218
-0.029478 0.010568 0.584000 13877196
-0.029327 0.013833 0.581000 14208471
-0.029125 0.017035 0.577000 11179673
-0.028872 0.020156 0.572000 4344937
-0.028670 0.023261 0.568000 5912119
-0.028670 0.026507 0.568000 7625567
-0.028721 0.029805 0.569000 8544601
-0.028872 0.033230 0.572000 9072475
-0.029024 0.036690 0.575000 8804422
-0.029175 0.040185 0.578000 8738883
-0.029276 0.043638 0.580000 8869962
-0.029428 0.047195 0.583000 8671290
-0.029630 0.050873 0.587000 8933948
-0.029781 0.054505 0.590000 7361608
-0.030033 0.058367 0.595000 7689019
-0.030309 -0.020800 0.624000 9276587
-0.030211 -0.017179 0.622000 4407730
-0.029969 -0.013515 0.617000 4541610
-0.029677 -0.009892 0.611000 8286677
-0.029483 -0.006359 0.607000 13818568
-0.029240 -0.002867 0.602000 12957153
-0.029046 0.000570 0.598000 12030638
-0.028851 0.003960 0.594000 9270153
-0.028560 0.007280 0.588000 12818854
-0.028366 0.010568 0.584000 14338786
-0.028171 0.013810 0.580000 14806252
-0.028026 0.017035 0.577000 11642544
-0.027734 0.020121 0.571000 4345718
-0.027589 0.023261 0.568000 5782845
-0.027540 0.026460 0.567000 7756893
-0.027589 0.029752 0.568000 8347736
-0.027783 0.033230 0.572000 8941401
-0.027880 0.036627 0.574000 8540990
-0.027977 0.040046 0.576000 8208440
-0.028123 0.043563 0.579000 8607300
-0.028317 0.047195 0.583000 8540218
-0.028463 0.050787 0.586000 8672830
-0.028609 0.054412 0.589000 8020812
-0.028851 0.058269 0.594000 7754555
-0.029353 -0.024561 0.629000 11508631
-0.029167 -0.020833 0.625000 5856683
-0.029027 -0.017179 0.622000 3626157
-0.028793 -0.013515 0.617000 3566781
-0.028560 -0.009909 0.612000 11648968
-0.028327 -0.006359 0.607000 14725037
-0.028140 -0.002871 0.603000 14201258
-0.027907 0.000570 0.598000 11840433
-0.027627 0.003947 0.592000 9794950
-0.027440 0.007280 0.588000 13022658
-0.027207 0.010550 0.583000 14799329
-0.027067 0.013810 0.580000 15390183
-0.026880 0.017006 0.576000 12103605
-0.026647 0.020121 0.571000 4343403
-0.026507 0.023261 0.568000 5649975
-0.026413 0.026413 0.566000 7822426
-0.026460 0.029700 0.567000 8216657
-0.026693 0.033230 0.572000 8804946
-0.026740 0.036563 0.573000 8347452
-0.026880 0.040046 0.576000 7687226
-0.027020 0.043563 0.579000 8278850
-0.027207 0.047195 0.583000 8343353
-0.027300 0.050700 0.585000 8345396
-0.027440 0.054320 0.588000 8673861
-0.027627 0.058072 0.592000 7885888
-0.028245 -0.024639 0.631000 7694502
-0.027976 -0.020833 0.625000 4408490
-0.027842 -0.017179 0.622000 5330087
-0.027573 -0.013493 0.616000 8893135
-0.027394 -0.009909 0.612000 12100282
-0.027170 -0.006359 0.607000 13457298
-0.026991 -0.002871 0.603000 13276531
-0.026768 0.000570 0.598000 13028021
-0.026499 0.003947 0.592000 10649986
-0.026320 0.007280 0.588000 14013406
-0.026096 0.010550 0.583000 14667488
-0.026007 0.013833 0.581000 14668002
-0.025783 0.017006 0.576000 11776186
-0.025559 0.020121 0.571000 4007520
-0.025380 0.023220 0.567000 5322800
-0.025290 0.026367 0.565000 7560535
-0.025335 0.029648 0.566000 7625034
-0.025514 0.033114 0.570000 6304332
-0.025604 0.036499 0.572000 8543801
-0.025738 0.039976 0.575000 8348220
-0.025917 0.043563 0.579000 8344896
-0.026051 0.047114 0.582000 8146488
-0.026141 0.050613 0.584000 7817514
-0.026275 0.054228 0.587000 8474686
-0.026499 0.058072 0.592000 8016964
-0.027171 -0.028379 0.634000 7692456
-0.027043 -0.024639 0.631000 3945645
-0.026786 -0.020833 0.625000 2900136
-0.026657 -0.017179 0.622000 7103423
-0.026400 -0.013493 0.616000 14201777
-0.026229 -0.009909 0.612000 12615081
-0.026014 -0.006359 0.607000 12162219
-0.025800 -0.002867 0.602000 12361112
-0.025629 0.000570 0.598000 14132654
-0.025414 0.003953 0.593000 11569828
-0.025200 0.007280 0.588000 14931164
-0.024986 0.010550 0.583000 14537440
-0.024857 0.013810 0.580000 13942742
-0.024600 0.016947 0.574000 11448993
-0.024429 0.020086 0.570000 3617114
-0.024257 0.023179 0.566000 5056805
-0.024214 0.026367 0.565000 7297087
-0.024214 0.029595 0.565000 7030577
-0.024343 0.032998 0.568000 3812911
-0.024471 0.036435 0.571000 8674356
-0.024600 0.039907 0.574000 9003834
-0.024771 0.043488 0.578000 8410698
-0.024943 0.047114 0.582000 7884862
-0.025029 0.050613 0.584000 7359025
-0.025157 0.054228 0.587000 8277563
-0.025329 0.057974 0.591000 8148031
-0.026169 -0.032254 0.639000 11312262
-0.025964 -0.028379 0.634000 5524404
-0.025841 -0.024639 0.631000 3952564
-0.025595 -0.020833 0.625000 4923047
-0.025472 -0.017179 0.622000 10396118
-0.025268 -0.013515 0.617000 13732500
-0.025022 -0.009892 0.611000 14003096
-0.024858 -0.006359 0.607000 13877699
-0.024653 -0.002867 0.602000 13875132
-0.024449 0.000569 0.597000 13270694
-0.024244 0.003947 0.592000 12758469
-0.024080 0.007280 0.588000 14339290
-0.023834 0.010531 0.582000 14405856
-0.023711 0.013786 0.579000 13414091
-0.023507 0.016947 0.574000 11115656
-0.023384 0.020121 0.571000 4468564
-0.023179 0.023179 0.566000 4204057
-0.023138 0.026367 0.565000 7558951
-0.023138 0.029595 0.565000 5645591
-0.023220 0.032940 0.567000 3413779
-0.023343 0.036371 0.570000 7557679
-0.023507 0.039907 0.574000 9332024
-0.023589 0.043337 0.576000 8805715
-0.023752 0.046952 0.580000 7622469
-0.023834 0.050440 0.582000 8017208
-0.023957 0.054043 0.585000 8608824
-0.024162 0.057876 0.590000 8344889
-0.024951 -0.032254 0.639000 10657432
-0.024756 -0.028379 0.634000 3362742
-0.024639 -0.024639 0.631000 4020143
-0.024366 -0.020800 0.624000 6975668
-0.024170 -0.017096 0.619000 13682856
-0.024053 -0.013493 0.616000 13280412
-0.023780 -0.009860 0.609000 15388062
-0.023624 -0.006338 0.605000 15516863
-0.023507 -0.002867 0.602000 15452346
-0.023272 0.000568 0.596000 12428453
-0.023116 0.003947 0.592000 13941701
-0.022960 0.007280 0.588000 13681621
-0.022726 0.010531 0.582000 14341855
-0.022530 0.013738 0.577000 12825287
-0.022413 0.016947 0.574000 10784113
-0.022296 0.020121 0.571000 5327446
-0.022101 0.023179 0.566000 3351084
-0.022062 0.026367 0.565000 7824965
-0.022062 0.029595 0.565000 4278094
-0.022140 0.032940 0.567000 2959157
-0.022257 0.036371 0.570000 6508347
-0.022374 0.039837 0.573000 9656377
-0.022452 0.043262 0.575000 9202001
-0.022609 0.046871 0.579000 7295039
-0.022726 0.050440 0.582000 8738874
-0.022804 0.053950 0.584000 8937536
-0.022999 0.057778 0.589000 8541749
-0.023920 -0.036187 0.644000 13545630
-0.023697 -0.032204 0.638000 11051689
-0.023511 -0.028334 0.633000 3625145
-0.023326 -0.024522 0.628000 4933289
-0.023140 -0.020767 0.623000 10598082
-0.022991 -0.017096 0.619000 13742713
-0.022843 -0.013471 0.615000 13877669
-0.022620 -0.009860 0.609000 14988451
-0.022434 -0.006328 0.604000 15254203
-0.022323 -0.002862 0.601000 14729399
-0.022174 0.000569 0.597000 14005155
-0.021951 0.003940 0.591000 13612228
-0.021803 0.007268 0.587000 13745617
-0.021617 0.010531 0.582000 14142430
-0.021394 0.013714 0.576000 13021891
-0.021320 0.016947 0.574000 10121817
-0.021209 0.020121 0.571000 7824729
-0.020986 0.023138 0.565000 3548222
-0.020949 0.026320 0.564000 8948067
-0.020949 0.029543 0.564000 7434629
-0.021023 0.032882 0.566000 5459544
-0.021134 0.036308 0.569000 5912390
-0.021283 0.039837 0.573000 7423034
-0.021357 0.043262 0.575000 8872014
-0.021506 0.046871 0.579000 8016954
-0.021580 0.050353 0.581000 9001020
-0.021691 0.053950 0.584000 9069640
-0.021877 0.057778 0.589000 8279857
-0.022693 -0.036187 0.644000 13348492
-0.022482 -0.032204 0.638000 11447466
-0.022270 -0.028290 0.632000 3822263
-0.022130 -0.024522 0.628000 5850044
-0.021953 -0.020767 0.623000 14200758
-0.021812 -0.017096 0.619000 13871525
-0.021671 -0.013471 0.615000 14456747
-0.021460 -0.009860 0.609000 14656660
-0.021284 -0.006328 0.604000 14992569
-0.021213 -0.002867 0.602000 14074297
-0.021037 0.000569 0.597000 15578533
-0.020826 0.003940 0.591000 13283776
-0.020685 0.007268 0.587000 13746115
-0.020509 0.010531 0.582000 13945554
-0.020297 0.013714 0.576000 13155789
-0.020191 0.016917 0.573000 9456480
-0.020121 0.020121 0.571000 10318678
-0.019910 0.023138 0.565000 3743804
-0.019874 0.026320 0.564000 10055002
-0.019874 0.029543 0.564000 10584443
-0.019945 0.032882 0.566000 7955807
-0.020015 0.036244 0.568000 5385788
-0.020156 0.039768 0.572000 5126974
-0.020262 0.043262 0.575000 8542539
-0.020368 0.046790 0.578000 8738869
-0.020403 0.050180 0.579000 9263155
-0.020544 0.053858 0.583000 9199683
-0.020720 0.057680 0.588000 8083006
-0.021600 -0.040114 0.648000 13614550
-0.021400 -0.036074 0.642000 13082747
-0.021267 -0.032204 0.638000 11840170
-0.021067 -0.028290 0.632000 2117046
-0.020933 -0.024522 0.628000 8945358
-0.020767 -0.020767 0.623000 14066090
-0.020600 -0.017069 0.618000 14398929
-0.020500 -0.013471 0.615000 13991089
-0.020300 -0.009860 0.609000 14721413
-0.020133 -0.006328 0.604000 14992311
-0.020033 -0.002862 0.601000 13017274
-0.019867 0.000568 0.596000 15649448
-0.019700 0.003940 0.591000 13546684
-0.019567 0.007268 0.587000 13811637
-0.019433 0.010550 0.583000 14008773
-0.019233 0.013738 0.577000 13749207
-0.019100 0.016917 0.573000 9527654
-0.019033 0.020121 0.571000 10718802
-0.018833 0.023138 0.565000 3679802
-0.018800 0.026320 0.564000 9397074
-0.018767 0.029490 0.563000 10124657
-0.018833 0.032824 0.565000 8091749
-0.018900 0.036180 0.567000 5715762
-0.019033 0.039698 0.571000 4990786
-0.019133 0.043187 0.574000 6041160
-0.019233 0.046710 0.577000 7296560
-0.019300 0.050180 0.579000 8082473
-0.019400 0.053766 0.582000 7687742
-0.019533 0.057484 0.586000 6963275
-0.020366 -0.040114 0.648000 13616347
-0.020177 -0.036074 0.642000 12754541
-0.019989 -0.032103 0.636000 12301742
-0.019894 -0.028334 0.633000 411065
-0.019737 -0.024522 0.628000 12044988
-0.019580 -0.020767 0.623000 13939627
-0.019423 -0.017069 0.618000 14920632
-0.019329 -0.013471 0.615000 13534900
-0.019140 -0.009860 0.609000 14797731
-0.018983 -0.006328 0.604000 14989999
-0.018889 -0.002862 0.601000 12033979
-0.018731 0.000568 0.596000 15644320
-0.018574 0.003940 0.591000 13810358
-0.018449 0.007268 0.587000 13811344
-0.018323 0.010550 0.583000 14139258
-0.018134 0.013738 0.577000 14338007
-0.018009 0.016917 0.573000 9524594
-0.017946 0.020121 0.571000 11042644
-0.017757 0.023138 0.565000 3548002
-0.017726 0.026320 0.564000 8672100
-0.017694 0.029490 0.563000 9599089
-0.017757 0.032824 0.565000 8218982
-0.017820 0.036180 0.567000 6044755
-0.017914 0.039629 0.570000 4796994
-0.018040 0.043187 0.574000 3609931
-0.018103 0.046629 0.576000 5846846
-0.018197 0.050180 0.579000 6967599
-0.018291 0.053766 0.582000 6176831
-0.018417 0.057484 0.586000 5843278
-0.018511 0.061144 0.589000 8019010
-0.019279 -0.044155 0.653000 12954056
-0.019131 -0.040114 0.648000 13550047
-0.018954 -0.036074 0.642000 12554336
-0.018777 -0.032103 0.636000 12299186
-0.018689 -0.028334 0.633000 4070076
-0.018541 -0.024522 0.628000 13020073
-0.018364 -0.020733 0.622000 14273963
-0.018246 -0.017069 0.618000 14453150
-0.018157 -0.013471 0.615000 14260663
-0.017950 -0.009844 0.608000 14862784
-0.017803 -0.006317 0.603000 13605543
-0.017714 -0.002857 0.600000 12034747
-0.017567 0.000567 0.595000 15385752
-0.017449 0.003940 0.591000 13809071
-0.017330 0.007268 0.587000 14729324
-0.017183 0.010531 0.582000 14598190
-0.017035 0.013738 0.577000 14536408
-0.016917 0.016917 0.573000 9465213
-0.016858 0.020121 0.571000 10320982
-0.016681 0.023138 0.565000 6513033
-0.016622 0.026273 0.563000 8741494
-0.016592 0.029438 0.562000 9466993
-0.016681 0.032824 0.565000 8613224
-0.016710 0.036116 0.566000 7496051
-0.016770 0.039490 0.568000 5321538
-0.016888 0.043036 0.572000 3351118
-0.016976 0.046548 0.575000 4265803
-0.017065 0.050093 0.578000 4663349
-0.017153 0.053673 0.581000 4332353
-0.017271 0.057386 0.585000 5318992
-0.017390 0.061144 0.589000 8479804
-0.018035 -0.044155 0.653000 12298948
-0.017952 -0.040238 0.650000 13551840
-0.017704 -0.036018 0.641000 12293736
-0.017566 -0.032103 0.636000 12363985
-0.017483 -0.028334 0.633000 7764662
-0.017290 -0.024444 0.626000 14064291
-0.017179 -0.020733 0.622000 14592436
-0.017041 -0.017041 0.617000 13992609
-0.016958 -0.013450 0.614000 14923450
-0.016792 -0.009844 0.608000 14992043
-0.016654 -0.006317 0.603000 12228514
-0.016599 -0.002862 0.601000 12031153
-0.016433 0.000567 0.595000 15053223
-0.016295 0.003933 0.590000 13874098
-0.016212 0.007268 0.587000 15577944
-0.016074 0.010531 0.582000 15122466
-0.015936 0.013738 0.577000 14736347
-0.015798 0.016888 0.572000 9399181
-0.015770 0.020121 0.571000 9595992
-0.015605 0.023138 0.565000 9545644
-0.015550 0.026273 0.563000 8813442
-0.015522 0.029438 0.562000 9400436
-0.015577 0.032766 0.564000 9007724
-0.015632 0.036116 0.566000 8943989
-0.015688 0.039490 0.568000 5848398
-0.015743 0.042886 0.570000 3090769
-0.015853 0.046467 0.574000 2630221
-0.015936 0.050007 0.577000 2366017
-0.016047 0.053673 0.581000 2433350
-0.016130 0.057288 0.584000 4791631
-0.016240 0.061040 0.588000 8871746
-0.016791 -0.044155 0.653000 12232384
-0.016663 -0.040114 0.648000 13550305
-0.016483 -0.036018 0.641000 12225648
-0.016354 -0.032103 0.636000 12691695
-0.016251 -0.028290 0.632000 10792369
-0.016097 -0.024444 0.626000 14137245
-0.015943 -0.020667 0.620000 14517950
-0.015866 -0.017041 0.617000 14523555
-0.015789 -0.013450 0.614000 15191741
-0.015609 -0.009828 0.607000 14001301
-0.015506 -0.006317 0.603000 11960990
-0.015403 -0.002852 0.599000 12488358
-0.015274 0.000566 0.594000 15124405
-0.015171 0.003933 0.590000 13215925
-0.015069 0.007255 0.586000 14457668
-0.014991 0.010550 0.583000 15451669
-0.014811 0.013714 0.576000 15397599
-0.014709 0.016888 0.572000 9336476
-0.014657 0.020086 0.570000 8413530
-0.014529 0.023138 0.565000 10528974
-0.014477 0.026273 0.563000 9604494
-0.014426 0.029386 0.561000 9466742
-0.014477 0.032708 0.563000 9204336
-0.014529 0.036052 0.565000 9074295
-0.014580 0.039420 0.567000 6046554
-0.014657 0.042886 0.570000 2894420
-0.014760 0.046467 0.574000 3025999
-0.014837 0.050007 0.577000 2893644
-0.014914 0.053581 0.580000 2894923
-0.015017 0.057288 0.584000 4531789
-0.015120 0.061040 0.588000 8542792
-0.015548 -0.044155 0.653000 12102594
-0.015429 -0.040114 0.648000 13551577
-0.015262 -0.036018 0.641000 12167302
-0.015143 -0.032103 0.636000 13019887
-0.015048 -0.028290 0.632000 13805740
-0.014905 -0.024444 0.626000 14210237
-0.014762 -0.020667 0.620000 14456259
-0.014690 -0.017041 0.617000 15120057
-0.014619 -0.013450 0.614000 15385018
-0.014452 -0.009828 0.607000 13005459
-0.014357 -0.006317 0.603000 11633067
-0.014286 -0.002857 0.600000 12946102
-0.014143 0.000566 0.594000 15124148
-0.014048 0.003933 0.590000 12561841
-0.013952 0.007255 0.586000 13340212
-0.013881 0.010550 0.583000 15713555
-0.013714 0.013714 0.576000 15984608
-0.013595 0.016858 0.571000 9263752
-0.013571 0.020086 0.570000 7165273
-0.013452 0.023138 0.565000 11584205
-0.013381 0.026227 0.562000 10324623
-0.013357 0.029386 0.561000 9597815
-0.013405 0.032708 0.563000 9401201
-0.013452 0.036052 0.565000 9271156
-0.013500 0.039420 0.567000 6244702
-0.013548 0.042810 0.569000 2763602
-0.013643 0.046386 0.573000 3352907
-0.013714 0.049920 0.576000 3353675
-0.013786 0.053489 0.579000 3287621
-0.013881 0.057190 0.583000 4267599
-0.013976 0.060936 0.587000 8147780
-0.014282 -0.044088 0.652000 12234180
-0.014194 -0.040114 0.648000 13154768
-0.014041 -0.036018 0.641000 12299676
-0.013931 -0.032103 0.636000 13614830
-0.013822 -0.028245 0.631000 13540520
-0.013690 -0.024405 0.625000 14338012
-0.013625 -0.020733 0.622000 14523592
-0.013515 -0.017041 0.617000 14927054
-0.013450 -0.013450 0.614000 13278647
-0.013274 -0.009811 0.606000 12484496
-0.013209 -0.006317 0.603000 12814265
-0.013121 -0.002852 0.599000 14004677
-0.013011 0.000566 0.594000 14993843
-0.012924 0.003933 0.590000 11965612
-0.012836 0.007255 0.586000 12418595
-0.012770 0.010550 0.583000 15450129
-0.012595 0.013690 0.575000 15592673
-0.012508 0.016858 0.571000 8148340
-0.012464 0.020050 0.569000 7684441
-0.012376 0.023138 0.565000 12039372
-0.012310 0.026227 0.562000 10191248
-0.012267 0.029333 0.560000 9598071
-0.012310 0.032650 0.562000 9532531
-0.012354 0.035989 0.564000 9468016
-0.012420 0.039420 0.567000 7688290
-0.012464 0.042810 0.569000 3749199
-0.012530 0.046305 0.572000 3220038
-0.012595 0.049833 0.575000 2892873
-0.012661 0.053396 0.578000 2827327
-0.012749 0.057091 0.582000 3414608
-0.012836 0.060832 0.586000 7951424
-0.013120 -0.048107 0.656000 13026251
-0.013040 -0.044088 0.652000 12363940
-0.012960 -0.040114 0.648000 12760775
-0.012780 -0.035906 0.639000 12427679
-0.012700 -0.032052 0.635000 14274537
-0.012620 -0.028245 0.631000 13217192
-0.012500 -0.024405 0.625000 14536925
-0.012400 -0.020667 0.620000 14596801
-0.012340 -0.017041 0.617000 14728886
-0.012280 -0.013450 0.614000 11176873
-0.012120 -0.009811 0.606000 12020374
-0.012040 -0.006307 0.602000 14001844
-0.012000 -0.002857 0.600000 15062973
-0.011880 0.000566 0.594000 14857903
-0.011800 0.003933 0.590000 11375767
-0.011720 0.007255 0.586000 11499305
-0.011640 0.010531 0.582000 15188233
-0.011500 0.013690 0.575000 15123656
-0.011420 0.016858 0.571000 7017301
-0.011380 0.020050 0.569000 8154470
-0.011300 0.023138 0.565000 12569301
-0.011240 0.026227 0.562000 10060695
-0.011200 0.029333 0.560000 9596784
-0.011240 0.032650 0.562000 9664117
-0.011280 0.035989 0.564000 9729904
-0.011300 0.039281 0.565000 9069915
-0.011360 0.042735 0.568000 4804184
-0.011420 0.046224 0.571000 3097159
-0.011500 0.049833 0.575000 2431566
-0.011560 0.053396 0.578000 2304588
-0.011640 0.057091 0.582000 2626131
-0.011720 0.060832 0.586000 7753028
-0.011979 -0.052330 0.662000 11573171
-0.011870 -0.048107 0.656000 13746381
-0.011798 -0.044088 0.652000 12821379
-0.011726 -0.040114 0.648000 12234686
-0.011599 -0.036018 0.641000 11432611
-0.011509 -0.032103 0.636000 13943780
-0.011418 -0.028245 0.631000 14202792
-0.011328 -0.024444 0.626000 14732509
-0.011219 -0.020667 0.620000 14928058
-0.011147 -0.017013 0.616000 13608349
-0.011110 -0.013450 0.614000 11431836
-0.010966 -0.009811 0.606000 12289435
-0.010911 -0.006317 0.603000 14661296
-0.010839 -0.002852 0.599000 15124916
-0.010730 0.000565 0.593000 14198956
-0.010676 0.003933 0.590000 11372417
-0.010604 0.007255 0.586000 11232815
-0.010531 0.010531 0.582000 14659073
-0.010405 0.013690 0.575000 12554927
-0.010332 0.016858 0.571000 5448758
-0.010296 0.020050 0.569000 9404276
-0.010224 0.023138 0.565000 12960222
-0.010151 0.026180 0.561000 10191519
-0.010133 0.029333 0.560000 9333609
-0.010170 0.032650 0.562000 9664375
-0.010188 0.035925 0.563000 9663855
-0.010224 0.039281 0.565000 9074005
-0.010278 0.042735 0.568000 7499361
-0.010332 0.046224 0.571000 6781768
-0.010405 0.049833 0.575000 5853522
-0.010441 0.053304 0.577000 5395546
-0.010495 0.056895 0.580000 4928597
-0.010604 0.060832 0.586000 7558472
-0.010718 -0.052330 0.662000 12230046
-0.010621 -0.048107 0.656000 14469574
-0.010556 -0.044088 0.652000 13219196
-0.010475 -0.040052 0.647000 11711688
-0.010378 -0.036018 0.641000 10453671
-0.010281 -0.032052 0.635000 13683146
-0.010216 -0.028245 0.631000 15186354
-0.010135 -0.024444 0.626000 14995152
-0.010038 -0.020667 0.620000 15253936
-0.009973 -0.017013 0.616000 12553631
-0.009925 -0.013428 0.613000 11701669
-0.009811 -0.009811 0.606000 12558755
-0.009763 -0.006317 0.603000 15318964
-0.009698 -0.002852 0.599000 15254203
-0.009601 0.000565 0.593000 13543847
-0.009552 0.003933 0.590000 11372456
-0.009488 0.007255 0.586000 10973761
-0.009423 0.010531 0.582000 14201377
-0.009326 0.013714 0.576000 9999568
-0.009245 0.016858 0.571000 3878504
-0.009212 0.020050 0.569000 10581842
-0.009131 0.023097 0.564000 13354475
-0.009067 0.026133 0.560000 10326447
-0.009067 0.029333 0.560000 9133918
-0.009083 0.032591 0.561000 9663052
-0.009099 0.035861 0.562000 9597521
-0.009148 0.039281 0.565000 9070676
-0.009196 0.042735 0.568000 10187863
-0.009245 0.046224 0.571000 10448197
-0.009293 0.049747 0.574000 9268292
-0.009342 0.053304 0.577000 8478797
-0.009390 0.056895 0.580000 7296580
-0.009439 0.060521 0.583000 7363655
-0.009443 -0.052250 0.661000 12492681
-0.009357 -0.048033 0.655000 13875135
-0.009300 -0.044020 0.651000 14535286
-0.009243 -0.040052 0.647000 11642578
-0.009157 -0.036018 0.641000 11043755
-0.009071 -0.032052 0.635000 13940144
-0.008986 -0.028155 0.629000 15255997
-0.008943 -0.024444 0.626000 14928066
-0.008857 -0.020667 0.620000 15120295
-0.008800 -0.017013 0.616000 12554145
-0.008743 -0.013406 0.612000 12358830
-0.008671 -0.009828 0.607000 13941163
-0.008614 -0.006317 0.603000 15451832
-0.008557 -0.002852 0.599000 15189698
-0.008486 0.000566 0.594000 13344930
-0.008429 0.003933 0.590000 12364751
-0.008343 0.007230 0.584000 11171924
-0.008314 0.010531 0.582000 14135616
-0.008214 0.013690 0.575000 12558321
-0.008157 0.016858 0.571000 6186649
-0.008114 0.020015 0.568000 10507312
-0.008057 0.023097 0.564000 13880824
-0.008000 0.026133 0.560000 11180479
-0.007986 0.029281 0.559000 9135698
-0.008000 0.032533 0.560000 9793058
-0.008014 0.035797 0.561000 9595955
-0.008057 0.039211 0.564000 8607827
-0.008114 0.042735 0.568000 8607565
-0.008143 0.046143 0.570000 8539201
-0.008186 0.049660 0.573000 8478261
-0.008229 0.053211 0.576000 8676159
-0.008271 0.056797 0.579000 8350003
-0.008329 0.060521 0.583000 8482629
-0.008184 -0.052250 0.661000 12757133
-0.008110 -0.048033 0.655000 13350054
-0.008060 -0.044020 0.651000 15778421
-0.008010 -0.040052 0.647000 11647182
-0.007924 -0.035962 0.640000 11636389
-0.007850 -0.032002 0.634000 14195878
-0.007788 -0.028155 0.629000 15256509
-0.007750 -0.024444 0.626000 14863028
-0.007676 -0.020667 0.620000 14919079
-0.007614 -0.016986 0.615000 12619940
-0.007577 -0.013406 0.612000 13019564
-0.007503 -0.009811 0.606000 15387306
-0.007453 -0.006307 0.602000 15582646
-0.007416 -0.002852 0.599000 15125185
-0.007354 0.000566 0.594000 13083041
-0.007305 0.003933 0.590000 13358562
-0.007230 0.007230 0.584000 11304796
-0.007206 0.010531 0.582000 14138992
-0.007131 0.013714 0.576000 15130103
-0.007070 0.016858 0.571000 8428492
-0.007032 0.020015 0.568000 10455658
-0.006983 0.023097 0.564000 14476529
-0.006933 0.026133 0.560000 11969219
-0.006921 0.029281 0.559000 9201240
-0.006921 0.032475 0.559000 9921311
-0.006933 0.035733 0.560000 9594159
-0.006983 0.039211 0.564000 8149577
-0.007032 0.042735 0.568000 7097415
-0.007057 0.046143 0.570000 6571580
-0.007082 0.049573 0.572000 7623477
-0.007131 0.053211 0.576000 8804924
-0.007169 0.056797 0.579000 9464119
-0.007218 0.060521 0.583000 9528900
-0.006935 -0.052330 0.662000 12689298
-0.006862 -0.048033 0.655000 13083532
-0.006820 -0.044020 0.651000 15516788
-0.006778 -0.040052 0.647000 11907017
-0.006694 -0.035906 0.639000 11831199
-0.006642 -0.032002 0.634000 14396828
-0.006590 -0.028155 0.629000 15190461
-0.006558 -0.024444 0.626000 13938086
-0.006495 -0.020667 0.620000 13864104
-0.006443 -0.016986 0.615000 13014694
-0.006401 -0.013384 0.611000 13814954
-0.006359 -0.009828 0.607000 14594728
-0.006317 -0.006317 0.603000 15451573
-0.006275 -0.002852 0.599000 14728895
-0.006223 0.000566 0.594000 12034209
-0.006160 0.003920 0.588000 13619444
-0.006118 0.007230 0.584000 11694436
-0.006097 0.010531 0.582000 14007455
-0.006034 0.013714 0.576000 15725310
-0.005982 0.016858 0.571000 10530814
-0.005950 0.020015 0.568000 12435876
-0.005909 0.023097 0.564000 14801898
-0.005867 0.026133 0.560000 11902920
-0.005846 0.029229 0.558000 9136221
-0.005846 0.032417 0.558000 8999964
-0.005867 0.035733 0.560000 9331243
-0.005898 0.039142 0.563000 8607551
-0.005930 0.042585 0.566000 6966081
-0.005971 0.046143 0.570000 6505272
-0.005992 0.049573 0.572000 6700853
-0.006034 0.053211 0.576000 7685945
-0.006066 0.056797 0.579000 7949626
-0.006108 0.060521 0.583000 8475203
-0.005640 -0.052013 0.658000 12555381
-0.005614 -0.048033 0.655000 12825462
-0.005580 -0.044020 0.651000 15187316
-0.005546 -0.040052 0.647000 12104883
-0.005477 -0.035906 0.639000 12033955
-0.005434 -0.032002 0.634000 14592424
-0.005391 -0.028155 0.629000 15055034
-0.005357 -0.024405 0.625000 13013153
-0.005314 -0.020667 0.620000 12819120
-0.005271 -0.016986 0.615000 13471653
-0.005237 -0.013384 0.611000 14527398
-0.005203 -0.009828 0.607000 13870491
-0.005160 -0.006307 0.602000 15255222
-0.005134 -0.002852 0.599000 14401192
-0.005091 0.000566 0.594000 10980265
-0.005031 0.003913 0.587000 13888750
-0.005006 0.007230 0.584000 12031875
-0.004980 0.010513 0.581000 13942433
-0.004937 0.013714 0.576000 16314872
-0.004903 0.016888 0.572000 12702717
-0.004869 0.020015 0.568000 14335922
-0.004834 0.023097 0.564000 15193837
-0.004800 0.026133 0.560000 11840460
-0.004783 0.029229 0.558000 9134437
-0.004783 0.032417 0.558000 8081177
-0.004791 0.035670 0.559000 9133080
-0.004826 0.039142 0.563000 9003073
-0.004851 0.042585 0.566000 6901056
-0.004877 0.046062 0.569000 6438966
-0.004894 0.049487 0.571000 5781295
-0.004929 0.053119 0.575000 6505780
-0.004963 0.056797 0.579000 6438706
-0.004989 0.060417 0.582000 7423804
-0.004387 -0.052013 0.658000 12487000
-0.004367 -0.048033 0.655000 12555872
-0.004340 -0.044020 0.651000 14923635
-0.004313 -0.040052 0.647000 11507869
-0.004260 -0.035906 0.639000 12760487
-0.004233 -0.032052 0.635000 14661556
-0.004187 -0.028110 0.628000 13475512
-0.004160 -0.024366 0.624000 13146268
-0.004127 -0.020633 0.619000 12617143
-0.004100 -0.016986 0.615000 13545636
-0.004073 -0.013384 0.611000 13796515
-0.004047 -0.009828 0.607000 14069902
-0.004020 -0.006317 0.603000 15451832
-0.003993 -0.002852 0.599000 14069136
-0.003953 0.000565 0.593000 10513586
-0.003913 0.003913 0.587000 13815783
-0.003893 0.007230 0.584000 13616546
-0.003873 0.010513 0.581000 13350307
-0.003833 0.013690 0.575000 16183539
-0.003807 0.016858 0.571000 13358076
-0.003787 0.020015 0.568000 14143425
-0.003760 0.023097 0.564000 15261423
-0.003727 0.026087 0.559000 12035792
-0.003720 0.029229 0.558000 9005164
-0.003720 0.032417 0.558000 7749398
-0.003727 0.035670 0.559000 8408836
-0.003753 0.039142 0.563000 9267523
-0.003773 0.042585 0.566000 6835006
-0.003793 0.046062 0.569000 6438708
-0.003807 0.049487 0.571000 6109737
-0.003827 0.053027 0.574000 6637616
-0.003853 0.056699 0.578000 6439466
-0.003880 0.060417 0.582000 7159093
-0.003152 -0.056112 0.662000 12491427
-0.003133 -0.052013 0.658000 12421725
-0.003119 -0.048033 0.655000 12352333
-0.003100 -0.044020 0.651000 14594948
-0.003076 -0.039990 0.646000 10917535
-0.003043 -0.035906 0.639000 13479098
-0.003024 -0.032052 0.635000 14795191
-0.002995 -0.028155 0.629000 11836079
-0.002971 -0.024366 0.624000 13339539
-0.002952 -0.020667 0.620000 12362162
-0.002929 -0.016986 0.615000 13682349
-0.002910 -0.013384 0.611000 13014682
-0.002890 -0.009828 0.607000 14272137
-0.002867 -0.006307 0.602000 15582900
-0.002848 -0.002848 0.598000 13733794
-0.002824 0.000565 0.593000 10000306
-0.002795 0.003913 0.587000 13816811
-0.002776 0.007218 0.583000 15192507
-0.002762 0.010495 0.580000 12756392
-0.002738 0.013690 0.575000 16049644
-0.002724 0.016888 0.572000 14084859
-0.002705 0.020015 0.568000 13874104
-0.002686 0.023097 0.564000 15394804
-0.002662 0.026087 0.559000 12170197
-0.002657 0.029229 0.558000 8939650
-0.002652 0.032359 0.557000 7422224
-0.002662 0.035670 0.559000 7748099
-0.002681 0.039142 0.563000 9463612
-0.002695 0.042585 0.566000 6770243
-0.002705 0.045981 0.568000 6439741
-0.002719 0.049487 0.571000 6372146
-0.002729 0.052934 0.573000 6768946
-0.002752 0.056699 0.578000 6505264
-0.002767 0.060313 0.581000 6898997
-0.002776 0.063852 0.583000 8546120
-0.001891 -0.056112 0.662000 12291945
-0.001880 -0.052013 0.658000 12685923
-0.001871 -0.048033 0.655000 12223545
-0.001860 -0.044020 0.651000 13933460
-0.001846 -0.039990 0.646000 12099488
-0.001826 -0.035906 0.639000 13945037
-0.001811 -0.032002 0.634000 14136250
-0.001797 -0.028155 0.629000 12157351
-0.001783 -0.024366 0.624000 13078665
-0.001769 -0.020633 0.619000 13480876
-0.001757 -0.016986 0.615000 13215157
-0.001746 -0.013384 0.611000 14007953
-0.001734 -0.009828 0.607000 14135428
-0.001723 -0.006317 0.603000 15123120
-0.001709 -0.002848 0.598000 12358323
-0.001691 0.000564 0.592000 11772339
-0.001677 0.003913 0.587000 14802414
-0.001666 0.007218 0.583000 14543573
-0.001657 0.010495 0.580000 12297132
-0.001643 0.013690 0.575000 15919078
-0.001637 0.016917 0.573000 14014458
-0.001617 0.019945 0.566000 12886702
-0.001609 0.023056 0.563000 15460088
-0.001597 0.026087 0.559000 12101850
-0.001591 0.029176 0.557000 9138839
-0.001591 0.032359 0.557000 7095306
-0.001594 0.035606 0.558000 7355393
-0.001606 0.039072 0.562000 9726774
-0.001614 0.042510 0.565000 6835016
-0.001623 0.045981 0.568000 6375239
-0.001631 0.049487 0.571000 6175803
-0.001637 0.052934 0.573000 6965813
-0.001646 0.056503 0.576000 6702389
-0.001657 0.060210 0.580000 6964534
-0.001663 0.063743 0.582000 8676426
-0.000630 -0.056112 0.662000 12159633
-0.000627 -0.052013 0.658000 12885092
-0.000622 -0.047887 0.653000 12152632
-0.000619 -0.043952 0.650000 13219755
-0.000615 -0.039990 0.646000 13219019
-0.000609 -0.035906 0.639000 14402767
-0.000604 -0.032002 0.634000 13476281
-0.000598 -0.028110 0.628000 12489888
-0.000594 -0.024366 0.624000 12880797
-0.000590 -0.020633 0.619000 14596273
-0.000586 -0.016986 0.615000 12820132
-0.000582 -0.013384 0.611000 14986902
-0.000577 -0.009811 0.606000 13939092
-0.000573 -0.006307 0.602000 14594731
-0.000570 -0.002848 0.598000 10922408
-0.000563 0.000563 0.591000 13544123
-0.000559 0.003913 0.587000 15852014
-0.000555 0.007218 0.583000 13807011
-0.000552 0.010495 0.580000 11843251
-0.000548 0.013690 0.575000 15720421
-0.000546 0.016917 0.573000 13950704
-0.000539 0.019945 0.566000 11901603
-0.000536 0.023056 0.563000 15593975
-0.000531 0.026040 0.558000 12037325
-0.000530 0.029124 0.556000 9406898
-0.000530 0.032301 0.556000 6698015
-0.000530 0.035542 0.557000 7027203
-0.000534 0.039003 0.561000 9987894
-0.000537 0.042434 0.564000 6899776
-0.000541 0.045981 0.568000 6310467
-0.000543 0.049400 0.570000 5913141
-0.000545 0.052842 0.572000 7162415
-0.000549 0.056503 0.576000 6898995
-0.000552 0.060210 0.580000 7030065
-0.000554 0.063743 0.582000 8872526
0.000630 -0.056112 0.662000 12624312
0.000627 -0.052013 0.658000 13215845
0.000624 -0.048033 0.655000 11893047
0.000619 -0.043952 0.650000 13813443
0.000614 -0.039929 0.645000 14013174
0.000609 -0.035906 0.639000 14005713
0.000604 -0.032002 0.634000 13412280
0.000598 -0.028110 0.628000 13211034
0.000592 -0.024288 0.622000 13806512
0.000590 -0.020633 0.619000 14925495
0.000586 -0.016986 0.615000 12424338
0.000582 -0.013384 0.611000 14657435
0.000577 -0.009811 0.606000 14201764
0.000573 -0.006307 0.602000 13998759
0.000569 -0.002843 0.597000 9982364
0.000563 0.000563 0.591000 14273987
0.000558 0.003907 0.586000 15524077
0.000555 0.007218 0.583000 11563376
0.000551 0.010477 0.579000 11971002
0.000548 0.013690 0.575000 15522532
0.000545 0.016888 0.572000 13550822
0.000541 0.020015 0.568000 12030105
0.000536 0.023056 0.563000 15130614
0.000532 0.026087 0.559000 12558273
0.000530 0.029124 0.556000 10918860
0.000530 0.032301 0.556000 7219252
0.000530 0.035542 0.557000 7620356
0.000533 0.038933 0.560000 9595446
0.000536 0.042359 0.563000 8281143
0.000540 0.045900 0.567000 7886911
0.000543 0.049400 0.570000 7226670
0.000545 0.052842 0.572000 7425321
0.000548 0.056405 0.575000 6964273
0.000551 0.060106 0.579000 7160109
0.000554 0.063743 0.582000 8741458
0.001891 -0.056112 0.662000 13086401
0.001880 -0.052013 0.658000 13541747
0.001866 -0.047887 0.653000 11626565
0.001857 -0.043952 0.650000 14337469
0.001843 -0.039929 0.645000 14802926
0.001826 -0.035906 0.639000 13611469
0.001811 -0.032002 0.634000 13350072
0.001794 -0.028110 0.628000 13936550
0.001780 -0.024327 0.623000 14729907
0.001769 -0.020633 0.619000 15189174
0.001757 -0.016986 0.615000 12097939
0.001746 -0.013384 0.611000 14263195
0.001734 -0.009828 0.607000 14466733
0.001717 -0.006296 0.601000 13345451
0.001706 -0.002843 0.597000 9110418
0.001689 0.000563 0.591000 14995673
0.001677 0.003913 0.587000 15195367
0.001666 0.007218 0.583000 9338479
0.001654 0.010477 0.579000 12040868
0.001643 0.013690 0.575000 15326437
0.001631 0.016858 0.571000 13090770
0.001620 0.019980 0.567000 12164000
0.001611 0.023097 0.564000 14738153
0.001597 0.026087 0.559000 13089489
0.001591 0.029176 0.557000 12503768
0.001589 0.032301 0.556000 7691622
0.001597 0.035670 0.559000 8214065
0.001603 0.039003 0.561000 9202516
0.001609 0.042359 0.563000 9726296
0.001620 0.045900 0.567000 9397069
0.001629 0.049400 0.570000 8478275
0.001631 0.052750 0.571000 7689279
0.001643 0.056405 0.575000 7031359
0.001654 0.060106 0.579000 7227447
0.001660 0.063633 0.581000 8676422
0.003152 -0.056112 0.662000 13219274
0.003129 -0.051934 0.657000 13082752
0.003119 -0.048033 0.655000 11961171
0.003095 -0.043952 0.650000 13943735
0.003067 -0.039867 0.644000 14471654
0.003043 -0.035906 0.639000 13476041
0.003019 -0.032002 0.634000 13874360
0.002995 -0.028155 0.629000 14861234
0.002962 -0.024288 0.622000 15058102
0.002948 -0.020633 0.619000 15321269
0.002929 -0.016986 0.615000 12292243
0.002910 -0.013384 0.611000 14394780
0.002886 -0.009811 0.606000 14003638
0.002862 -0.006296 0.601000 11641008
0.002838 -0.002838 0.596000 10839175
0.002814 0.000563 0.591000 15525359
0.002795 0.003913 0.587000 14602209
0.002776 0.007218 0.583000 10053997
0.002757 0.010477 0.579000 11969165
0.002743 0.013714 0.576000 15260902
0.002724 0.016888 0.572000 12626621
0.002700 0.019980 0.567000 12227496
0.002681 0.023056 0.563000 14339291
0.002662 0.026087 0.559000 13421794
0.002652 0.029176 0.557000 13288932
0.002648 0.032301 0.556000 10586776
0.002676 0.035861 0.562000 10651742
0.002676 0.039072 0.562000 10647923
0.002681 0.042359 0.563000 9202040
0.002705 0.045981 0.568000 9267803
0.002714 0.049400 0.570000 9202007
0.002719 0.052750 0.571000 8874069
0.002738 0.056405 0.575000 8413261
0.002752 0.060002 0.578000 8413249
0.002767 0.063633 0.581000 8676153
0.004380 -0.051934 0.657000 12624521
0.004353 -0.047887 0.653000 12361090
0.004320 -0.043817 0.648000 13482425
0.004293 -0.039867 0.644000 14079719
0.004260 -0.035906 0.639000 13283783
0.004220 -0.031951 0.633000 14404795
0.004193 -0.028155 0.629000 15713204
0.004147 -0.024288 0.622000 15385527
0.004127 -0.020633 0.619000 15451064
0.004093 -0.016958 0.614000 12557211
0.004073 -0.013384 0.611000 14529705
0.004033 -0.009795 0.605000 13602739
0.004007 -0.006296 0.601000 9927856
0.003973 -0.002838 0.596000 12570302
0.003940 0.000563 0.591000 15984361
0.003920 0.003920 0.588000 14006737
0.003887 0.007218 0.583000 10721439
0.003860 0.010477 0.579000 11905681
0.003833 0.013690 0.575000 15128271
0.003813 0.016888 0.572000 12161436
0.003780 0.019980 0.567000 12297385
0.003760 0.023097 0.564000 13877981
0.003727 0.026087 0.559000 13680075
0.003713 0.029176 0.557000 14073538
0.003747 0.032650 0.562000 13413536
0.003753 0.035925 0.563000 13089155
0.003753 0.039142 0.563000 12098959
0.003760 0.042434 0.564000 8738698
0.003787 0.045981 0.568000 9136762
0.003800 0.049400 0.570000 9924218
0.003807 0.052750 0.571000 9992314
0.003827 0.056307 0.574000 9792885
0.003847 0.059898 0.577000 9593693
0.003873 0.063633 0.581000 8742488
0.005631 -0.051934 0.657000 12295570
0.005597 -0.047887 0.653000 12428976
0.005554 -0.043817 0.648000 13350075
0.005520 -0.039867 0.644000 14143463
0.005477 -0.035906 0.639000 13612997
0.005426 -0.031951 0.633000 14730430
0.005391 -0.028155 0.629000 15451574
0.005331 -0.024288 0.622000 15319991
0.005306 -0.020633 0.619000 15453371
0.005254 -0.016930 0.613000 13545379
0.005220 -0.013340 0.609000 14005686
0.005186 -0.009795 0.605000 12884912
0.005143 -0.006286 0.600000 11758000
0.005100 -0.002833 0.595000 14147828
0.005066 0.000563 0.591000 15719395
0.005031 0.003913 0.587000 13018305
0.004997 0.007218 0.583000 12107473
0.004963 0.010477 0.579000 12362132
0.004929 0.013690 0.575000 14931385
0.004903 0.016888 0.572000 12885883
0.004869 0.020015 0.568000 12756649
0.004843 0.023138 0.565000 13549535
0.004800 0.026133 0.560000 13672117
0.004774 0.029176 0.557000 14135712
0.004834 0.032766 0.564000 13808039
0.004843 0.036052 0.565000 13480871
0.004834 0.039211 0.564000 13022123
0.004843 0.042510 0.565000 10518171
0.004869 0.045981 0.568000 10649498
0.004886 0.049400 0.570000 11111836
0.004894 0.052750 0.571000 11176863
0.004920 0.056307 0.574000 11111325
0.004954 0.060002 0.578000 10578042
0.004980 0.063633 0.581000 9925239
0.006872 -0.051855 0.656000 11901335
0.006841 -0.047887 0.653000 12497082
0.006778 -0.043750 0.647000 13220033
0.006747 -0.039867 0.644000 14210512
0.006684 -0.035850 0.638000 13943251
0.006621 -0.031901 0.632000 15122591
0.006579 -0.028110 0.628000 15189432
0.006527 -0.024327 0.623000 15254205
0.006474 -0.020600 0.618000 15451834
0.006432 -0.016958 0.614000 14597287
0.006401 -0.013384 0.611000 13478314
0.006328 -0.009779 0.604000 12169394
0.006286 -0.006286 0.600000 13546956
0.006244 -0.002838 0.596000 15787232
0.006191 0.000563 0.591000 15389655
0.006150 0.003913 0.587000 12100296
0.006097 0.007206 0.582000 13482189
