# .PCD v.7 - Point Cloud Data file format
VERSION .7
FIELDS x y z rgb
SIZE 4 4 4 4
TYPE F F F I
COUNT 1 1 1 1
WIDTH 1332
HEIGHT 1
POINTS 1332
DATA ascii
0.020689 0.017506 0.557000 11046301
0.020466 0.020466 0.551000 14204080
0.020280 0.023400 0.546000 13811651
0.020169 0.026374 0.543000 14594750
0.019611 0.028663 0.528000 13551035
0.019500 0.031500 0.525000 15187798
0.019426 0.034369 0.523000 12494698
0.019351 0.037214 0.521000 13485256
0.019054 0.039574 0.513000 13879517
0.019017 0.042423 0.512000 12955080
0.018943 0.045171 0.510000 12821378
0.018869 0.047897 0.508000 12755065
0.019203 0.060563 0.517000 8939628
0.019203 0.063517 0.517000 7498845
0.019277 0.066729 0.519000 11373703
0.019351 0.069963 0.521000 6575983
0.019389 0.073080 0.522000 4402235
0.019463 0.076354 0.524000 4139557
0.019574 0.079803 0.527000 4795440
0.019611 0.082971 0.528000 6638902
0.019760 0.086640 0.532000 11444887
0.022765 0.001666 0.583000 5730496
0.022687 0.004980 0.581000 11639206
0.022218 0.008129 0.569000 14134434
0.022062 0.011300 0.565000 15121322
0.021867 0.014400 0.560000 14859436
0.021710 0.017474 0.556000 11435931
0.021515 0.020466 0.551000 13937332
0.021320 0.023400 0.546000 13944257
0.021203 0.026374 0.543000 13808055
0.021047 0.029260 0.539000 14742239
0.020539 0.031560 0.526000 14067806
0.020383 0.034303 0.522000 12692614
0.020383 0.037286 0.522000 13813464
0.020031 0.039574 0.513000 14739694
0.019992 0.042423 0.512000 13351369
0.019914 0.045171 0.510000 13609602
0.019953 0.048180 0.511000 13083214
0.020188 0.060563 0.517000 8938067
0.020188 0.063517 0.517000 8880739
0.020266 0.066729 0.519000 10516857
0.020344 0.069963 0.521000 8612736
0.020422 0.073220 0.523000 5586231
0.020500 0.076500 0.525000 6440228
0.020578 0.079803 0.527000 6903104
0.020695 0.083286 0.530000 6638644
0.020812 0.086803 0.533000 11309717
0.023998 0.001674 0.586000 6189237
0.023793 0.004980 0.581000 13409953
0.023302 0.008129 0.569000 13935254
0.023138 0.011300 0.565000 15252903
0.022933 0.014400 0.560000 14335400
0.022770 0.017474 0.556000 11767460
0.022565 0.020466 0.551000 13742766
0.022319 0.023357 0.545000 14073534
0.022237 0.026374 0.543000 13087949
0.022073 0.029260 0.539000 15912921
0.021541 0.031560 0.526000 12955814
0.021377 0.034303 0.522000 12822165
0.021254 0.037071 0.519000 14142904
0.021009 0.039574 0.513000 15589097
0.020968 0.042423 0.512000 13745844
0.020886 0.045171 0.510000 14398606
0.020927 0.048180 0.511000 13412226
0.021213 0.060680 0.518000 9002598
0.021172 0.063517 0.517000 10256744
0.021254 0.066729 0.519000 9660775
0.021336 0.069963 0.521000 10583937
0.021418 0.073220 0.523000 6769725
0.021623 0.076937 0.528000 8737582
0.021664 0.080106 0.529000 8940357
0.021705 0.083286 0.530000 6639419
0.021828 0.086803 0.533000 11244918
0.025114 0.001674 0.586000 7105705
0.024943 0.004989 0.582000 14004381
0.024343 0.008114 0.568000 13341577
0.024129 0.011260 0.563000 15450277
0.024000 0.014400 0.560000 13674403
0.023786 0.017443 0.555000 12029357
0.023614 0.020466 0.551000 14135463
0.023400 0.023400 0.546000 13942971
0.023271 0.026374 0.543000 13552866
0.023100 0.029260 0.539000 13806803
0.022886 0.032040 0.534000 13748461
0.022329 0.034237 0.521000 11964581
0.022243 0.037071 0.519000 13283224
0.021986 0.039574 0.513000 15130340
0.021943 0.042423 0.512000 12230558
0.021900 0.045260 0.511000 12824219
0.021986 0.048369 0.513000 13019318
0.022329 0.058054 0.521000 10122881
0.022243 0.060797 0.519000 9203321
0.022243 0.063763 0.519000 9862510
0.022414 0.073220 0.523000 7625026
0.022671 0.077083 0.529000 8411960
0.022714 0.080257 0.530000 8215882
0.022757 0.083443 0.531000 6639170
0.026141 0.001669 0.584000 8083109
0.026007 0.004980 0.581000 14528416
0.025425 0.008114 0.568000 12811930
0.025201 0.011260 0.563000 15645348
0.025067 0.014400 0.560000 13077655
0.024888 0.017474 0.556000 12228263
0.024664 0.020466 0.551000 14532000
0.024395 0.023357 0.545000 13809053
0.024306 0.026374 0.543000 14079661
0.024082 0.029206 0.538000 11708598
0.023903 0.032040 0.534000 14602458
0.023321 0.034237 0.521000 11115945
0.023187 0.037000 0.518000 12426385
0.022963 0.039574 0.513000 14597582
0.022918 0.042423 0.512000 10782353
0.022918 0.045349 0.512000 11173760
0.023052 0.048557 0.515000 12628135
0.023321 0.058054 0.521000 9663604
0.023231 0.060797 0.519000 9401193
0.023231 0.063763 0.519000 9469055
0.023813 0.074480 0.532000 8542776
0.023724 0.077229 0.530000 8082487
0.023813 0.080560 0.532000 7493708
0.023813 0.083600 0.532000 6638126
0.027253 0.001669 0.584000 9140640
0.027113 0.004980 0.581000 14133411
0.026460 0.008100 0.567000 12289706
0.026367 0.011300 0.565000 14923684
0.026133 0.014400 0.560000 12883338
0.025900 0.017443 0.555000 12814240
0.025713 0.020466 0.551000 14464408
0.025433 0.023357 0.545000 13741439
0.025293 0.026326 0.542000 13677687
0.025107 0.029206 0.538000 12426649
0.024920 0.032040 0.534000 13548487
0.024920 0.035091 0.534000 12367277
0.024173 0.037000 0.518000 12492426
0.023893 0.039497 0.512000 12948920
0.023893 0.042423 0.512000 10188675
0.023893 0.045349 0.512000 10774117
0.024033 0.048557 0.515000 12032407
0.024127 0.051700 0.517000 12296363
0.024267 0.057943 0.520000 9792616
0.024267 0.060914 0.520000 9992536
0.024220 0.063763 0.519000 11045008
0.024640 0.070903 0.528000 11044739
0.024827 0.074480 0.532000 8410925
0.024827 0.077520 0.532000 8015415
0.024827 0.080560 0.532000 6245198
0.024920 0.083914 0.534000 5322522
0.028317 0.001666 0.583000 10259863
0.028171 0.004971 0.580000 13675690
0.027540 0.008100 0.567000 11771050
0.027443 0.011300 0.565000 14198948
0.027249 0.014426 0.561000 12758159
0.026957 0.017443 0.555000 13349031
0.026763 0.020466 0.551000 14465175
0.026471 0.023357 0.545000 13608568
0.026277 0.026277 0.541000 13279314
0.026131 0.029206 0.538000 13087907
0.025889 0.031980 0.533000 12498381
0.025840 0.034960 0.532000 13542807
0.025063 0.036857 0.516000 12632238
0.024869 0.039497 0.512000 11311794
0.024917 0.042506 0.513000 9599128
0.024966 0.045526 0.514000 10386060
0.025063 0.048651 0.516000 11508126
0.025160 0.051800 0.518000 12362154
0.025209 0.054866 0.519000 11110824
0.025306 0.058054 0.521000 9928578
0.025403 0.061266 0.523000 10520176
0.025597 0.064746 0.527000 12625065
0.025597 0.067757 0.527000 11771034
0.025597 0.070769 0.527000 11111570
0.025791 0.074340 0.531000 8347237
0.025840 0.077520 0.532000 7892329
0.025840 0.080560 0.532000 5060423
0.026034 0.084229 0.536000 3947619
0.029377 0.001663 0.582000 11442318
0.029276 0.004971 0.580000 13941425
0.028570 0.008086 0.566000 12491178
0.028469 0.011280 0.564000 13342371
0.028267 0.014400 0.560000 12754323
0.028014 0.017443 0.555000 14534575
0.027711 0.020391 0.549000 14397845
0.027510 0.023357 0.545000 12884338
0.027308 0.026277 0.541000 12882732
0.027207 0.029260 0.539000 14077101
0.026904 0.031980 0.533000 12102354
0.026853 0.034960 0.532000 11637377
0.026046 0.036857 0.516000 13485265
0.025894 0.039574 0.513000 12691884
0.025995 0.042671 0.515000 11441069
0.026046 0.045703 0.516000 12097459
0.026046 0.048651 0.516000 11834788
0.026197 0.051900 0.519000 12559273
0.026298 0.055077 0.521000 11703971
0.026349 0.058166 0.522000 10984093
0.026500 0.061500 0.525000 11178375
0.026601 0.064746 0.527000 12561345
0.026651 0.067886 0.528000 11834782
0.026702 0.071037 0.529000 11573410
0.026853 0.074480 0.532000 10652829
0.026853 0.077520 0.532000 9672859
0.026904 0.080711 0.533000 6769728
0.027156 0.084543 0.538000 8420524
0.030852 -0.001683 0.589000 4089266
0.030433 0.001660 0.581000 12693650
0.030276 0.004954 0.578000 14199724
0.029700 0.008100 0.567000 13276585
0.029543 0.011280 0.564000 12492703
0.029229 0.014349 0.558000 12755366
0.029071 0.017443 0.555000 15646647
0.028757 0.020391 0.549000 14331035
0.028495 0.023314 0.544000 12098163
0.028338 0.026277 0.541000 12422427
0.028181 0.029206 0.538000 14995910
0.027919 0.031980 0.533000 11774418
0.027867 0.034960 0.532000 9732224
0.027710 0.037786 0.529000 14332056
0.026871 0.039574 0.513000 14005425
0.027029 0.042754 0.516000 13217719
0.027029 0.045703 0.516000 13742774
0.027029 0.048651 0.516000 12231859
0.027238 0.052000 0.520000 12757173
0.027343 0.055183 0.522000 12361391
0.027343 0.058166 0.522000 12034472
0.027552 0.061617 0.526000 11899035
0.027605 0.064746 0.527000 12428468
0.027762 0.068143 0.530000 11832735
0.027814 0.071306 0.531000 11967395
0.027867 0.074480 0.532000 12887728
0.027867 0.077520 0.532000 11373467
0.027971 0.080863 0.534000 8551040
0.031974 -0.001683 0.589000 4606377
0.031594 0.001663 0.582000 13348246
0.031431 0.004963 0.579000 13543848
0.030780 0.008100 0.567000 13212839
0.030617 0.011280 0.564000 12753307
0.030291 0.014349 0.558000 13742009
0.030129 0.017443 0.555000 15516864
0.029803 0.020391 0.549000 14264737
0.029531 0.023314 0.544000 11766644
0.029369 0.026277 0.541000 12160266
0.029151 0.029151 0.537000 14605280
0.028934 0.031980 0.533000 12235217
0.028826 0.034894 0.531000 9201791
0.028717 0.037786 0.529000 12289631
0.028174 0.040037 0.519000 13085879
0.028011 0.042754 0.516000 12824000
0.028066 0.045791 0.517000 13416633
0.028011 0.048651 0.516000 12891073
0.028229 0.052000 0.520000 13480130
0.028337 0.055183 0.522000 13217722
0.028391 0.058277 0.523000 12887475
0.028609 0.061734 0.527000 12624302
0.028609 0.064746 0.527000 12689576
0.028880 0.068400 0.532000 12162207
0.028826 0.071306 0.531000 12559268
0.028880 0.074480 0.532000 13151938
0.028934 0.077666 0.533000 10911642
0.029206 0.081469 0.538000 11252159
0.033152 -0.001686 0.590000 5076126
0.032647 0.001660 0.581000 14007197
0.032534 0.004963 0.579000 12819102
0.031804 0.008086 0.566000 13215923
0.031691 0.011280 0.564000 12951717
0.031354 0.014349 0.558000 14728624
0.031186 0.017443 0.555000 15386551
0.030849 0.020391 0.549000 14192544
0.030568 0.023314 0.544000 11375493
0.030399 0.026277 0.541000 11960927
0.030287 0.029260 0.539000 14142428
0.029950 0.031980 0.533000 12764118
0.029781 0.034829 0.530000 8617110
0.029669 0.037714 0.528000 10256260
0.029275 0.040191 0.521000 12096416
0.029163 0.043003 0.519000 12427943
0.029219 0.046057 0.520000 13084837
0.029275 0.049123 0.521000 13541782
0.029275 0.052100 0.521000 14134454
0.029388 0.055289 0.523000 14071210
0.029444 0.058389 0.524000 13676474
0.029612 0.061734 0.527000 13348534
0.029612 0.064746 0.527000 12887976
0.029893 0.068400 0.532000 12491919
0.029893 0.071440 0.532000 13148266
0.030006 0.074760 0.534000 13349277
0.030118 0.078103 0.536000 10394028
0.030343 0.081771 0.540000 14012605
0.034218 -0.001683 0.589000 7498388
0.033753 0.001660 0.581000 14464931
0.033463 0.004937 0.576000 12742804
0.032882 0.008086 0.566000 13215679
0.032766 0.011280 0.564000 13875119
0.032417 0.014349 0.558000 14726055
0.032243 0.017443 0.555000 15451309
0.031952 0.020429 0.550000 14065310
0.031604 0.023314 0.544000 11176855
0.031430 0.026277 0.541000 13151155
0.031255 0.029206 0.538000 13807321
0.030965 0.031980 0.533000 13024731
0.030790 0.034829 0.530000 9601709
0.030558 0.037571 0.526000 11114153
0.030268 0.040191 0.521000 11435913
0.030210 0.043086 0.520000 11502733
0.030268 0.046146 0.521000 12166034
0.030384 0.049311 0.523000 11829611
0.030268 0.052100 0.521000 12820138
0.030384 0.055289 0.523000 12622233
0.030442 0.058389 0.524000 13545153
0.030616 0.061734 0.527000 13151933
0.030616 0.064746 0.527000 12953257
0.030907 0.068400 0.532000 13083518
0.030907 0.071440 0.532000 13343537
0.031023 0.074760 0.534000 13610103
0.031139 0.078103 0.536000 12106174
0.031488 0.082074 0.542000 13481147
0.035340 -0.001683 0.589000 9929867
0.034800 0.001657 0.580000 14925481
0.034560 0.004937 0.576000 12687263
0.033960 0.008086 0.566000 13217454
0.033840 0.011280 0.564000 14788524
0.033480 0.014349 0.558000 14664367
0.033300 0.017443 0.555000 15451055
0.033000 0.020429 0.550000 13999265
0.032700 0.023357 0.545000 10917016
0.032520 0.026326 0.542000 14411223
0.032400 0.029314 0.540000 13486821
0.032040 0.032040 0.534000 13287889
0.031800 0.034829 0.530000 10587313
0.031560 0.037571 0.526000 11970739
0.031260 0.040191 0.521000 10715781
0.031200 0.043086 0.520000 10581899
0.031380 0.046323 0.523000 11237751
0.031560 0.049594 0.526000 10186871
0.031260 0.052100 0.521000 11438737
0.031380 0.055289 0.523000 11170179
0.031920 0.059280 0.532000 13412535
0.031620 0.061734 0.527000 12954548
0.032040 0.074760 0.534000 13805925
0.032460 0.078831 0.541000 13744042
0.032520 0.082074 0.542000 12950187
0.036400 -0.001680 0.588000 11042690
0.035719 0.001649 0.577000 14989998
0.035595 0.004929 0.575000 13082795
0.035038 0.008086 0.566000 12950428
0.034914 0.011280 0.564000 13999018
0.034481 0.014323 0.557000 14533814
0.034357 0.017443 0.555000 15517616
0.034048 0.020429 0.550000 13345187
0.033738 0.023357 0.545000 11834266
0.033552 0.026326 0.542000 14804219
0.033367 0.029260 0.539000 14671601
0.033057 0.032040 0.534000 13022919
0.032933 0.034960 0.532000 10913974
0.032500 0.037500 0.525000 11639228
0.032314 0.040269 0.522000 10651008
0.032190 0.043086 0.520000 10387081
0.032500 0.046500 0.525000 10237277
0.032624 0.049689 0.527000 9928322
0.032686 0.052800 0.528000 9723768
0.032995 0.056346 0.533000 10909804
0.032933 0.059280 0.532000 12689582
0.032624 0.061734 0.527000 12557739
0.033490 0.072649 0.541000 11958047
0.033552 0.075880 0.542000 12158546
0.033552 0.078977 0.542000 12626326
0.037584 -0.001683 0.589000 12094602
0.037137 0.001663 0.582000 15055795
0.036754 0.004937 0.576000 13415862
0.036116 0.008086 0.566000 12750234
0.035989 0.011280 0.564000 13215915
0.035606 0.014349 0.558000 14336189
0.035350 0.017411 0.554000 15517105
0.035095 0.020429 0.550000 12691378
0.034840 0.023400 0.546000 12688787
0.034585 0.026326 0.542000 15197930
0.034393 0.029260 0.539000 15851765
0.034074 0.032040 0.534000 12825285
0.033947 0.034960 0.532000 11177625
0.033500 0.037500 0.525000 11378062
0.033372 0.040346 0.523000 10518898
0.033628 0.043666 0.527000 10255967
0.033628 0.046677 0.527000 9198441
0.033628 0.049689 0.527000 9667454
0.033819 0.053000 0.530000 8017761
0.034010 0.056346 0.533000 10716032
0.034074 0.059503 0.534000 11967647
0.034202 0.062789 0.536000 12163483
0.034585 0.069686 0.542000 11630637
0.034585 0.072783 0.542000 10313759
0.034904 0.076580 0.547000 10448486
0.034585 0.078977 0.542000 11431798
0.038969 -0.005083 0.593000 11115441
0.038706 -0.001683 0.589000 12818322
0.038114 0.001657 0.580000 15187383
0.037851 0.004937 0.576000 13683137
0.037260 0.008100 0.567000 12423320
0.037063 0.011280 0.564000 14204077
0.036669 0.014349 0.558000 13939396
0.036406 0.017411 0.554000 14928306
0.036143 0.020429 0.550000 10654145
0.035946 0.023443 0.547000 13151116
0.035617 0.026326 0.542000 14666457
0.035420 0.029260 0.539000 15853048
0.035091 0.032040 0.534000 13088707
0.034960 0.034960 0.532000 11634301
0.034631 0.037643 0.527000 12031584
0.034369 0.040346 0.523000 11502436
0.034631 0.043666 0.527000 9857845
0.034631 0.046677 0.527000 10059381
0.034763 0.049877 0.529000 9597562
0.034960 0.053200 0.532000 8278602
0.035026 0.056346 0.533000 10978451
0.035157 0.059614 0.535000 12032656
0.035420 0.063140 0.539000 12097418
0.035683 0.069814 0.543000 10442023
0.035617 0.072783 0.542000 10442784
0.035946 0.076580 0.547000 11109242
0.040098 -0.005083 0.593000 10719620
0.039760 -0.001680 0.588000 13541784
0.039016 0.001649 0.577000 15384241
0.038881 0.004929 0.575000 13872561
0.038475 0.008129 0.569000 12096908
0.038137 0.011280 0.564000 15186354
0.037867 0.014400 0.560000 13477822
0.037461 0.017411 0.554000 14266035
0.037190 0.020429 0.550000 8624068
0.036988 0.023443 0.547000 13534609
0.036650 0.026326 0.542000 14072732
0.036447 0.029260 0.539000 15788282
0.036109 0.032040 0.534000 13351628
0.035973 0.034960 0.532000 12094541
0.035635 0.037643 0.527000 12753466
0.035432 0.040423 0.524000 12489554
0.035635 0.043666 0.527000 9531435
0.035770 0.046854 0.529000 10849922
0.035838 0.049971 0.530000 9467007
0.035973 0.053200 0.532000 8546408
0.036447 0.056980 0.539000 11243151
0.036379 0.059949 0.538000 12031631
0.036582 0.063374 0.541000 12033161
0.036650 0.066589 0.542000 9592129
0.036785 0.069943 0.544000 9261653
0.036785 0.073051 0.544000 10576710
0.036988 0.076580 0.547000 11710108
0.041228 -0.005083 0.593000 10714711
0.040950 -0.001683 0.589000 14067359
0.040115 0.001649 0.577000 15187883
0.039976 0.004929 0.575000 12618145
0.039559 0.008129 0.569000 12487807
0.039211 0.011280 0.564000 14927287
0.038933 0.014400 0.560000 14263736
0.038516 0.017411 0.554000 13737139
0.038238 0.020429 0.550000 7828167
0.038030 0.023443 0.547000 10973334
0.037682 0.026326 0.542000 13740127
0.037543 0.029314 0.540000 15917309
0.037265 0.032160 0.536000 13283541
0.036987 0.034960 0.532000 12225310
0.036639 0.037643 0.527000 12619540
0.036430 0.040423 0.524000 12886081
0.036917 0.043997 0.531000 11443232
0.036917 0.047031 0.531000 10984334
0.036987 0.050160 0.532000 10123652
0.037195 0.053500 0.535000 10059911
0.037473 0.056980 0.539000 11438730
0.037404 0.059949 0.538000 12030094
0.037612 0.063374 0.541000 11438984
0.037751 0.066711 0.543000 9787211
0.037890 0.070071 0.545000 10647683
0.037821 0.073051 0.544000 10642797
0.038030 0.076580 0.547000 12431038
0.042143 -0.005057 0.590000 10708056
0.042071 -0.001683 0.589000 14592674
0.041143 0.001646 0.576000 14926510
0.041071 0.004929 0.575000 11307932
0.040643 0.008129 0.569000 12947099
0.040357 0.011300 0.565000 14591916
0.040071 0.014426 0.561000 14985644
0.039571 0.017411 0.554000 13216423
0.039143 0.020354 0.548000 7034297
0.039071 0.023443 0.547000 8415646
0.038714 0.026326 0.542000 13405037
0.038571 0.029314 0.540000 16048863
0.038214 0.032100 0.535000 13276565
0.038000 0.034960 0.532000 12352546
0.037857 0.037857 0.530000 12485409
0.037786 0.040809 0.529000 13278266
0.037929 0.043997 0.531000 13413412
0.038000 0.047120 0.532000 11047559
0.038000 0.050160 0.532000 10780035
0.038286 0.053600 0.536000 11569534
0.038429 0.056874 0.538000 11634050
0.038429 0.059949 0.538000 12027783
0.038786 0.063609 0.543000 10852485
0.038786 0.066711 0.543000 9989737
0.039071 0.070329 0.547000 12103592
0.039143 0.073589 0.548000 10652815
0.039214 0.076860 0.549000 13089204
0.043413 -0.005074 0.592000 11501656
0.043193 -0.001683 0.589000 14790309
0.042240 0.001646 0.576000 14530736
0.042093 0.004920 0.574000 11171479
0.041727 0.008129 0.569000 14005687
0.041433 0.011300 0.565000 14322082
0.041140 0.014426 0.561000 14790047
0.040627 0.017411 0.554000 13411483
0.040187 0.020354 0.548000 6182314
0.040113 0.023443 0.547000 5983398
0.039747 0.026326 0.542000 12685946
0.039527 0.029260 0.539000 15393986
0.039160 0.032040 0.534000 11761236
0.039013 0.034960 0.532000 11168039
0.038867 0.037857 0.530000 11959598
0.038867 0.040886 0.530000 12949043
0.039013 0.044080 0.532000 12292136
0.039087 0.047209 0.533000 11307903
0.039233 0.050443 0.535000 11568513
0.039307 0.053600 0.536000 12554357
0.039453 0.056874 0.538000 12556410
0.039453 0.059949 0.538000 12287872
0.039967 0.063843 0.545000 11043714
0.040040 0.067080 0.546000 10059398
0.040187 0.070457 0.548000 12561612
0.040333 0.073857 0.550000 12033201
0.040260 0.076860 0.549000 12756906
0.045670 -0.012140 0.607000 9279384
0.044541 -0.008457 0.592000 16178647
0.044466 -0.005066 0.591000 12285840
0.044315 -0.001683 0.589000 14988714
0.043262 0.001643 0.575000 14204336
0.043111 0.004911 0.573000 11045529
0.042810 0.008129 0.569000 15062970
0.042510 0.011300 0.565000 13993123
0.042133 0.014400 0.560000 14662820
0.041682 0.017411 0.554000 13541541
0.041230 0.020354 0.548000 5322923
0.041155 0.023443 0.547000 3560871
0.040779 0.026326 0.542000 12034182
0.040629 0.029314 0.540000 14726303
0.040252 0.032100 0.535000 10309423
0.039951 0.034894 0.531000 9987626
0.039951 0.037929 0.531000 11434291
0.039951 0.040963 0.531000 12554298
0.040027 0.044080 0.532000 11107143
0.040177 0.047297 0.534000 11503484
0.040252 0.050443 0.535000 12290435
0.040403 0.053700 0.537000 13471607
0.040553 0.056980 0.539000 13477236
0.041005 0.060729 0.545000 12554112
0.041005 0.063843 0.545000 11239032
0.041155 0.067203 0.547000 10123905
0.041306 0.070586 0.549000 12955844
0.041456 0.073991 0.551000 13348533
0.046749 -0.012120 0.606000 10855638
0.045669 -0.008457 0.592000 16116449
0.045591 -0.005066 0.591000 12753352
0.045437 -0.001683 0.589000 15123120
0.044511 0.001649 0.577000 13345456
0.044203 0.004911 0.573000 12490394
0.043894 0.008129 0.569000 14925500
0.043586 0.011300 0.565000 14379685
0.043200 0.014400 0.560000 14332072
0.042969 0.017506 0.557000 12234415
0.042274 0.020354 0.548000 5131691
0.042120 0.023400 0.546000 4150696
0.041811 0.026326 0.542000 10782610
0.041657 0.029314 0.540000 13276540
0.041194 0.032040 0.534000 10050058
0.040963 0.034894 0.531000 9526317
0.041040 0.038000 0.532000 11104056
0.040963 0.040963 0.531000 12357698
0.041271 0.044329 0.535000 11305062
0.041271 0.047386 0.535000 11764602
0.041349 0.050537 0.536000 11896964
0.041426 0.053700 0.537000 11038329
0.041889 0.057403 0.543000 12749678
0.042043 0.060729 0.545000 13148288
0.042197 0.064077 0.547000 11501166
0.042274 0.067326 0.548000 8870524
0.042506 0.070843 0.551000 13085883
0.042583 0.074126 0.552000 13481912
0.047903 -0.012120 0.606000 12439248
0.047745 -0.008629 0.604000 15982820
0.046717 -0.005066 0.591000 13211844
0.046480 -0.001680 0.588000 15187884
0.045610 0.001649 0.577000 12555955
0.045294 0.004911 0.573000 13869727
0.044978 0.008129 0.569000 14730144
0.044662 0.011300 0.565000 14717864
0.044267 0.014400 0.560000 14070683
0.044030 0.017506 0.557000 10913204
0.043476 0.020429 0.550000 4872621
0.043239 0.023443 0.547000 4675756
0.042923 0.026374 0.543000 9601961
0.042765 0.029369 0.541000 11767691
0.042211 0.032040 0.534000 9856067
0.041974 0.034894 0.531000 9003600
0.042053 0.038000 0.532000 10840663
0.042211 0.041194 0.534000 12161640
0.042290 0.044329 0.535000 11503471
0.042290 0.047386 0.535000 11963517
0.042370 0.050537 0.536000 11506308
0.042923 0.054300 0.543000 8539771
0.043002 0.057509 0.544000 12030584
0.043239 0.060951 0.547000 13737603
0.043239 0.064077 0.547000 11762540
0.043555 0.067694 0.551000 7628154
0.043634 0.070971 0.552000 13152951
0.043713 0.074260 0.553000 13546168
0.049462 -0.015711 0.611000 7819102
0.049057 -0.012120 0.606000 12367305
0.048895 -0.008629 0.604000 15852519
0.047762 -0.005057 0.590000 13149120
0.047600 -0.001680 0.588000 15189672
0.046710 0.001649 0.577000 12621238
0.046386 0.004911 0.573000 14464676
0.046062 0.008129 0.569000 14586756
0.045738 0.011300 0.565000 15250603
0.045333 0.014400 0.560000 13805454
0.045010 0.017474 0.556000 7499450
0.044605 0.020466 0.551000 5134766
0.044281 0.023443 0.547000 5004208
0.043957 0.026374 0.543000 8616384
0.043795 0.029369 0.541000 11178907
0.043310 0.032100 0.535000 10122620
0.043067 0.034960 0.532000 9532275
0.043229 0.038143 0.534000 10581622
0.043310 0.041271 0.535000 12297101
0.043310 0.044329 0.535000 12027768
0.043310 0.047386 0.535000 12820609
0.043795 0.051009 0.541000 12226691
0.043957 0.054300 0.543000 8862077
0.044038 0.057509 0.544000 12686977
0.044362 0.061063 0.548000 13672070
0.044524 0.064429 0.550000 11697513
0.044686 0.067817 0.552000 7029881
0.044848 0.071229 0.554000 13085619
0.044929 0.074529 0.555000 13480120
0.050626 -0.015711 0.611000 7956855
0.050294 -0.012140 0.607000 12237481
0.050046 -0.008629 0.604000 15653862
0.048969 -0.005066 0.591000 13148356
0.048637 -0.001677 0.587000 15183011
0.047891 0.001651 0.578000 12693936
0.047477 0.004911 0.573000 15053996
0.047146 0.008129 0.569000 14373018
0.046814 0.011300 0.565000 15708578
0.046400 0.014400 0.560000 13472937
0.046069 0.017474 0.556000 4089779
0.045654 0.020466 0.551000 5397931
0.045240 0.023400 0.546000 5332916
0.044991 0.026374 0.543000 7633605
0.044826 0.029369 0.541000 10522516
0.044246 0.032040 0.534000 10452084
0.044163 0.035026 0.533000 10057326
0.044411 0.038286 0.536000 10385009
0.044411 0.041349 0.536000 12356996
0.044329 0.044329 0.535000 12485755
0.044909 0.048006 0.542000 13672066
0.044909 0.051103 0.542000 12881029
0.045240 0.054600 0.546000 9203077
0.045323 0.057826 0.547000 13279361
0.045406 0.061063 0.548000 13606018
0.045737 0.064663 0.552000 11631220
0.045986 0.068186 0.555000 6376303
0.045986 0.071357 0.555000 13088434
0.045986 0.074529 0.555000 13413298
0.051790 -0.015711 0.611000 9404049
0.051535 -0.012160 0.608000 12098952
0.051196 -0.008629 0.604000 15524069
0.050010 -0.005057 0.590000 13215688
0.049755 -0.001677 0.587000 14130590
0.048992 0.001651 0.578000 13347753
0.048569 0.004911 0.573000 15121588
0.048230 0.008129 0.569000 14312879
0.047890 0.011300 0.565000 14726297
0.047467 0.014400 0.560000 12429252
0.047043 0.017443 0.555000 4409772
0.046789 0.020503 0.552000 5332136
0.046450 0.023486 0.548000 5399481
0.046026 0.026374 0.543000 7700682
0.045941 0.029423 0.542000 10785421
0.045432 0.032160 0.536000 10649707
0.045432 0.035223 0.536000 10254696
0.045602 0.038429 0.538000 10844523
0.045432 0.041349 0.536000 12089467
0.046110 0.045074 0.544000 12817021
0.046026 0.048094 0.543000 13147011
0.046026 0.051197 0.543000 12553607
0.046280 0.054600 0.546000 11107981
0.046450 0.057931 0.548000 13212801
0.046534 0.061174 0.549000 13606527
0.046958 0.064897 0.554000 11108222
0.047043 0.068186 0.555000 6687334
0.047043 0.071357 0.555000 13414833
0.052953 -0.015711 0.611000 10853554
0.052607 -0.012140 0.607000 11901070
0.052260 -0.008614 0.603000 15390171
0.051133 -0.005057 0.590000 13279941
0.050873 -0.001677 0.587000 13084326
0.050267 0.001657 0.580000 14070694
0.049660 0.004911 0.573000 15188663
0.049313 0.008129 0.569000 14181041
0.048967 0.011300 0.565000 13673379
0.048447 0.014374 0.559000 11322564
0.048100 0.017443 0.555000 4669867
0.047840 0.020503 0.552000 5332652
0.047493 0.023486 0.548000 5401534
0.047060 0.026374 0.543000 7765968
0.046973 0.029423 0.542000 11042707
0.046453 0.032160 0.536000 10847098
0.046540 0.035289 0.537000 10378351
0.046713 0.038500 0.539000 11304565
0.046453 0.041349 0.536000 11765624
0.047147 0.045074 0.544000 13081988
0.047233 0.048271 0.545000 12554362
0.047147 0.051291 0.544000 12289872
0.047493 0.054800 0.548000 12947592
0.047493 0.057931 0.548000 13212802
0.047840 0.061509 0.552000 13540478
0.048100 0.065014 0.555000 10585471
0.048187 0.068309 0.556000 7031153
0.048273 0.071614 0.557000 13809837
0.054117 -0.015711 0.611000 12433875
0.053851 -0.012160 0.608000 11374996
0.053231 -0.008586 0.601000 15193041
0.052257 -0.005057 0.590000 13216193
0.051903 -0.001674 0.586000 13941679
0.051371 0.001657 0.580000 13739427
0.050840 0.004920 0.574000 15253947
0.050397 0.008129 0.569000 14461107
0.049954 0.011280 0.564000 13731501
0.049600 0.014400 0.560000 9076931
0.049246 0.017474 0.556000 5001897
0.048891 0.020503 0.552000 5201584
0.048537 0.023486 0.548000 5338052
0.048094 0.026374 0.543000 6912982
0.048094 0.029477 0.543000 6899609
0.047563 0.032220 0.537000 6834825
0.047651 0.035354 0.538000 7145334
0.047829 0.038571 0.540000 11304319
0.048183 0.041966 0.544000 12555638
0.048360 0.045240 0.546000 13278347
0.048360 0.048360 0.546000 12219761
0.048271 0.051386 0.545000 11500057
0.048803 0.055100 0.551000 13212803
0.048626 0.058037 0.549000 13278083
0.049069 0.061731 0.554000 13409661
0.049246 0.065131 0.556000 9466495
0.049334 0.068431 0.557000 9660284
0.049423 0.071743 0.558000 13610921
0.055643 -0.015814 0.615000 14007764
0.055010 -0.012160 0.608000 10851217
0.054376 -0.008586 0.601000 14926015
0.053471 -0.005066 0.591000 13215167
0.053019 -0.001674 0.586000 14726070
0.052476 0.001657 0.580000 13408942
0.051933 0.004920 0.574000 15319994
0.051481 0.008129 0.569000 14727848
0.051029 0.011280 0.564000 13804467
0.050667 0.014400 0.560000 6762418
0.050305 0.017474 0.556000 5331116
0.050033 0.020540 0.553000 5070263
0.049671 0.023529 0.549000 5273033
0.049219 0.026423 0.544000 6127069
0.049129 0.029477 0.543000 2770069
0.048857 0.032400 0.540000 2898827
0.048767 0.035420 0.539000 3950720
0.048948 0.038643 0.541000 11306112
0.049310 0.042043 0.545000 13275511
0.049490 0.045323 0.547000 13474692
0.049581 0.048537 0.548000 11896436
0.049581 0.051669 0.548000 10776142
0.049852 0.055100 0.551000 13408640
0.049671 0.058037 0.549000 13408899
0.050214 0.061843 0.555000 13275259
0.050305 0.065131 0.556000 8423033
0.050486 0.068554 0.558000 12225945
0.050486 0.071743 0.558000 13411986
0.056999 -0.019391 0.617000 13216702
0.056907 -0.015840 0.616000 14077397
0.055983 -0.012120 0.606000 10453390
0.055521 -0.008586 0.601000 14203821
0.054505 -0.005057 0.590000 13084860
0.054135 -0.001674 0.586000 14531773
0.053396 0.001651 0.578000 14333113
0.052934 0.004911 0.573000 15320505
0.052565 0.008129 0.569000 13934748
0.052103 0.011280 0.564000 12697786
0.051733 0.014400 0.560000 5393313
0.051364 0.017474 0.556000 5266608
0.050994 0.020503 0.552000 5137597
0.050717 0.023529 0.549000 5011919
0.050255 0.026423 0.544000 7377123
0.050163 0.029477 0.543000 3554962
0.049886 0.032400 0.540000 3947916
0.049701 0.035354 0.538000 7568778
0.049978 0.038643 0.541000 11765632
0.050440 0.042120 0.546000 13011576
0.050532 0.045323 0.547000 12686716
0.050532 0.048449 0.547000 11374200
0.050625 0.051669 0.548000 11764354
0.051087 0.055300 0.553000 13606268
0.050717 0.058037 0.549000 13408898
0.051456 0.062066 0.557000 12550266
0.051549 0.065366 0.558000 9397363
0.051733 0.068800 0.560000 13683639
0.051549 0.071743 0.558000 13476731
0.058174 -0.019391 0.617000 13481682
0.058174 -0.015866 0.617000 14076633
0.057137 -0.012120 0.606000 9995150
0.056571 -0.008571 0.600000 13413777
0.055817 -0.005074 0.592000 12953257
0.055251 -0.001674 0.586000 14330041
0.054686 0.001657 0.580000 15254451
0.054026 0.004911 0.573000 15314088
0.053649 0.008129 0.569000 13209000
0.053177 0.011280 0.564000 11504566
0.052800 0.014400 0.560000 4018344
0.052423 0.017474 0.556000 5135535
0.052140 0.020540 0.553000 5204420
0.051763 0.023529 0.549000 4749777
0.051386 0.026471 0.545000 8629453
0.051291 0.029531 0.544000 4277646
0.051103 0.032520 0.542000 4996229
0.050820 0.035420 0.539000 11107469
0.051197 0.038786 0.543000 12225146
0.051574 0.042197 0.547000 12745593
0.051669 0.045406 0.548000 11966597
0.051669 0.048537 0.548000 10774119
0.051669 0.051669 0.548000 12750467
0.052329 0.055500 0.555000 13802618
0.052423 0.058777 0.556000 13408639
0.052611 0.062177 0.558000 11765111
0.052706 0.065483 0.559000 10376321
0.052894 0.068923 0.561000 15057576
0.059350 -0.019391 0.617000 14010086
0.059350 -0.015866 0.617000 14011869
0.058580 -0.012180 0.609000 11177614
0.057522 -0.008543 0.598000 13940086
0.056849 -0.005066 0.591000 13150358
0.056464 -0.001677 0.587000 13727924
0.055790 0.001657 0.580000 13804972
0.055213 0.004920 0.574000 13922200
0.054829 0.008143 0.570000 12888755
0.054251 0.011280 0.564000 7167666
0.053867 0.014400 0.560000 4609454
0.053482 0.017474 0.556000 5135279
0.053097 0.020503 0.552000 5206730
0.052712 0.023486 0.548000 5863890
0.052328 0.026423 0.544000 8425398
0.052231 0.029477 0.543000 4868490
0.052135 0.032520 0.542000 6246781
0.051847 0.035420 0.539000 11633297
0.052520 0.039000 0.546000 12157556
0.052616 0.042197 0.547000 12872825
0.052712 0.045406 0.548000 12292750
0.052712 0.048537 0.548000 10038357
0.053386 0.052329 0.555000 12423044
0.053386 0.055500 0.555000 13212537
0.053482 0.058777 0.556000 13277308
0.053674 0.062177 0.558000 11566709
0.053770 0.065483 0.559000 11241102
0.054251 0.069291 0.564000 13417625
0.060623 -0.019423 0.618000 14602468
0.060525 -0.015866 0.617000 13878234
0.059740 -0.012180 0.609000 12354948
0.058661 -0.008543 0.598000 14461545
0.057974 -0.005066 0.591000 13347448
0.057484 -0.001674 0.586000 13083325
0.056895 0.001657 0.580000 12422059
0.056307 0.004920 0.574000 12555951
0.055816 0.008129 0.569000 12567491
0.055130 0.011240 0.562000 2773418
0.054835 0.014374 0.559000 5200302
0.054443 0.017443 0.555000 5070773
0.054247 0.020540 0.553000 5143501
0.053756 0.023486 0.548000 6982095
0.053364 0.026423 0.544000 8293551
0.053364 0.029531 0.544000 5456772
0.053168 0.032520 0.542000 7560849
0.053854 0.036077 0.549000 12161672
0.053756 0.039143 0.548000 12156798
0.053756 0.042274 0.548000 12942461
0.053756 0.045406 0.548000 12622461
0.053756 0.048537 0.548000 9333355
0.054443 0.052329 0.555000 12096127
0.054639 0.055700 0.557000 12615792
0.054541 0.058777 0.556000 13080695
0.054835 0.062289 0.559000 11304568
0.054933 0.065600 0.560000 12164271
0.061800 -0.019423 0.618000 14535137
0.061600 -0.015840 0.616000 13678552
0.061100 -0.012220 0.611000 12885370
0.059300 -0.008471 0.593000 13275740
0.059000 -0.005057 0.590000 13083225
0.058500 -0.001671 0.585000 13812423
0.057800 0.001651 0.578000 13476521
0.057300 0.004911 0.573000 13816517
0.056900 0.008129 0.569000 8810706
0.056400 0.011280 0.564000 3954595
0.055900 0.014374 0.559000 5200813
0.055500 0.017443 0.555000 5202619
0.055200 0.020503 0.552000 5274319
0.054900 0.023529 0.549000 9148364
0.054600 0.026520 0.546000 7958952
0.054400 0.029531 0.544000 4670335
0.054700 0.032820 0.547000 9271461
0.054900 0.036077 0.549000 12817791
0.054900 0.039214 0.549000 12482439
0.054900 0.042351 0.549000 13081986
0.054800 0.045406 0.548000 11168620
0.055500 0.049157 0.555000 10716288
0.055700 0.052517 0.557000 11895162
0.056000 0.056000 0.560000 12278120
0.056300 0.059517 0.563000 12553842
0.056100 0.062511 0.561000 10844283
0.056100 0.065717 0.561000 11837648
0.062671 -0.015814 0.615000 13483228
0.061958 -0.012160 0.608000 13412228
0.060430 -0.008471 0.593000 12094811
0.060124 -0.005057 0.590000 12888904
0.059716 -0.001674 0.586000 14531782
0.058901 0.001651 0.578000 14533318
0.058493 0.004920 0.574000 14991039
0.057984 0.008129 0.569000 5049034
0.057474 0.011280 0.564000 5134758
0.057067 0.014400 0.560000 5266607
0.056557 0.017443 0.555000 5335745
0.056353 0.020540 0.553000 5339855
0.055946 0.023529 0.549000 11245244
0.055742 0.026569 0.547000 7624082
0.055640 0.029640 0.546000 3818635
0.055742 0.032820 0.547000 10985612
0.055946 0.036077 0.549000 13405055
0.056048 0.039286 0.550000 12805765
0.056048 0.042429 0.550000 13211012
0.055844 0.045406 0.548000 9722485
0.056761 0.049334 0.557000 12092032
0.056965 0.052706 0.559000 11697789
0.057372 0.056300 0.563000 11893624
0.057474 0.059623 0.564000 12030582
0.057372 0.062734 0.563000 10386316
0.057169 0.065717 0.561000 11519672
0.063531 -0.015737 0.612000 13748704
0.063012 -0.012140 0.607000 13148813
0.061455 -0.008457 0.592000 11894874
0.061248 -0.005057 0.590000 13017143
0.060832 -0.001674 0.586000 14076357
0.060002 0.001651 0.578000 14337250
0.059587 0.004920 0.574000 13475513
0.059171 0.008143 0.570000 6312642
0.058549 0.011280 0.564000 5200810
0.058133 0.014400 0.560000 5266865
0.057614 0.017443 0.555000 5403847
0.057407 0.020540 0.553000 6456526
0.056991 0.023529 0.549000 10918061
0.056888 0.026617 0.548000 6049660
0.056784 0.029694 0.547000 6177175
0.056784 0.032820 0.547000 11767667
0.057095 0.036143 0.550000 13075584
0.057303 0.039429 0.552000 12876163
0.057095 0.042429 0.550000 12093830
0.057926 0.049423 0.558000 12095104
0.058133 0.052800 0.560000 10976128
0.058445 0.056300 0.563000 12162697
0.058549 0.059623 0.564000 11896954
0.058445 0.062734 0.563000 11501214
0.058964 0.066537 0.568000 12430239
0.064380 -0.015660 0.609000 14008027
0.064063 -0.012120 0.606000 12821144
0.062689 -0.008471 0.593000 11698000
0.062371 -0.005057 0.590000 13148210
0.062054 -0.001677 0.587000 13544366
0.061103 0.001651 0.578000 14137563
0.060786 0.004929 0.575000 11905725
0.060257 0.008143 0.570000 7630515
0.059623 0.011280 0.564000 5200300
0.059200 0.014400 0.560000 5266609
0.058671 0.017443 0.555000 5404619
0.058460 0.020540 0.553000 7637195
0.058143 0.023571 0.550000 10586251
0.057931 0.026617 0.548000 4472444
0.057931 0.029749 0.548000 8547471
0.058037 0.032940 0.549000 12548732
0.058249 0.036209 0.551000 12680835
0.058460 0.039500 0.553000 13008515
0.058460 0.042660 0.553000 10977922
0.059094 0.046317 0.559000 11434371
0.059200 0.049600 0.560000 12028034
0.059623 0.053177 0.564000 10317946
0.059623 0.056400 0.564000 12423041
0.059834 0.059834 0.566000 11763834
0.060257 0.063514 0.570000 12557986
0.065432 -0.015634 0.608000 13219542
0.065432 -0.012160 0.608000 12820898
0.063818 -0.008471 0.593000 11435591
0.063495 -0.005057 0.590000 13476397
0.063065 -0.001674 0.586000 13271704
0.062204 0.001651 0.578000 14533331
0.061881 0.004929 0.575000 12167361
0.061343 0.008143 0.570000 8488356
0.060697 0.011280 0.564000 4675503
0.060482 0.014451 0.562000 5268656
0.059836 0.017474 0.556000 5143503
0.059513 0.020540 0.553000 8555719
0.059190 0.023571 0.550000 9010537
0.059083 0.026666 0.549000 4734076
0.058975 0.029749 0.548000 10457991
0.059190 0.033000 0.550000 12420741
0.059406 0.036274 0.552000 12676742
0.059621 0.039571 0.554000 12749442
0.059513 0.042660 0.553000 11039102
0.060159 0.046317 0.559000 11566473
0.060590 0.049866 0.563000 12159364
0.060805 0.053271 0.565000 11238771
0.060805 0.056500 0.565000 12620410
0.061020 0.059940 0.567000 11368569
0.061343 0.063514 0.570000 13351591
0.066590 -0.015634 0.608000 12428992
0.066481 -0.012140 0.607000 12821907
0.064948 -0.008471 0.593000 11107667
0.064619 -0.005057 0.590000 13807683
0.064181 -0.001674 0.586000 12950429
0.063414 0.001654 0.579000 14928842
0.062867 0.004920 0.574000 12367817
0.062319 0.008129 0.569000 9411731
0.061881 0.011300 0.565000 4084917
0.061443 0.014426 0.561000 5335230
0.060895 0.017474 0.556000 4816850
0.060676 0.020577 0.554000 9474457
0.060457 0.023657 0.552000 7431796
0.060238 0.026714 0.550000 4997500
0.060238 0.029857 0.550000 12288907
0.060567 0.033180 0.553000 12359299
0.060457 0.036274 0.552000 12612235
0.060676 0.039571 0.554000 12492171
0.061881 0.050043 0.565000 12288125
0.061990 0.053366 0.566000 12224109
0.062100 0.056700 0.567000 12749943
0.062210 0.060046 0.568000 10974336
0.062429 0.063514 0.570000 14070444
0.067414 -0.012100 0.605000 11367811
0.066411 -0.008514 0.596000 11107168
0.065743 -0.005057 0.590000 13805657
0.065297 -0.001674 0.586000 13213859
0.064517 0.001654 0.579000 15058880
0.063960 0.004920 0.574000 13880272
0.063403 0.008129 0.569000 10393218
0.062957 0.011300 0.565000 3756220
0.062511 0.014426 0.561000 5402827
0.061954 0.017474 0.556000 6325973
0.061731 0.020577 0.554000 9273450
0.061620 0.023700 0.553000 5983614
0.061509 0.026811 0.552000 6114428
0.061731 0.030074 0.554000 11894672
0.061620 0.033180 0.553000 12751489
0.061954 0.036537 0.556000 12808848
0.061731 0.039571 0.554000 12820371
0.063069 0.046897 0.566000 11960962
0.063180 0.050220 0.567000 10965110
0.063180 0.053460 0.567000 11762022
0.063291 0.056800 0.568000 12223605
0.063403 0.060151 0.569000 11570567
0.063626 0.063626 0.571000 13937841
0.068453 -0.012080 0.604000 9993355
0.067547 -0.008514 0.596000 11107419
0.066867 -0.005057 0.590000 13870172
0.066413 -0.001674 0.586000 13481125
0.065620 0.001654 0.579000 15188670
0.064940 0.004911 0.573000 15321035
0.064487 0.008129 0.569000 11443093
0.064033 0.011300 0.565000 3432629
0.063580 0.014426 0.561000 5470157
0.063127 0.017506 0.557000 7771079
0.062787 0.020577 0.554000 9070956
0.062673 0.023700 0.553000 4541824
0.062673 0.026860 0.553000 7292043
0.062787 0.030074 0.554000 11504517
0.062900 0.033300 0.555000 13211278
0.063353 0.036734 0.559000 13012116
0.063467 0.040000 0.560000 13147008
0.063920 0.043509 0.564000 13011057
0.064147 0.046897 0.566000 12292999
0.064373 0.050309 0.568000 9664383
0.064487 0.053649 0.569000 11369593
0.064600 0.057000 0.570000 11697013
0.064827 0.060469 0.572000 12097957
0.069719 -0.012100 0.605000 10848915
0.068797 -0.008529 0.597000 11304022
0.068106 -0.005066 0.591000 14266206
0.067530 -0.001674 0.586000 14072743
0.066723 0.001654 0.579000 15254459
0.066147 0.004920 0.574000 15387589
0.065570 0.008129 0.569000 12033704
0.064994 0.011280 0.564000 4940461
0.064649 0.014426 0.561000 5667535
0.064188 0.017506 0.557000 9546169
0.063957 0.020614 0.555000 7627118
0.063842 0.023743 0.554000 4737153
0.063842 0.026909 0.554000 8021146
0.063957 0.030129 0.555000 11896955
0.064188 0.033420 0.557000 12228250
0.064418 0.036734 0.559000 13411992
0.064533 0.040000 0.560000 12289388
0.065110 0.043586 0.565000 11356509
0.065340 0.046980 0.567000 12818060
0.065570 0.050397 0.569000 11705480
0.065801 0.053837 0.571000 12029580
0.065916 0.057200 0.572000 10118006
0.065916 0.060469 0.572000 12955586
0.070754 -0.012080 0.604000 11711409
0.069817 -0.008514 0.596000 11503446
0.069231 -0.005066 0.591000 14730077
0.068646 -0.001674 0.586000 14595491
0.067826 0.001654 0.579000 15319479
0.067240 0.004920 0.574000 15452098
0.066654 0.008129 0.569000 12686272
0.066069 0.011280 0.564000 6456749
0.065717 0.014426 0.561000 5930195
0.065249 0.017506 0.557000 11310506
0.065014 0.020614 0.555000 6183035
0.064897 0.023743 0.554000 4867204
0.064897 0.026909 0.554000 8817309
0.065014 0.030129 0.555000 12292486
0.065366 0.033480 0.558000 11244698
0.065600 0.036800 0.560000 13737359
0.065600 0.040000 0.560000 11436663
0.066186 0.043586 0.565000 9663859
0.066537 0.047063 0.568000 13409417
0.066771 0.050486 0.570000 13672577
0.067006 0.053931 0.572000 12685189
0.067123 0.057300 0.573000 8483461
0.067357 0.060786 0.575000 13881777
0.071905 -0.012080 0.604000 12300750
0.070952 -0.008514 0.596000 12354646
0.070357 -0.005066 0.591000 14794076
0.069762 -0.001674 0.586000 14591136
0.069048 0.001657 0.580000 15385010
0.068095 0.004903 0.572000 15451328
0.067619 0.008114 0.568000 12559319
0.067143 0.011280 0.564000 9281196
0.066786 0.014426 0.561000 6851286
0.066310 0.017506 0.557000 9405595
0.066071 0.020614 0.555000 5524871
0.065952 0.023743 0.554000 4539272
0.066310 0.027054 0.557000 9930399
0.066548 0.030346 0.559000 13018256
0.066429 0.033480 0.558000 12361882
0.066905 0.036931 0.562000 12686214
0.067857 0.040714 0.570000 11305345
0.067619 0.043817 0.568000 11637641
0.067738 0.047146 0.569000 13475205
0.067976 0.050574 0.571000 13606522
0.068095 0.053931 0.572000 11172990
0.068452 0.057500 0.575000 10317716
0.068452 0.060786 0.575000 13940383
0.072813 -0.008600 0.602000 13213277
0.071483 -0.005066 0.591000 14924917
0.070878 -0.001674 0.586000 14594982
0.070152 0.001657 0.580000 15450547
0.069548 0.004929 0.575000 15385276
0.068701 0.008114 0.568000 12497361
0.068338 0.011300 0.565000 12031404
0.068096 0.014477 0.563000 7770318
0.067491 0.017537 0.558000 7496338
0.067250 0.020651 0.556000 4934795
0.067370 0.023871 0.557000 4145293
0.067491 0.027103 0.558000 11118488
0.067612 0.030346 0.559000 13671564
0.067854 0.033660 0.561000 13477521
0.068217 0.037063 0.564000 11635078
0.068943 0.040714 0.570000 11105154
0.068943 0.043971 0.570000 13604231
0.069064 0.047311 0.571000 13539978
0.069185 0.050663 0.572000 13539969
0.069306 0.054026 0.573000 9665898
0.069910 0.057800 0.578000 12161445
0.073960 -0.008600 0.602000 13542756
0.072609 -0.005066 0.591000 14595726
0.071994 -0.001674 0.586000 14728364
0.071134 0.001654 0.579000 15254196
0.070766 0.004937 0.576000 15385272
0.069906 0.008129 0.569000 13351626
0.069414 0.011300 0.565000 12491948
0.068923 0.014426 0.561000 7765701
0.068554 0.017537 0.558000 5388937
0.068431 0.020689 0.557000 4737167
0.068431 0.023871 0.557000 3813778
0.068800 0.027200 0.560000 11572368
0.069169 0.030563 0.563000 13738633
0.068923 0.033660 0.561000 13410440
0.069783 0.037326 0.568000 11959942
0.070029 0.040714 0.570000 11959426
0.070151 0.044049 0.571000 13541765
0.070397 0.047477 0.573000 13541262
0.070520 0.050840 0.574000 12686728
0.070520 0.054120 0.574000 9458517
0.071257 0.058000 0.580000 13155510
0.075231 -0.012060 0.603000 13417432
0.074982 -0.008586 0.601000 13871754
0.073734 -0.005066 0.591000 14333594
0.072986 -0.001671 0.585000 14792359
0.072237 0.001654 0.579000 15122863
0.071988 0.004946 0.577000 15319988
0.070865 0.008114 0.568000 14141120
0.070615 0.011320 0.566000 12884153
0.069991 0.014426 0.561000 7833005
0.069742 0.017569 0.559000 3295103
0.069867 0.020800 0.560000 4537981
0.069991 0.024043 0.561000 3494538
0.070116 0.027297 0.562000 12094601
0.070366 0.030617 0.564000 13737092
0.070490 0.033900 0.565000 13346185
0.070865 0.037326 0.568000 12290943
0.071239 0.040786 0.571000 12816005
0.071364 0.044126 0.572000 13476225
0.071738 0.047643 0.575000 13476744
0.071738 0.050929 0.575000 11826809
0.071988 0.054403 0.577000 9255536
0.072487 0.058100 0.581000 14069940
0.076380 -0.012060 0.603000 13417187
0.076253 -0.008600 0.602000 13871281
0.074860 -0.005066 0.591000 14596518
0.073973 -0.001669 0.584000 14791841
0.073340 0.001654 0.579000 15121066
0.072960 0.004937 0.576000 15188911
0.072200 0.008143 0.570000 14138038
0.071693 0.011320 0.566000 12751815
0.071440 0.014503 0.564000 10062229
0.071060 0.017631 0.561000 7498613
0.070933 0.020800 0.560000 7825515
0.071060 0.024043 0.561000 7300227
0.071313 0.027346 0.563000 12224898
0.071567 0.030671 0.565000 13803648
0.071693 0.033960 0.566000 12292233
0.072200 0.037457 0.570000 12093817
0.072580 0.040929 0.573000 12817031
0.072707 0.044280 0.574000 13541501
0.073087 0.047809 0.577000 12620417
0.073213 0.051194 0.578000 9981034
0.073720 0.054874 0.582000 10911114
0.073720 0.058200 0.582000 13476018
0.077400 -0.008600 0.602000 13874872
0.075857 -0.005057 0.590000 14924208
0.075086 -0.001669 0.584000 14725532
0.074443 0.001654 0.579000 15121070
0.074186 0.004946 0.577000 14987174
0.073414 0.008157 0.571000 14132922
0.072771 0.011320 0.566000 12566481
0.072514 0.014503 0.564000 12292758
0.072257 0.017663 0.562000 11635846
0.072514 0.020949 0.564000 11110029
0.072386 0.024129 0.563000 11109791
0.072386 0.027346 0.563000 12351352
0.072771 0.030726 0.566000 13803394
0.073029 0.034080 0.568000 11245196
0.073414 0.037523 0.571000 11825014
0.073671 0.040929 0.573000 12751745
0.073929 0.044357 0.575000 13539968
0.074314 0.047891 0.578000 11765122
0.074571 0.051371 0.580000 8085878
0.074957 0.054969 0.583000 12565415
0.078547 -0.008600 0.602000 13942720
0.076850 -0.005049 0.589000 14859961
0.076329 -0.001671 0.585000 14527894
0.075546 0.001654 0.579000 15056049
0.075285 0.004946 0.577000 13865628
0.074502 0.008157 0.571000 14203326
0.073850 0.011320 0.566000 13293275
0.073719 0.014529 0.565000 11967126
0.073458 0.017694 0.563000 11506840
0.073719 0.020986 0.565000 11638703
0.073850 0.024257 0.566000 11766716
0.073980 0.027540 0.567000 12418157
0.074110 0.030834 0.568000 13803140
0.074371 0.034200 0.570000 11307919
0.074763 0.037654 0.573000 11166068
0.074893 0.041000 0.574000 13278586
0.075285 0.044511 0.577000 12552834
0.075676 0.048057 0.580000 11040131
0.075937 0.051549 0.582000 9333890
0.076329 0.055157 0.585000 12891076
0.077708 -0.005031 0.587000 14860983
0.077443 -0.001671 0.585000 14266272
0.076781 0.001657 0.580000 15057592
0.076384 0.004946 0.577000 12688033
0.075722 0.008171 0.572000 14341836
0.075060 0.011340 0.567000 13940135
0.074795 0.014529 0.565000 11639921
0.074663 0.017726 0.564000 11308655
0.074928 0.021023 0.566000 12167342
0.075060 0.024300 0.567000 12363708
0.075192 0.027589 0.568000 12476023
0.075457 0.030943 0.570000 13737602
0.075722 0.034320 0.572000 11438222
0.076119 0.037786 0.575000 10517373
0.076251 0.041143 0.576000 13739141
0.076649 0.044666 0.579000 11568770
0.076913 0.048140 0.581000 10382492
0.077178 0.051637 0.583000 10588317
0.077575 0.055251 0.586000 13222588
0.078826 -0.005031 0.587000 14991029
0.078557 -0.001671 0.585000 14659499
0.077886 0.001657 0.580000 14794175
0.077483 0.004946 0.577000 13341350
0.076946 0.008186 0.573000 14207705
0.076140 0.011340 0.567000 13015155
0.075871 0.014529 0.565000 11570252
0.075871 0.017757 0.565000 11240774
0.076006 0.021023 0.566000 12099501
0.076006 0.024257 0.566000 12496316
0.076543 0.027686 0.570000 12089472
0.076543 0.030943 0.570000 13738881
0.076946 0.034380 0.573000 12490124
0.077349 0.037851 0.576000 11902087
0.077349 0.041143 0.576000 12684943
0.077886 0.044743 0.580000 11302017
0.078289 0.048306 0.583000 11637941
0.078423 0.051726 0.584000 12170681
0.079671 -0.005014 0.585000 15057079
0.079535 -0.001669 0.584000 14988717
0.078990 0.001657 0.580000 14598058
0.078446 0.004937 0.576000 13938098
0.078037 0.008186 0.573000 14076893
0.077356 0.011360 0.568000 12030832
0.076948 0.014529 0.565000 11567954
0.077084 0.017789 0.566000 11108694
0.077220 0.021060 0.567000 11963532
0.077356 0.024343 0.568000 12555676
0.077901 0.027783 0.572000 11701414
0.077901 0.031051 0.572000 13667192
