# .PCD v.7 - Point Cloud Data file format
VERSION .7
FIELDS x y z rgb
SIZE 4 4 4 4
TYPE F F F I
COUNT 1 1 1 1
WIDTH 1296
HEIGHT 1
POINTS 1296
DATA ascii
-0.205250 0.019863 0.632000 12033422
-0.202327 0.023140 0.623000 13149605
-0.200703 0.026486 0.618000 11374660
-0.198754 0.029726 0.612000 12825935
-0.196156 0.032789 0.604000 12032126
-0.194857 0.036000 0.600000 13285321
-0.193233 0.039100 0.595000 11840445
-0.192584 0.042357 0.593000 9993600
-0.192909 0.045823 0.594000 10321788
-0.192909 0.049217 0.594000 11307649
-0.193233 0.052700 0.595000 11502394
-0.193883 0.056289 0.597000 11634456
-0.194532 0.059900 0.599000 11436315
-0.195182 0.063534 0.601000 12030829
-0.195507 0.067080 0.602000 12163995
-0.196156 0.070754 0.604000 10912887
-0.196481 0.074329 0.605000 10057065
-0.196806 0.077914 0.606000 9333307
-0.197780 0.081780 0.609000 9269602
-0.204046 0.019863 0.632000 13281942
-0.202431 0.023289 0.627000 13084327
-0.198880 0.026400 0.616000 13081922
-0.197911 0.029774 0.613000 12623690
-0.194683 0.032734 0.603000 12098946
-0.193069 0.035880 0.598000 13286598
-0.191777 0.039034 0.594000 13025737
-0.191454 0.042357 0.593000 9927291
-0.191131 0.045669 0.592000 10256769
-0.191454 0.049134 0.593000 11111045
-0.191777 0.052611 0.594000 10845269
-0.192423 0.056194 0.596000 11700747
-0.192746 0.059700 0.597000 11305244
-0.193714 0.063429 0.600000 11767923
-0.194037 0.066969 0.601000 11901853
-0.194683 0.070637 0.603000 10915738
-0.195006 0.074206 0.604000 8812664
-0.195329 0.077786 0.605000 8014641
-0.196297 0.081646 0.608000 11246479
-0.201237 0.023289 0.627000 13084840
-0.198028 0.026443 0.617000 14789733
-0.196423 0.029726 0.612000 12421193
-0.193534 0.032734 0.603000 12163986
-0.191930 0.035880 0.598000 13356753
-0.190646 0.039034 0.594000 14204878
-0.189683 0.042214 0.591000 9795453
-0.190004 0.045669 0.592000 10190976
-0.190325 0.049134 0.593000 10914702
-0.190646 0.052611 0.594000 10190188
-0.191288 0.056194 0.596000 11768411
-0.191609 0.059700 0.597000 11109717
-0.192250 0.063323 0.599000 11505533
-0.192892 0.066969 0.601000 11573143
-0.193213 0.070520 0.602000 10917778
-0.193855 0.074206 0.604000 7495006
-0.194176 0.077786 0.605000 6751015
-0.194818 0.081511 0.607000 13149321
-0.200043 0.023289 0.627000 13019561
-0.197171 0.026486 0.618000 14070921
-0.195576 0.029774 0.613000 11306567
-0.192386 0.032734 0.603000 12230819
-0.191429 0.036000 0.600000 13881051
-0.189514 0.039034 0.594000 14275540
-0.188557 0.042214 0.591000 9533054
-0.188557 0.045591 0.591000 10256000
-0.189195 0.049134 0.593000 10586263
-0.189514 0.052611 0.594000 10188930
-0.190152 0.056194 0.596000 11967659
-0.190471 0.059700 0.597000 10912654
-0.190790 0.063217 0.598000 11506823
-0.191748 0.066969 0.601000 11440530
-0.192067 0.070520 0.602000 10850185
-0.192705 0.074206 0.604000 8141636
-0.193024 0.077786 0.605000 6827804
-0.193662 0.081511 0.607000 12757124
-0.199166 0.023326 0.628000 12954534
-0.195677 0.026443 0.617000 13282987
-0.193774 0.029677 0.611000 10255722
-0.191237 0.032734 0.603000 12231844
-0.190286 0.036000 0.600000 14476509
-0.188066 0.038969 0.593000 14271186
-0.187431 0.042214 0.591000 9336192
-0.187749 0.045669 0.592000 10321792
-0.188066 0.049134 0.593000 10259852
-0.188066 0.052523 0.593000 10190209
-0.188700 0.056100 0.595000 12164515
-0.189334 0.059700 0.597000 10652550
-0.189651 0.063217 0.598000 11507596
-0.190286 0.066857 0.600000 11243150
-0.190920 0.070520 0.602000 10783368
-0.191237 0.074083 0.603000 8743265
-0.191554 0.077657 0.604000 6897191
-0.192189 0.081377 0.606000 12292983
-0.194502 0.026443 0.617000 13877965
-0.192610 0.029677 0.611000 10454925
-0.190404 0.032789 0.604000 12429477
-0.189458 0.036060 0.601000 14143711
-0.186936 0.038969 0.593000 14076368
-0.185990 0.042143 0.590000 9993346
-0.186306 0.045591 0.591000 10059137
-0.186621 0.049051 0.592000 9862017
-0.186936 0.052523 0.593000 10125696
-0.187567 0.056100 0.595000 11901338
-0.188197 0.059700 0.597000 10454910
-0.188512 0.063217 0.598000 10981265
-0.189143 0.066857 0.600000 10454154
-0.189773 0.070520 0.602000 10585735
-0.190089 0.074083 0.603000 9473406
-0.190719 0.077786 0.605000 7227186
-0.191034 0.081377 0.606000 10386538
-0.193327 0.026443 0.617000 14469330
-0.191447 0.029677 0.611000 10717837
-0.189253 0.032789 0.604000 12560040
-0.188313 0.036060 0.601000 13813978
-0.185807 0.038969 0.593000 13874882
-0.184867 0.042143 0.590000 10651528
-0.185180 0.045591 0.591000 9731986
-0.185493 0.049051 0.592000 9531270
-0.185807 0.052523 0.593000 9992839
-0.186433 0.056100 0.595000 11703703
-0.187060 0.059700 0.597000 10191487
-0.187060 0.063111 0.597000 10454889
-0.188000 0.066857 0.600000 9666175
-0.188313 0.070403 0.601000 10389111
-0.188940 0.074083 0.603000 10125692
-0.189253 0.077657 0.604000 7619118
-0.189567 0.081243 0.605000 8415069
-0.214886 0.001971 0.690000 14801637
-0.192463 0.026486 0.618000 15128792
-0.190283 0.029677 0.611000 11113101
-0.188103 0.032789 0.604000 12035499
-0.187480 0.036120 0.602000 13550292
-0.184677 0.038969 0.593000 13150900
-0.183743 0.042143 0.590000 12229261
-0.184054 0.045591 0.591000 11241124
-0.184366 0.049051 0.592000 10716043
-0.184677 0.052523 0.593000 10908046
-0.184989 0.056006 0.594000 11835027
-0.185611 0.059600 0.596000 10587008
-0.185923 0.063111 0.597000 9789505
-0.186857 0.066857 0.600000 9860212
-0.187169 0.070403 0.601000 8348263
-0.187791 0.074083 0.603000 9994873
-0.188103 0.077657 0.604000 5980201
-0.188414 0.081243 0.605000 6901841
-0.189037 0.084980 0.607000 8349542
-0.213881 0.001974 0.691000 14532310
-0.213571 0.005914 0.690000 7957684
-0.197476 0.020051 0.638000 13740440
-0.190976 0.026443 0.617000 15720159
-0.188500 0.029580 0.609000 11507869
-0.186952 0.032789 0.604000 11441297
-0.186333 0.036120 0.602000 13358296
-0.183548 0.038969 0.593000 12429479
-0.182619 0.042143 0.590000 13874074
-0.182619 0.045514 0.590000 12695233
-0.183238 0.049051 0.592000 11904161
-0.183548 0.052523 0.593000 11770538
-0.183857 0.056006 0.594000 11969455
-0.184476 0.059600 0.596000 10915223
-0.184786 0.063111 0.597000 9136191
-0.185405 0.066746 0.599000 10058114
-0.186024 0.070403 0.601000 6306868
-0.186643 0.074083 0.603000 9856086
-0.186952 0.077657 0.604000 4402472
-0.187262 0.081243 0.605000 5388342
-0.187881 0.084980 0.607000 8417102
-0.212565 0.001974 0.691000 13876679
-0.212257 0.005914 0.690000 7622323
-0.195338 0.019957 0.635000 14929045
-0.193492 0.023363 0.629000 13348002
-0.189801 0.026443 0.617000 15789286
-0.187955 0.029677 0.611000 11640492
-0.185802 0.032789 0.604000 9793655
-0.184571 0.036000 0.600000 13288923
-0.182418 0.038969 0.593000 13279897
-0.181803 0.042214 0.591000 14665127
-0.181803 0.045591 0.591000 14012127
-0.182110 0.049051 0.592000 13087927
-0.182418 0.052523 0.593000 13748679
-0.182726 0.056006 0.594000 13550795
-0.183341 0.059600 0.596000 11319214
-0.183649 0.063111 0.597000 9529148
-0.184264 0.066746 0.599000 11176336
-0.184571 0.070286 0.600000 6239233
-0.185187 0.073960 0.602000 7158578
-0.185494 0.077529 0.603000 3937575
-0.186110 0.081243 0.605000 3735836
-0.186417 0.084840 0.606000 6107957
-0.211249 0.001974 0.691000 13286600
-0.210943 0.005914 0.690000 7304623
-0.200549 0.009371 0.656000 13736593
-0.202077 0.013220 0.661000 14721932
-0.195657 0.016457 0.640000 12491369
-0.194434 0.019989 0.636000 16104863
-0.192294 0.023363 0.629000 13283496
-0.188626 0.026443 0.617000 15853548
-0.186791 0.029677 0.611000 11841730
-0.184957 0.032843 0.605000 8154221
-0.183429 0.036000 0.600000 13290190
-0.181594 0.039034 0.594000 14139563
-0.180983 0.042286 0.592000 15452318
-0.181289 0.045746 0.593000 15323830
-0.181289 0.049134 0.593000 14271171
-0.181289 0.052523 0.593000 15718107
-0.181900 0.056100 0.595000 15129047
-0.182817 0.059800 0.598000 11637648
-0.182817 0.063217 0.598000 9933667
-0.183123 0.066746 0.599000 12297121
-0.183429 0.070286 0.600000 6242612
-0.183734 0.073837 0.601000 4472134
-0.184346 0.077529 0.603000 3479611
-0.184957 0.081243 0.605000 2037290
-0.185263 0.084840 0.606000 3870248
-0.211148 -0.001986 0.695000 13748177
-0.209932 0.001974 0.691000 13221065
-0.209629 0.005914 0.690000 8871339
-0.198995 0.009357 0.655000 13803419
-0.198084 0.013040 0.652000 13214342
-0.194438 0.016457 0.640000 13082964
-0.193223 0.019989 0.636000 15187370
-0.189881 0.023214 0.625000 13349806
-0.187754 0.026486 0.618000 16118769
-0.185628 0.029677 0.611000 11974359
-0.183501 0.032789 0.604000 7951460
-0.182286 0.036000 0.600000 13023680
-0.180767 0.039100 0.595000 14739133
-0.179855 0.042286 0.592000 16112276
-0.180159 0.045746 0.593000 15847822
-0.180159 0.049134 0.593000 14271951
-0.180159 0.052523 0.593000 15258608
-0.181374 0.056289 0.597000 14340578
-0.182286 0.060000 0.600000 9792882
-0.182286 0.063429 0.600000 10853514
-0.181982 0.066746 0.599000 13091249
-0.182590 0.070403 0.601000 6243431
-0.182893 0.073960 0.602000 5331034
-0.183501 0.077657 0.604000 5129295
-0.183805 0.081243 0.605000 4672568
-0.184109 0.084840 0.606000 6172698
-0.210428 -0.001991 0.697000 12034483
-0.209220 0.001980 0.693000 13161421
-0.198351 0.005631 0.657000 10388902
-0.197144 0.009329 0.653000 13867935
-0.196842 0.013040 0.652000 11635588
-0.193219 0.016457 0.640000 13680250
-0.191710 0.019957 0.635000 14267301
-0.188389 0.023177 0.624000 13476756
-0.186879 0.026529 0.619000 16313075
-0.185370 0.029823 0.614000 12111575
-0.182350 0.032789 0.604000 7688025
-0.181143 0.036000 0.600000 12761000
-0.179935 0.039166 0.596000 15322296
-0.179030 0.042357 0.593000 16706480
-0.179331 0.045823 0.594000 16308138
-0.179633 0.049300 0.595000 14271955
-0.179331 0.052611 0.594000 14733283
-0.180841 0.056477 0.599000 13549257
-0.180841 0.059900 0.599000 7894385
-0.181143 0.063429 0.600000 11839629
-0.181143 0.066857 0.600000 13872807
-0.181445 0.070403 0.601000 6294131
-0.182049 0.074083 0.603000 6113851
-0.182350 0.077657 0.604000 6770741
-0.182954 0.081377 0.606000 7225635
-0.183256 0.084980 0.607000 8547931
-0.210000 -0.006000 0.700000 11839942
-0.209400 -0.001994 0.698000 9925270
-0.196800 0.001874 0.656000 13025745
-0.197100 0.005631 0.657000 11704738
-0.195900 0.009329 0.653000 13478306
-0.195300 0.013020 0.651000 10968963
-0.192000 0.016457 0.640000 14531232
-0.190500 0.019957 0.635000 14330528
-0.186900 0.023140 0.623000 13016185
-0.185700 0.026529 0.619000 16316149
-0.184500 0.029871 0.615000 11976918
-0.180900 0.032734 0.603000 7222607
-0.180000 0.036000 0.600000 12298383
-0.179100 0.039231 0.597000 13343668
-0.178500 0.042500 0.595000 14139595
-0.178500 0.045900 0.595000 15852230
-0.178800 0.049383 0.596000 14403286
-0.179700 0.053054 0.599000 14533590
-0.180000 0.056571 0.600000 11900336
-0.180000 0.060000 0.600000 10193264
-0.180300 0.063534 0.601000 11772559
-0.180300 0.066969 0.601000 12819869
-0.180600 0.070520 0.602000 7555711
-0.180900 0.074083 0.603000 5252892
-0.181500 0.077786 0.605000 6369818
-0.181800 0.081377 0.606000 6036494
-0.208667 -0.006000 0.700000 9866384
-0.208667 -0.002000 0.700000 7823220
-0.194656 0.001866 0.653000 12833460
-0.195252 0.005614 0.655000 12950944
-0.194656 0.009329 0.653000 13089438
-0.194060 0.013020 0.651000 10260104
-0.191079 0.016483 0.641000 15320480
-0.189290 0.019957 0.635000 14333337
-0.185713 0.023140 0.623000 12483192
-0.184521 0.026529 0.619000 16245230
-0.183030 0.029823 0.614000 11850177
-0.179751 0.032734 0.603000 6701397
-0.178857 0.036000 0.600000 11905639
-0.178261 0.039297 0.598000 11309994
-0.177665 0.042571 0.596000 11638447
-0.177963 0.046054 0.597000 15388622
-0.179155 0.049797 0.601000 14534618
-0.178857 0.053143 0.600000 14270416
-0.178857 0.056571 0.600000 10321306
-0.179453 0.060200 0.602000 12490370
-0.179751 0.063746 0.603000 11704958
-0.179155 0.066969 0.601000 11704731
-0.180050 0.070754 0.604000 8815247
-0.180050 0.074206 0.604000 4404258
-0.180348 0.077786 0.605000 6040629
-0.180944 0.081511 0.607000 4869987
-0.208222 -0.006026 0.703000 7029337
-0.207630 -0.002003 0.701000 8404563
-0.193412 0.001866 0.653000 12429206
-0.194005 0.005614 0.655000 13743518
-0.193412 0.009329 0.653000 12952729
-0.192524 0.013000 0.650000 11902861
-0.189858 0.016483 0.641000 15319455
-0.188081 0.019957 0.635000 13679762
-0.184527 0.023140 0.623000 12290423
-0.183342 0.026529 0.619000 15525095
-0.181861 0.029823 0.614000 10066092
-0.179195 0.032843 0.605000 7883868
-0.178010 0.036060 0.601000 11373630
-0.177122 0.039297 0.598000 11573409
-0.176826 0.042643 0.597000 12229266
-0.177122 0.046131 0.598000 14733526
-0.178010 0.049797 0.601000 14470110
-0.178010 0.053231 0.601000 13414858
-0.178010 0.056666 0.601000 10584196
-0.178307 0.060200 0.602000 12098964
-0.178603 0.063746 0.603000 11570540
-0.178603 0.067191 0.603000 12362138
-0.180084 0.071223 0.608000 10326686
-0.179195 0.074329 0.605000 6837287
-0.179491 0.077914 0.606000 10321232
-0.180084 0.081646 0.608000 10136504
-0.206883 -0.006026 0.703000 4136555
-0.206294 -0.002003 0.701000 9002575
-0.192169 0.001866 0.653000 12026489
-0.192757 0.005614 0.655000 14462618
-0.192169 0.009329 0.653000 12884378
-0.191580 0.013020 0.651000 13543053
-0.188637 0.016483 0.641000 15318943
-0.186871 0.019957 0.635000 13014926
-0.183340 0.023140 0.623000 12151936
-0.182163 0.026529 0.619000 14731731
-0.180691 0.029823 0.614000 8292512
-0.178337 0.032897 0.606000 9067101
-0.177454 0.036180 0.603000 10910780
-0.177160 0.039560 0.602000 11766673
-0.177749 0.043143 0.604000 12890297
-0.177454 0.046517 0.603000 14005716
-0.177160 0.049880 0.602000 14403539
-0.176866 0.053231 0.601000 12563145
-0.177160 0.056760 0.602000 10845586
-0.177160 0.060200 0.602000 11706014
-0.177749 0.063851 0.604000 11440027
-0.178926 0.067749 0.608000 12953516
-0.179220 0.071340 0.609000 11837075
-0.178631 0.074574 0.607000 9267536
-0.178926 0.078171 0.608000 14668180
-0.179220 0.081780 0.609000 15325134
-0.205544 -0.006026 0.703000 5522812
-0.205544 -0.002009 0.703000 9465419
-0.191510 0.001871 0.655000 12159836
-0.191510 0.005614 0.655000 14266518
-0.190925 0.009329 0.653000 12949146
-0.190632 0.013040 0.652000 13083277
-0.187709 0.016509 0.642000 15253919
-0.185662 0.019957 0.635000 11633803
-0.182153 0.023140 0.623000 12095112
-0.180691 0.026486 0.618000 13744319
-0.179522 0.029823 0.614000 10261396
-0.177475 0.032951 0.607000 8937566
-0.176598 0.036240 0.604000 10582841
-0.176890 0.039757 0.605000 10383234
-0.177183 0.043286 0.606000 13749983
-0.176890 0.046671 0.605000 11301842
-0.176306 0.049963 0.603000 14138055
-0.176013 0.053320 0.602000 13613000
-0.177768 0.057326 0.608000 12493728
-0.177768 0.060800 0.608000 12822697
-0.177768 0.064274 0.608000 12959177
-0.178645 0.068083 0.611000 13282750
-0.178645 0.071574 0.611000 12095112
-0.178060 0.074820 0.609000 11307128
-0.179230 0.078814 0.613000 14339031
-0.178645 0.082049 0.611000 14867684
-0.204205 -0.006026 0.703000 6907798
-0.203624 -0.002003 0.701000 9859659
-0.190262 0.001871 0.655000 12224597
-0.194329 0.005734 0.669000 14068115
-0.190262 0.009357 0.655000 13012622
-0.189681 0.013060 0.653000 12557714
-0.187067 0.016560 0.644000 15256229
-0.184162 0.019926 0.634000 10258321
-0.183290 0.023437 0.631000 12038825
-0.179514 0.026486 0.618000 12758456
-0.178352 0.029823 0.614000 12296867
-0.176610 0.033006 0.608000 8746362
-0.175738 0.036300 0.605000 10322017
-0.176029 0.039823 0.606000 8947353
-0.176029 0.043286 0.606000 14612700
-0.176029 0.046749 0.606000 8618942
-0.176029 0.050211 0.606000 13879253
-0.177771 0.054206 0.612000 14600151
-0.177481 0.057609 0.611000 14140080
-0.177771 0.061200 0.612000 13941177
-0.177771 0.064697 0.612000 14471881
-0.178062 0.068306 0.613000 13547458
-0.177481 0.071574 0.611000 12427683
-0.176900 0.074820 0.609000 13280150
-0.178352 0.078943 0.614000 14071488
-0.178062 0.082317 0.613000 14333889
-0.203154 -0.010057 0.704000 11772058
-0.202866 -0.006026 0.703000 8357296
-0.202000 -0.002000 0.700000 9596746
-0.193054 0.005734 0.669000 13213585
-0.189303 0.009371 0.656000 12949634
-0.188437 0.013060 0.653000 12485527
-0.185840 0.016560 0.644000 15123115
-0.182954 0.019926 0.634000 10057110
-0.182089 0.023437 0.631000 12433609
-0.178337 0.026486 0.618000 12495025
-0.176894 0.029774 0.613000 12100786
-0.175740 0.033060 0.609000 10518934
-0.174586 0.036300 0.605000 11179656
-0.174874 0.039823 0.606000 11772081
-0.175163 0.043357 0.607000 13157336
-0.175451 0.046903 0.608000 11505835
-0.175451 0.050377 0.608000 14076130
-0.176606 0.054206 0.612000 14665191
-0.176606 0.057703 0.612000 14205632
-0.176606 0.061200 0.612000 13941960
-0.176606 0.064697 0.612000 13943240
-0.177183 0.068417 0.614000 13677511
-0.176894 0.071809 0.613000 13090750
-0.177760 0.075680 0.616000 12951731
-0.177471 0.079071 0.615000 13612712
-0.201813 -0.010057 0.704000 11838594
-0.201527 -0.006026 0.703000 9876665
-0.200093 -0.001994 0.698000 9330012
-0.191780 0.005734 0.669000 12295056
-0.188340 0.009386 0.657000 12883082
-0.187193 0.013060 0.653000 12360087
-0.184040 0.016509 0.642000 14994076
-0.181747 0.019926 0.634000 9798792
-0.180887 0.023437 0.631000 12828875
-0.177733 0.026571 0.620000 12165535
-0.175727 0.029774 0.613000 11901331
-0.175440 0.033223 0.612000 12295066
-0.173433 0.036300 0.605000 12099216
-0.174007 0.039889 0.607000 14532274
-0.174580 0.043500 0.609000 11771061
-0.174580 0.046980 0.609000 14329273
-0.174293 0.050377 0.608000 14269906
-0.175727 0.054294 0.613000 14665952
-0.176013 0.057891 0.614000 14268622
-0.175727 0.061300 0.613000 13878220
-0.176013 0.064909 0.614000 13482170
-0.176587 0.068640 0.616000 13809339
-0.176587 0.072160 0.616000 13746352
-0.176873 0.075803 0.617000 12624553
-0.176587 0.079200 0.616000 13154478
-0.200472 -0.010057 0.704000 12822122
-0.200188 -0.006026 0.703000 10331841
-0.198479 -0.001991 0.697000 9069935
-0.196770 0.001974 0.691000 12622734
-0.190506 0.005734 0.669000 12159120
-0.187089 0.009386 0.657000 12884113
-0.186804 0.013120 0.656000 12687512
-0.182532 0.016483 0.641000 14072204
-0.180539 0.019926 0.634000 10517626
-0.179685 0.023437 0.631000 12035276
-0.176552 0.026571 0.620000 11772045
-0.175413 0.029920 0.616000 10978932
-0.174274 0.033223 0.612000 12231070
-0.173420 0.036540 0.609000 10650775
-0.173420 0.040020 0.609000 14341300
-0.173420 0.043500 0.609000 12231313
-0.174559 0.047289 0.613000 13874120
-0.173990 0.050626 0.611000 14138050
-0.174844 0.054383 0.614000 14534105
-0.175129 0.057986 0.615000 14470108
-0.175129 0.061500 0.615000 14206929
-0.175413 0.065120 0.616000 13479339
-0.175413 0.068640 0.616000 14333359
-0.175983 0.072394 0.618000 13412769
-0.176268 0.076049 0.619000 13085600
-0.175983 0.079457 0.618000 11432883
-0.199131 -0.010057 0.704000 13739355
-0.198000 -0.006000 0.700000 10797754
-0.196586 -0.001986 0.695000 8736107
-0.195454 0.001974 0.691000 12622734
-0.189231 0.005734 0.669000 12028552
-0.186120 0.009400 0.658000 12884879
-0.185554 0.013120 0.656000 12952473
-0.181311 0.016483 0.641000 13216658
-0.179331 0.019926 0.634000 11240322
-0.178483 0.023437 0.631000 11316939
-0.175937 0.026657 0.622000 11373452
-0.174806 0.030017 0.618000 10126207
-0.173674 0.033331 0.614000 12098720
-0.172260 0.036540 0.609000 9202559
-0.173391 0.040283 0.613000 14068625
-0.173391 0.043786 0.613000 12754587
-0.173391 0.047289 0.613000 13414845
-0.173674 0.050874 0.614000 14073799
-0.173674 0.054383 0.614000 14401486
-0.174240 0.058080 0.616000 14668492
-0.174523 0.061700 0.617000 14467520
-0.174523 0.065226 0.617000 13411986
-0.174806 0.068863 0.618000 14791038
-0.175089 0.072511 0.619000 13081976
-0.175371 0.076171 0.620000 13479824
-0.198914 -0.014160 0.708000 12361887
-0.197790 -0.010057 0.704000 13806669
-0.195824 -0.005974 0.697000 11252147
-0.194700 -0.001980 0.693000 8007783
-0.189643 0.001929 0.675000 12490126
-0.187957 0.005734 0.669000 12025985
-0.184867 0.009400 0.658000 12949133
-0.184024 0.013100 0.655000 13873051
-0.180090 0.016483 0.641000 11837335
-0.178124 0.019926 0.634000 10191498
-0.177281 0.023437 0.631000 11774666
-0.174752 0.026657 0.622000 11111819
-0.173629 0.030017 0.618000 10912905
-0.173067 0.033440 0.616000 13348769
-0.173348 0.037020 0.617000 9529703
-0.173348 0.040546 0.617000 13798510
-0.172786 0.043929 0.615000 13018532
-0.172786 0.047443 0.615000 13414579
-0.173348 0.051123 0.617000 13678795
-0.173629 0.054737 0.618000 13414339
-0.173629 0.058269 0.618000 13280444
-0.173629 0.061800 0.618000 13613487
-0.174190 0.065543 0.620000 12950904
-0.174190 0.069086 0.620000 13804365
-0.174190 0.072629 0.620000 13870159
-0.174752 0.076417 0.622000 14531201
-0.197566 -0.014160 0.708000 12624027
-0.196729 -0.010071 0.705000 13870405
-0.193938 -0.005957 0.695000 11779243
-0.193380 -0.001980 0.693000 7292788
-0.188357 0.001929 0.675000 12292494
-0.186683 0.005734 0.669000 12031367
-0.183334 0.009386 0.657000 13014933
-0.181939 0.013040 0.652000 14790301
-0.179149 0.016509 0.642000 10463637
-0.176916 0.019926 0.634000 9139612
-0.176079 0.023437 0.631000 12236747
-0.173568 0.026657 0.622000 10850200
-0.172730 0.030066 0.619000 11704466
-0.172172 0.033494 0.617000 14598826
-0.172730 0.037140 0.619000 9920602
-0.172730 0.040677 0.619000 13544537
-0.172172 0.044071 0.617000 13280892
-0.172451 0.047674 0.618000 13414311
-0.173010 0.051371 0.620000 13284305
-0.173010 0.054914 0.620000 12430787
-0.173010 0.058457 0.620000 11965883
-0.173568 0.062200 0.622000 12755590
-0.173568 0.065754 0.622000 12552002
-0.173568 0.069309 0.622000 12748857
-0.173847 0.072980 0.623000 14657853
-0.173847 0.076540 0.623000 15513441
-0.196217 -0.014160 0.708000 12491414
-0.195940 -0.010100 0.707000 13146686
-0.192614 -0.005957 0.695000 12498850
-0.191506 -0.001974 0.691000 7355264
-0.186794 0.001926 0.674000 12490126
-0.185686 0.005743 0.670000 13543309
-0.182083 0.009386 0.657000 13279133
-0.180143 0.013000 0.650000 14859680
-0.178480 0.016560 0.644000 8944530
-0.175709 0.019926 0.634000 7762094
-0.174877 0.023437 0.631000 13157323
-0.172660 0.026700 0.623000 11309478
-0.171551 0.030066 0.619000 12231579
-0.170997 0.033494 0.617000 15194803
-0.171551 0.037140 0.619000 13284684
-0.171829 0.040743 0.620000 14998085
-0.171829 0.044286 0.620000 14465108
-0.171829 0.047829 0.620000 13871772
-0.172383 0.051537 0.622000 14008278
-0.172660 0.055180 0.623000 13480643
-0.172660 0.058740 0.623000 13481402
-0.172660 0.062300 0.623000 12880477
-0.172660 0.065860 0.623000 11891212
-0.172383 0.069309 0.622000 12286245
-0.172937 0.073097 0.624000 13667626
-0.194869 -0.014160 0.708000 12426392
-0.194043 -0.010071 0.705000 12356128
-0.191290 -0.005957 0.695000 13223325
-0.189914 -0.001971 0.690000 7367573
-0.185510 0.001926 0.674000 12685966
-0.183584 0.005717 0.667000 14986901
-0.181107 0.009400 0.658000 13540251
-0.178905 0.013000 0.650000 14921631
-0.177253 0.016560 0.644000 7430534
-0.174501 0.019926 0.634000 6390969
-0.173125 0.023363 0.629000 14012096
-0.171473 0.026700 0.623000 11774131
-0.170648 0.030114 0.620000 12756365
-0.170097 0.033549 0.618000 15780715
-0.170648 0.037200 0.620000 16700717
-0.171473 0.040940 0.623000 16432939
-0.171198 0.044429 0.622000 15646261
-0.172024 0.048214 0.625000 14334118
-0.171473 0.051620 0.623000 14800087
-0.172574 0.055534 0.627000 14465979
-0.172299 0.059023 0.626000 15061943
-0.172024 0.062500 0.625000 13017210
-0.171749 0.065966 0.624000 11234581
-0.171749 0.069531 0.624000 11761457
-0.173125 0.073683 0.629000 12679213
-0.193520 -0.014160 0.708000 12359578
-0.192153 -0.010043 0.703000 11891458
-0.189967 -0.005957 0.695000 13547160
-0.188600 -0.001971 0.690000 8938665
-0.183680 0.001920 0.672000 13343885
-0.182313 0.005717 0.667000 14924446
-0.180673 0.009443 0.661000 14134681
-0.177120 0.012960 0.648000 14265758
-0.176027 0.016560 0.644000 6317690
-0.173567 0.019957 0.635000 5598660
-0.171927 0.023363 0.629000 14336436
-0.170833 0.026786 0.625000 13749952
-0.169193 0.030066 0.619000 12884862
-0.168647 0.033494 0.617000 15777827
-0.169193 0.037140 0.619000 15449357
-0.170560 0.041006 0.624000 14588689
-0.170013 0.044429 0.622000 14127381
-0.170833 0.048214 0.625000 14469296
-0.170560 0.051703 0.624000 14730968
-0.171107 0.055446 0.626000 14658227
-0.171107 0.059023 0.626000 14792627
-0.170833 0.062500 0.625000 14070934
-0.171380 0.066283 0.627000 11630878
-0.172473 0.070311 0.631000 11565884
-0.171927 0.073683 0.629000 13141551
-0.190814 -0.010043 0.703000 11366151
-0.188100 -0.005940 0.693000 13804179
-0.187014 -0.001969 0.689000 10527933
-0.182943 0.001926 0.674000 14065806
-0.181043 0.005717 0.667000 14858910
-0.179143 0.009429 0.660000 14724770
-0.175886 0.012960 0.648000 13543830
-0.174800 0.016560 0.644000 5265051
-0.172357 0.019957 0.635000 4816587
-0.170729 0.023363 0.629000 14598068
-0.169914 0.026829 0.626000 15649213
-0.169100 0.030260 0.623000 13015970
-0.168014 0.033603 0.619000 15710543
-0.169371 0.037440 0.624000 14199868
-0.169643 0.041071 0.625000 12748824
-0.168829 0.044429 0.622000 12548431
-0.169643 0.048214 0.625000 14597290
-0.169643 0.051786 0.625000 14724794
-0.169914 0.055446 0.626000 14857129
-0.170186 0.059117 0.627000 14591655
-0.170186 0.062700 0.627000 15051154
-0.170729 0.066494 0.629000 12025693
-0.171543 0.070423 0.632000 11304496
-0.171543 0.074034 0.632000 13602629
-0.188936 -0.010014 0.701000 10703116
-0.186780 -0.005940 0.693000 13674893
-0.184893 -0.001960 0.686000 12305873
-0.181659 0.001926 0.674000 14199183
-0.179503 0.005709 0.666000 15251870
-0.178425 0.009457 0.662000 14527914
-0.174651 0.012960 0.648000 10658190
-0.173573 0.016560 0.644000 5271483
-0.171148 0.019957 0.635000 4944594
-0.169530 0.023363 0.629000 13812403
-0.168991 0.026871 0.627000 14662842
-0.168722 0.030406 0.626000 13348806
-0.167644 0.033766 0.622000 14004860
-0.168991 0.037620 0.627000 12946283
-0.168722 0.041137 0.626000 12678943
-0.168722 0.044714 0.626000 13540489
-0.168452 0.048214 0.625000 14852003
-0.170609 0.052449 0.633000 14266011
-0.170070 0.055889 0.631000 14140063
-0.170070 0.059494 0.631000 15186331
-0.169530 0.062900 0.629000 14389390
-0.170070 0.066706 0.631000 12359323
-0.170609 0.070534 0.633000 13011236
-0.187601 -0.010014 0.701000 9988636
-0.185460 -0.005940 0.693000 13540497
-0.183587 -0.001960 0.686000 14073551
-0.179840 0.001920 0.672000 14330505
-0.178502 0.005717 0.667000 15645849
-0.176629 0.009429 0.660000 14396057
-0.173150 0.012940 0.647000 7760018
-0.172347 0.016560 0.644000 5277643
-0.170741 0.020051 0.638000 5079511
-0.168868 0.023437 0.631000 13029065
-0.168065 0.026914 0.628000 13674922
-0.168065 0.030503 0.628000 13678756
-0.168868 0.034254 0.631000 12294274
-0.168065 0.037680 0.628000 11699060
-0.167797 0.041203 0.627000 12622181
-0.167797 0.044786 0.627000 14594443
-0.169403 0.048831 0.633000 15054502
-0.169670 0.052531 0.634000 13806493
-0.169135 0.055977 0.632000 13339794
-0.169670 0.059777 0.634000 15778721
-0.169938 0.063500 0.635000 13738897
-0.169135 0.066811 0.632000 12691625
-0.169670 0.070646 0.634000 14654540
-0.186266 -0.010014 0.701000 10973741
-0.184140 -0.005940 0.693000 13346196
-0.182280 -0.001960 0.686000 13351886
-0.178294 0.001917 0.671000 13541507
-0.176966 0.005709 0.666000 14465940
-0.175637 0.009443 0.661000 12625288
-0.172980 0.013020 0.651000 5911957
-0.171120 0.016560 0.644000 5670362
-0.169526 0.020051 0.638000 5670620
-0.167666 0.023437 0.631000 8886238
-0.167134 0.026957 0.629000 9997210
-0.167666 0.030649 0.631000 11112834
-0.167931 0.034309 0.632000 11307657
-0.167134 0.037740 0.629000 12423292
-0.166869 0.041269 0.628000 13480364
-0.166603 0.044786 0.627000 15382668
-0.168463 0.048909 0.634000 15584425
-0.168729 0.052614 0.635000 14262943
-0.168994 0.056331 0.636000 12668548
-0.169526 0.060154 0.638000 16105895
-0.169526 0.063800 0.638000 14002325
-0.169526 0.067446 0.638000 12493238
-0.168463 0.070646 0.634000 13740148
-0.184930 -0.010014 0.701000 11892530
-0.183084 -0.005949 0.694000 13214108
-0.181237 -0.001963 0.687000 12560810
-0.177016 0.001917 0.671000 12817040
-0.175697 0.005709 0.666000 13214102
-0.174114 0.009429 0.660000 10922886
-0.171740 0.013020 0.651000 4084133
-0.169893 0.016560 0.644000 6129626
-0.168574 0.020083 0.639000 6195935
-0.166728 0.023474 0.632000 4815307
-0.165936 0.026957 0.629000 6314401
-0.166991 0.030746 0.633000 8545429
-0.166991 0.034363 0.633000 10314889
-0.166728 0.037920 0.632000 13147036
-0.165936 0.041334 0.629000 14266787
-0.166728 0.045143 0.632000 16175008
-0.167783 0.049063 0.636000 16106917
-0.168574 0.052946 0.639000 14727589
-0.168574 0.056597 0.639000 11964310
-0.168574 0.060249 0.639000 16368549
-0.168310 0.063800 0.638000 14200214
-0.168574 0.067551 0.639000 12301997
-0.183595 -0.010014 0.701000 12287288
-0.181762 -0.005949 0.694000 12952740
-0.179929 -0.001963 0.687000 11573638
-0.175738 0.001917 0.671000 12488605
-0.174429 0.005709 0.666000 13150104
-0.172333 0.009400 0.658000 8216708
-0.170500 0.013020 0.651000 5142454
-0.168929 0.016586 0.645000 6194905
-0.167619 0.020114 0.640000 6196705
-0.165786 0.023511 0.633000 5271735
-0.166048 0.027171 0.634000 5787561
-0.166310 0.030843 0.635000 5979816
-0.166310 0.034471 0.635000 9506953
-0.165786 0.037980 0.633000 13805244
-0.166310 0.041729 0.635000 15252890
-0.167095 0.045571 0.638000 16108467
-0.167095 0.049217 0.638000 14595489
-0.167357 0.052946 0.639000 14265770
-0.167357 0.056597 0.639000 14068392
-0.167619 0.060343 0.640000 16303011
-0.167357 0.063900 0.639000 14067863
-0.167357 0.067551 0.639000 11769251
-0.182260 -0.010014 0.701000 12619853
-0.180440 -0.005949 0.694000 12756386
-0.178360 -0.001960 0.686000 10521465
-0.175240 0.001926 0.674000 12228752
-0.173940 0.005734 0.669000 13008519
-0.171080 0.009400 0.658000 5571731
-0.169000 0.013000 0.650000 6128072
-0.167700 0.016586 0.645000 6325979
-0.166660 0.020146 0.641000 6195421
-0.164840 0.023549 0.634000 5794229
-0.164840 0.027171 0.634000 5266602
-0.165360 0.030891 0.636000 3425953
-0.165880 0.034634 0.638000 8679584
-0.165880 0.038280 0.638000 14526126
-0.166140 0.041991 0.639000 16168851
-0.166140 0.045643 0.639000 16042409
-0.165880 0.049217 0.638000 13083807
-0.166140 0.052946 0.639000 13802895
-0.166400 0.056686 0.640000 16105385
-0.166660 0.060437 0.641000 16236452
-0.166140 0.063900 0.639000 13871772
-0.166140 0.067551 0.639000 11243939
-0.180925 -0.010014 0.701000 13150050
-0.178860 -0.005940 0.693000 12427936
-0.177311 -0.001963 0.687000 10324844
-0.173182 0.001917 0.671000 10451074
-0.172666 0.005734 0.669000 9831286
-0.170343 0.009429 0.660000 5591714
-0.167762 0.013000 0.650000 6130394
-0.166471 0.016586 0.645000 6195932
-0.165697 0.020177 0.642000 6127833
-0.164149 0.023623 0.636000 5792690
-0.164665 0.027343 0.638000 5529771
-0.165697 0.031183 0.642000 5261978
-0.165181 0.034743 0.640000 11645880
-0.165439 0.038460 0.641000 14789024
-0.165439 0.042123 0.641000 15703179
-0.165439 0.045786 0.641000 15385503
-0.165697 0.049526 0.642000 13541021
-0.165439 0.053111 0.641000 13866867
-0.166471 0.057129 0.645000 16237994
-0.166471 0.060814 0.645000 16237221
-0.164923 0.063900 0.639000 13802658
-0.179590 -0.010014 0.701000 13607275
-0.177540 -0.005940 0.693000 12100779
-0.176003 -0.001963 0.687000 10124396
-0.174978 0.001951 0.683000 8682107
-0.170879 0.005717 0.667000 6704772
-0.169086 0.009429 0.660000 5671356
-0.166780 0.013020 0.651000 6129881
-0.165499 0.016611 0.646000 6131422
-0.164987 0.020240 0.644000 5994955
-0.163962 0.023771 0.640000 5791408
-0.163706 0.027386 0.639000 5790376
-0.164474 0.031183 0.642000 7162549
-0.164474 0.034851 0.642000 14530479
-0.164987 0.038640 0.644000 15119519
-0.164987 0.042320 0.644000 15242652
-0.164987 0.046000 0.644000 14791592
-0.165243 0.049757 0.645000 13996424
-0.165243 0.053443 0.645000 14002063
-0.165499 0.057217 0.646000 16368552
-0.166011 0.061097 0.648000 16171429
-0.176220 -0.005940 0.693000 12560309
-0.174440 -0.001960 0.686000 9863277
-0.174440 0.001960 0.686000 9141363
-0.169354 0.005709 0.666000 9870482
-0.167829 0.009429 0.660000 5801173
-0.165286 0.013000 0.650000 6195161
-0.164269 0.016611 0.646000 6065120
-0.163760 0.020240 0.644000 5925821
-0.162997 0.023809 0.641000 5791918
-0.163251 0.027514 0.642000 4544420
-0.163760 0.031280 0.644000 10062031
-0.163760 0.034960 0.644000 15252135
-0.164523 0.038820 0.647000 15041694
-0.164269 0.042451 0.646000 15907245
-0.164269 0.046143 0.646000 14329008
-0.164269 0.049834 0.646000 13396083
-0.164777 0.053691 0.648000 14858411
-0.165286 0.057571 0.650000 16171943
-0.165540 0.061380 0.651000 15909540
-0.174395 -0.005923 0.691000 12957380
-0.173133 -0.001960 0.686000 9599076
-0.173133 0.001960 0.686000 9665631
-0.168338 0.005717 0.667000 12952471
-0.166571 0.009429 0.660000 5866197
-0.164048 0.013000 0.650000 6195424
-0.164048 0.016714 0.650000 5999323
-0.162786 0.020271 0.645000 5794232
-0.162533 0.023920 0.644000 5857454
-0.162786 0.027643 0.645000 3297456
-0.162786 0.031329 0.645000 12964279
-0.162786 0.035014 0.645000 15972257
-0.163543 0.038880 0.648000 14907548
-0.163543 0.042583 0.648000 16565168
-0.163038 0.046143 0.646000 13806490
-0.164552 0.050297 0.652000 12818568
-0.164552 0.054023 0.652000 15707801
-0.164048 0.057571 0.650000 15906457
-0.164552 0.061474 0.652000 15582881
-0.173079 -0.005923 0.691000 13154515
-0.171827 -0.001960 0.686000 9333340
-0.171075 0.001951 0.683000 9137995
-0.167068 0.005717 0.667000 13088411
-0.165314 0.009429 0.660000 6062805
-0.163060 0.013020 0.651000 6327527
-0.163060 0.016740 0.651000 5996758
-0.161808 0.020303 0.646000 5857203
-0.161808 0.023994 0.646000 5464238
-0.161808 0.027686 0.646000 7095228
-0.161808 0.031377 0.646000 13940894
-0.162810 0.035286 0.650000 15579291
-0.162810 0.039000 0.650000 15241626
-0.162309 0.042583 0.648000 15125682
-0.163310 0.046571 0.652000 13275012
-0.164062 0.050529 0.655000 14272157
-0.164563 0.054437 0.657000 14456966
-0.163060 0.057660 0.651000 14781579
-0.163561 0.061569 0.653000 15250333
-0.171763 -0.005923 0.691000 13286862
-0.170520 -0.001960 0.686000 9006685
-0.169526 0.001949 0.682000 8609880
-0.166294 0.005734 0.669000 13151649
-0.164554 0.009457 0.662000 6194647
-0.162069 0.013040 0.652000 6458849
-0.161820 0.016740 0.651000 6061764
-0.160577 0.020303 0.646000 5857458
-0.160826 0.024031 0.647000 5070763
-0.161074 0.027771 0.648000 10914229
-0.161074 0.031474 0.648000 14982559
-0.161820 0.035340 0.651000 15178913
-0.161571 0.039000 0.650000 15571619
-0.161571 0.042714 0.650000 13608620
-0.162317 0.046643 0.653000 12750227
-0.163560 0.050760 0.658000 15708570
-0.164057 0.054686 0.660000 13276041
-0.163560 0.058280 0.658000 13675675
-0.163311 0.061946 0.657000 14920603
-0.170940 -0.005940 0.693000 12627144
-0.169460 -0.001963 0.687000 9204574
-0.168227 0.001949 0.682000 9467749
-0.164527 0.005717 0.667000 13286566
-0.163293 0.009457 0.662000 6457049
-0.162060 0.013140 0.657000 6327516
-0.161567 0.016843 0.655000 5991602
-0.160827 0.020491 0.652000 5857457
-0.160580 0.024180 0.651000 5655719
-0.160827 0.027943 0.652000 12828846
-0.161567 0.031814 0.655000 15118495
-0.161813 0.035611 0.656000 14971815
-0.161073 0.039180 0.653000 15447468
-0.162800 0.043371 0.660000 13402789
-0.162307 0.047000 0.658000 13343649
-0.162800 0.050914 0.660000 14525591
-0.163047 0.054769 0.661000 13146508
-0.163047 0.058546 0.661000 14863020
-0.169620 -0.005940 0.693000 12033989
-0.168151 -0.001963 0.687000 9335387
-0.166928 0.001949 0.682000 10323812
-0.163746 0.005734 0.669000 13415088
-0.161543 0.009429 0.660000 6718426
-0.160809 0.013140 0.657000 6128342
-0.160564 0.016869 0.656000 5923506
-0.160809 0.020649 0.657000 5857455
-0.161053 0.024440 0.658000 6248101
-0.159830 0.027986 0.653000 14658222
-0.160564 0.031863 0.656000 15324080
-0.160809 0.035666 0.657000 14717871
-0.160564 0.039360 0.656000 15322272
-0.161053 0.043240 0.658000 13144995
-0.161788 0.047214 0.661000 13997470
-0.162032 0.051069 0.662000 13345685
-0.161788 0.054769 0.661000 13080726
-0.161788 0.058546 0.661000 16037030
-0.168300 -0.005940 0.693000 12297921
-0.166843 -0.001963 0.687000 8679257
-0.164900 0.001940 0.679000 10718562
-0.162714 0.005743 0.670000 13218491
-0.160529 0.009443 0.661000 7048155
-0.159800 0.013160 0.658000 5337296
-0.159557 0.016894 0.657000 5463730
-0.160286 0.020743 0.660000 5726381
-0.160286 0.024514 0.660000 7433122
-0.159800 0.028200 0.658000 14261423
-0.159557 0.031911 0.657000 14992064
-0.159800 0.035720 0.658000 15450295
-0.160286 0.039600 0.660000 14858643
-0.160771 0.043503 0.662000 13807009
-0.160529 0.047214 0.661000 14001051
-0.161014 0.051146 0.663000 13277588
-0.161014 0.054934 0.663000 13673632
-0.161014 0.058723 0.663000 15246752
-0.166980 -0.005940 0.693000 12559043
-0.165534 -0.001963 0.687000 8022615
-0.163607 0.001940 0.679000 11116391
-0.161438 0.005743 0.670000 13024965
-0.159751 0.009471 0.663000 7440845
-0.159029 0.013200 0.660000 4550341
-0.158547 0.016920 0.658000 5001904
-0.159270 0.020774 0.661000 5594026
-0.159029 0.024514 0.660000 8543920
-0.159029 0.028286 0.660000 13806495
-0.159029 0.032057 0.660000 14731450
-0.159029 0.035829 0.660000 16106419
-0.159029 0.039600 0.660000 14325399
-0.159510 0.043503 0.662000 14459031
-0.159751 0.047357 0.663000 14007973
-0.160233 0.051300 0.665000 13148314
-0.160233 0.055100 0.665000 14327959
-0.166138 -0.005957 0.695000 12099780
-0.164704 -0.001969 0.689000 6904661
-0.161357 0.001929 0.675000 11376236
-0.160401 0.005751 0.671000 13615055
-0.158967 0.009500 0.665000 10661055
-0.158010 0.013220 0.661000 8486075
-0.157771 0.016971 0.660000 7235245
-0.158250 0.020806 0.662000 6576552
-0.157771 0.024514 0.660000 9732030
-0.157771 0.028286 0.660000 14655887
-0.158010 0.032106 0.661000 15453875
-0.158250 0.035937 0.662000 15256752
-0.158010 0.039660 0.661000 14329242
-0.158250 0.043503 0.662000 14122380
-0.158967 0.047500 0.665000 15057070
-0.159445 0.051454 0.667000 14729888
-0.159445 0.055266 0.667000 14593677
-0.164577 -0.005949 0.694000 11697307
-0.162917 -0.001963 0.687000 5791066
-0.160071 0.001929 0.675000 11640455
-0.159360 0.005760 0.672000 14142923
-0.157937 0.009514 0.666000 13875383
-0.156989 0.013240 0.662000 12362673
-0.156989 0.017023 0.662000 9474225
-0.157226 0.020837 0.663000 7564963
-0.157226 0.024626 0.663000 10863555
-0.157226 0.028414 0.663000 15511451
-0.157700 0.032300 0.665000 16241074
-0.157226 0.035991 0.663000 14333093
-0.156989 0.039720 0.662000 14328976
-0.157226 0.043569 0.663000 13740944
-0.158174 0.047643 0.667000 16106160
-0.158886 0.051686 0.670000 16237219
-0.158886 0.055514 0.670000 14858133
-0.163490 -0.009929 0.695000 12165815
-0.163255 -0.005949 0.694000 10253937
-0.161609 -0.001963 0.687000 6576223
-0.158786 0.001929 0.675000 12362146
-0.157845 0.005751 0.671000 14539464
-0.156669 0.009514 0.666000 14073519
-0.156433 0.013300 0.665000 13089704
-0.156433 0.017100 0.665000 11839412
-0.156433 0.020900 0.665000 10455455
-0.156433 0.024700 0.665000 12365512
-0.156433 0.028500 0.665000 15843752
-0.156904 0.032397 0.667000 15715249
-0.156669 0.036154 0.666000 13933466
-0.156433 0.039900 0.665000 14063493
-0.156433 0.043700 0.665000 14991251
-0.157610 0.047857 0.670000 16107185
-0.157610 0.051686 0.670000 15449510
-0.157610 0.055514 0.670000 11898781
-0.162167 -0.009929 0.695000 12297641
-0.161700 -0.005940 0.693000 8864104
-0.160067 -0.001960 0.686000 7369053
-0.158667 0.001943 0.680000 13153718
-0.157267 0.005777 0.674000 14928028
-0.155633 0.009529 0.667000 14270076
-0.155400 0.013320 0.666000 13807993
-0.155400 0.017126 0.666000 14208716
-0.155400 0.020931 0.666000 13283517
-0.155167 0.024700 0.665000 13881547
-0.155400 0.028543 0.666000 16104606
-0.156100 0.032494 0.669000 15189935
-0.156333 0.036371 0.670000 13538967
-0.155167 0.039900 0.665000 13873046
-0.155167 0.043700 0.665000 16170913
-0.156333 0.047857 0.670000 16109745
-0.158200 0.052303 0.678000 14657434
-0.160611 -0.005949 0.694000 8540766
-0.158991 -0.001963 0.687000 10256731
-0.157371 0.001943 0.680000 14077130
-0.156214 0.005786 0.675000 14855793
-0.155057 0.009571 0.670000 13802825
-0.154131 0.013320 0.666000 13543243
-0.154131 0.017126 0.666000 14209251
-0.155057 0.021057 0.670000 13881820
-0.153900 0.024700 0.665000 14007502
-0.155057 0.028714 0.670000 16040339
-0.155289 0.032591 0.671000 14791340
-0.155520 0.036480 0.672000 13400979
-0.153900 0.039900 0.665000 14989734
-0.153900 0.043700 0.665000 15975598
-0.156909 0.048429 0.678000 15317936
-0.157371 0.052457 0.680000 12484238
-0.159060 -0.005940 0.693000 8207456
-0.157453 -0.001960 0.686000 13083777
-0.156535 0.001949 0.682000 14931160
-0.154929 0.005786 0.675000 14730154
-0.154699 0.009629 0.674000 13412218
-0.154699 0.013480 0.674000 13280109
-0.154240 0.017280 0.672000 14201784
-0.154929 0.021214 0.675000 14401229
-0.155158 0.025109 0.676000 14143716
-0.154929 0.028929 0.675000 15971474
-0.154699 0.032737 0.674000 14399142
-0.154929 0.036643 0.675000 13275287
-0.156994 0.041040 0.684000 16106148
-0.156994 0.044949 0.684000 15710116
-0.156076 0.048571 0.680000 14461086
-0.157740 -0.005940 0.693000 9462113
-0.156147 -0.001960 0.686000 13612712
-0.155236 0.001949 0.682000 14735078
-0.154553 0.005820 0.679000 14737891
-0.153870 0.009657 0.676000 13678250
-0.153643 0.013500 0.675000 12687759
-0.153415 0.017331 0.674000 11896461
-0.153870 0.021246 0.676000 13017022
-0.154553 0.025220 0.679000 14799098
-0.154326 0.029057 0.678000 14788754
-0.153643 0.032786 0.675000 14791840
-0.154553 0.036860 0.679000 13862811
-0.155691 0.041040 0.684000 15516066
-0.155691 0.044949 0.684000 14390426
-0.154781 0.048571 0.680000 13010572
-0.155969 -0.005923 0.691000 10637159
-0.154840 -0.001960 0.686000 14074554
-0.153937 0.001949 0.682000 14605277
-0.153260 0.005820 0.679000 14731729
-0.153034 0.009686 0.678000 13942960
-0.153486 0.013600 0.680000 12100265
-0.153260 0.017460 0.679000 9662868
-0.152583 0.021246 0.676000 11569828
-0.153486 0.025257 0.680000 15457782
-0.153260 0.029100 0.679000 13543592
-0.154163 0.033174 0.683000 15185054
-0.154389 0.037131 0.684000 14396058
-0.154840 0.041160 0.686000 14991013
-0.154840 0.045080 0.686000 13015983
-0.153937 0.048714 0.682000 11572404
-0.155995 -0.005974 0.697000 10974573
-0.153533 -0.001960 0.686000 14600908
-0.152862 0.001951 0.683000 13744340
-0.152190 0.005829 0.680000 14006719
-0.151743 0.009686 0.678000 13939381
-0.152190 0.013600 0.680000 13482947
-0.151967 0.017460 0.679000 10848922
-0.152862 0.021466 0.683000 12545930
-0.152862 0.025369 0.683000 15260402
-0.152638 0.029229 0.682000 14069438
-0.153086 0.033223 0.684000 14791324
-0.153533 0.037240 0.686000 13871770
-0.153757 0.041220 0.687000 14396071
-0.154205 0.045277 0.689000 13869508
-0.152638 0.048714 0.682000 13949147
-0.154668 -0.005974 0.697000 11362658
-0.152227 -0.001960 0.686000 15126478
-0.151561 0.001951 0.683000 12886982
-0.150895 0.005829 0.680000 13283991
-0.150895 0.009714 0.680000 13873810
-0.151561 0.013660 0.683000 14795676
-0.151783 0.017589 0.684000 12101776
-0.152227 0.021560 0.686000 13545134
-0.152227 0.025480 0.686000 15129576
-0.151783 0.029314 0.684000 14599116
-0.151783 0.033223 0.684000 14468291
-0.152227 0.037240 0.686000 13284796
-0.152227 0.041160 0.686000 13875909
-0.152892 0.045277 0.689000 14734552
-0.153340 -0.005974 0.697000 11700311
-0.151580 -0.001969 0.689000 14406864
-0.151140 0.001963 0.687000 13676215
-0.149600 0.005829 0.680000 14466927
-0.149600 0.009714 0.680000 14925422
-0.150260 0.013660 0.683000 15453302
-0.150480 0.017589 0.684000 13415558
-0.151140 0.021591 0.687000 14081234
-0.151580 0.025591 0.689000 14734045
-0.151580 0.029529 0.689000 14603227
-0.151580 0.033466 0.689000 15261418
-0.151580 0.037403 0.689000 14470111
-0.151800 0.041400 0.690000 14867170
-0.152460 0.045540 0.693000 15526893
-0.151576 -0.005957 0.695000 12092276
-0.150486 -0.001971 0.690000 13612985
-0.150268 0.001969 0.689000 14463898
-0.150268 0.005906 0.689000 15642710
-0.148305 0.009714 0.680000 15973966
-0.150268 0.013780 0.689000 16102978
-0.150486 0.017743 0.690000 14793093
-0.150486 0.021686 0.690000 14598848
-0.150704 0.025666 0.691000 14404040
-0.150704 0.029614 0.691000 14599112
-0.151140 0.033660 0.693000 16048104
-0.150486 0.037457 0.690000 15654119
-0.150704 0.041460 0.691000 15851998
-0.151358 0.045606 0.694000 16240295
-0.150252 -0.005957 0.695000 12755344
-0.149820 -0.001980 0.693000 12682146
-0.149388 0.001974 0.691000 14199677
-0.149388 0.005923 0.691000 13665853
-0.149388 0.009871 0.691000 13734190
-0.149388 0.013820 0.691000 14062862
-0.149820 0.017820 0.693000 13808004
-0.149820 0.021780 0.693000 13471663
-0.150036 0.025777 0.694000 13810099
-0.150252 0.029786 0.695000 13736630
-0.150685 0.033854 0.697000 14799845
-0.150685 0.037837 0.697000 14804463
-0.151333 0.042000 0.700000 14994905
-0.150252 0.045671 0.695000 14592098
-0.149357 -0.005974 0.697000 13351097
-0.148714 -0.001983 0.694000 11773367
-0.148500 0.001980 0.693000 13871740
-0.148500 0.005940 0.693000 11699524
-0.148500 0.009900 0.693000 11564855
-0.148714 0.013880 0.694000 11959844
-0.149357 0.017923 0.697000 12822923
-0.149357 0.021906 0.697000 12297657
-0.149357 0.025889 0.697000 13223867
-0.149357 0.029871 0.697000 12885431
-0.149571 0.033903 0.698000 13612734
-0.150214 0.038054 0.701000 13878224
-0.148030 -0.005974 0.697000 14008545
-0.147605 -0.001986 0.695000 13288909
-0.147392 0.001983 0.694000 14002043
-0.147180 0.005940 0.693000 12683338
-0.147180 0.009900 0.693000 12288831
-0.147605 0.013900 0.695000 12286522
-0.148030 0.017923 0.697000 12887953
-0.148667 0.022000 0.700000 13285572
-0.148667 0.026000 0.700000 13880770
-0.148879 0.030043 0.701000 13478073
-0.148667 0.034000 0.700000 13609622
-0.149516 0.038217 0.704000 13937585
-0.146702 -0.005974 0.697000 14666981
-0.146281 -0.001986 0.695000 14798807
-0.146070 0.001983 0.694000 14130813
-0.145860 0.005940 0.693000 13605730
-0.145860 0.009900 0.693000 13015648
-0.146702 0.013940 0.697000 12619879
-0.147333 0.018000 0.700000 12954185
-0.147965 0.022094 0.703000 14203066
-0.147333 0.026000 0.700000 14536643
-0.147965 0.030129 0.703000 14073283
-0.147544 0.034049 0.701000 13614767
-0.148386 0.038271 0.705000 14008780
-0.145374 -0.005974 0.697000 14865897
-0.144749 -0.001983 0.694000 14339297
-0.144749 0.001983 0.694000 12684670
-0.147043 0.006043 0.705000 13282426
-0.145583 0.009971 0.698000 12689536
-0.145374 0.013940 0.697000 12756116
-0.146626 0.018077 0.703000 12290561
-0.147043 0.022157 0.705000 14006192
-0.147043 0.026186 0.705000 13941956
-0.147043 0.030214 0.705000 13878222
-0.148086 0.034486 0.710000 13680071
-0.148086 0.038543 0.710000 14079464
-0.144047 -0.005974 0.697000 15059654
-0.143633 -0.001986 0.695000 13810627
-0.143427 0.001983 0.694000 11241107
-0.145700 0.006043 0.705000 12953495
-0.145700 0.010071 0.705000 12427165
-0.145493 0.014080 0.704000 12886430
-0.145493 0.018103 0.704000 11643200
-0.145700 0.022157 0.705000 13742762
-0.146113 0.026260 0.707000 13415089
-0.146320 0.030343 0.708000 13611949
-0.146940 0.034534 0.711000 13741973
-0.146940 0.038597 0.711000 14071737
-0.142310 -0.001986 0.695000 13805990
-0.142105 0.001983 0.694000 12755880
-0.144767 0.006060 0.707000 13611701
-0.144357 0.010071 0.705000 13150393
-0.144357 0.014100 0.705000 13216169
-0.144767 0.018180 0.707000 12493694
-0.144767 0.022220 0.707000 13544868
-0.144767 0.026260 0.707000 13215133
-0.145586 0.030471 0.711000 13014413
-0.145995 0.034631 0.713000 12355683
-0.143420 0.006060 0.707000 14267571
-0.143014 0.010071 0.705000 13939635
-0.143420 0.014140 0.707000 13545643
-0.143420 0.018180 0.707000 13346200
-0.144637 0.022409 0.713000 13348263
-0.145246 0.026594 0.716000 13017760
-0.144840 0.030600 0.714000 12360340
-0.144840 0.034680 0.714000 10977659
-0.142073 0.006060 0.707000 14202289
-0.142073 0.010100 0.707000 14070188
-0.142073 0.014140 0.707000 13809325
-0.142073 0.018180 0.707000 13676466
-0.143279 0.022409 0.713000 13610665
-0.143882 0.026594 0.716000 13479587
-0.143480 0.030600 0.714000 13149851
-0.143480 0.034680 0.714000 12361106
-0.140727 0.010100 0.707000 14201001
-0.142518 0.026594 0.716000 13939623
-0.142120 0.030600 0.714000 13872546
-0.142120 0.034680 0.714000 13805982
-0.140760 0.034680 0.714000 13740970
-0.237933 0.040707 0.602000 9797264
-0.239514 0.044440 0.606000 9461593
-0.239514 0.047903 0.606000 9528414
-0.236393 0.037205 0.601000 9663818
-0.236787 0.040707 0.602000 9007712
-0.237967 0.044367 0.605000 9596772
-0.237967 0.047824 0.605000 7959148
-0.238753 0.051450 0.607000 8808019
