# .PCD v.7 - Point Cloud Data file format
VERSION .7
FIELDS x y z rgb
SIZE 4 4 4 4
TYPE F F F I
COUNT 1 1 1 1
WIDTH 1299
HEIGHT 1
POINTS 1299
DATA ascii
-0.235157 0.056597 0.837000 13352666
-0.235157 0.061380 0.837000 14007171
-0.235157 0.066163 0.837000 14661447
-0.235719 0.071115 0.839000 15252319
-0.236281 0.076090 0.841000 13946054
-0.238248 0.081570 0.848000 14603496
-0.239371 0.086823 0.852000 14534120
-0.240495 0.092122 0.856000 14330550
-0.241619 0.097467 0.860000 13945815
-0.242181 0.102619 0.862000 12767698
-0.235237 0.042551 0.843000 13418412
-0.235237 0.047369 0.843000 12564639
-0.234121 0.051938 0.839000 9934730
-0.233563 0.056597 0.837000 13155527
-0.233563 0.061380 0.837000 14066527
-0.234121 0.066321 0.839000 14525999
-0.234679 0.071285 0.841000 14924651
-0.235795 0.076452 0.845000 14803398
-0.237190 0.081762 0.850000 14341601
-0.238865 0.087230 0.856000 15132653
-0.238865 0.092122 0.856000 14472151
-0.241376 0.098033 0.865000 15395801
-0.232523 0.042350 0.839000 12101522
-0.233077 0.047256 0.841000 12957812
-0.232523 0.051938 0.839000 12106429
-0.232523 0.056732 0.839000 13151924
-0.232523 0.061527 0.839000 12682555
-0.233077 0.066479 0.841000 12944919
-0.233631 0.071454 0.843000 14204790
-0.234186 0.076452 0.845000 14010054
-0.236680 0.082147 0.854000 14667739
-0.237789 0.087434 0.858000 15131889
-0.238343 0.092552 0.860000 15138041
-0.240283 0.098260 0.867000 14209755
-0.230925 0.042350 0.839000 10723221
-0.231475 0.047256 0.841000 13287041
-0.230925 0.051938 0.839000 14207956
-0.230925 0.056732 0.839000 13087923
-0.231475 0.061673 0.841000 11307060
-0.232026 0.066637 0.843000 11430698
-0.232576 0.071624 0.845000 13415048
-0.233952 0.076905 0.850000 13219012
-0.235604 0.082339 0.856000 14931675
-0.236705 0.087638 0.860000 15132152
-0.237255 0.092768 0.862000 15720130
-0.229327 0.047144 0.839000 13747086
-0.229327 0.051938 0.839000 14932460
-0.229327 0.056732 0.839000 13546674
-0.229873 0.061673 0.841000 11698221
-0.230967 0.066795 0.845000 11696956
-0.231787 0.071878 0.848000 13545370
-0.232333 0.076905 0.850000 13151937
-0.235067 0.082724 0.860000 14869723
-0.235613 0.087842 0.862000 15395070
-0.236980 0.093306 0.867000 13814155
-0.228271 0.047256 0.841000 14214342
-0.227729 0.051938 0.839000 15589607
-0.228271 0.056868 0.841000 14068884
-0.229357 0.061967 0.845000 12095046
-0.230171 0.067032 0.848000 11964256
-0.230714 0.072048 0.850000 13680314
-0.231257 0.077086 0.852000 13088706
-0.233429 0.082724 0.860000 14730441
-0.234786 0.088148 0.865000 15658197
-0.235329 0.093306 0.867000 11890007
-0.226670 0.047256 0.841000 14672382
-0.226670 0.052062 0.841000 13885666
-0.227209 0.057003 0.843000 13478005
-0.228556 0.062187 0.848000 12362335
-0.229095 0.067190 0.850000 12099971
-0.229634 0.072217 0.852000 14013146
-0.230712 0.077448 0.856000 13350595
-0.232330 0.082916 0.862000 13674423
-0.233138 0.088148 0.865000 13940908
-0.234216 0.093521 0.869000 11600676
-0.224532 0.047144 0.839000 15066578
-0.225068 0.052062 0.841000 12103101
-0.226138 0.057138 0.845000 12953482
-0.227476 0.062333 0.850000 12625786
-0.228011 0.067349 0.852000 12233343
-0.230152 0.072895 0.860000 14272722
-0.230152 0.077810 0.860000 13616589
-0.231490 0.083205 0.865000 12564676
-0.232561 0.088555 0.869000 12227171
-0.222934 0.047144 0.839000 13678502
-0.223466 0.052062 0.841000 11632025
-0.225326 0.057341 0.848000 12427934
-0.226920 0.062627 0.854000 12298901
-0.227451 0.067665 0.856000 12298107
-0.228514 0.072895 0.860000 13745867
-0.228514 0.077810 0.860000 13944535
-0.230374 0.083397 0.867000 13423570
-0.231437 0.088759 0.871000 12552218
-0.222391 0.052186 0.843000 11113891
-0.224238 0.057476 0.850000 11903649
-0.225293 0.062627 0.854000 11966351
-0.225821 0.067665 0.856000 12434588
-0.226876 0.072895 0.860000 13221831
-0.228195 0.078262 0.865000 14272475
-0.228723 0.083397 0.867000 14205898
-0.229778 0.088759 0.871000 12882985
-0.220786 0.052186 0.843000 11969965
-0.223143 0.057611 0.852000 12034468
-0.224714 0.062920 0.858000 11832458
-0.224714 0.067823 0.858000 12695229
-0.225238 0.072895 0.860000 13221828
-0.226548 0.078262 0.865000 13945311
-0.228119 0.083782 0.871000 13281730
-0.222560 0.057882 0.856000 12166054
-0.223080 0.062920 0.858000 11706010
-0.223600 0.067981 0.860000 13022625
-0.224900 0.073319 0.865000 13152165
-0.225940 0.078624 0.869000 13614789
-0.227500 0.084167 0.875000 12299707
-0.220930 0.057882 0.856000 12362920
-0.221962 0.063067 0.860000 12234155
-0.222478 0.068139 0.862000 12494980
-0.223769 0.073489 0.867000 12162950
-0.224801 0.078805 0.871000 13019051
-0.220324 0.063067 0.860000 12757673
-0.221605 0.068376 0.865000 12033670
-0.222630 0.073658 0.869000 11113611
-0.223142 0.078805 0.871000 12428978
-0.220974 0.073658 0.869000 11506577
-0.221991 0.078986 0.873000 12495545
-0.221590 0.079438 0.878000 12560056
-0.344478 0.115335 0.802000 13022134
-0.342760 0.119320 0.798000 10844280
-0.343806 0.111029 0.804000 13150869
-0.342950 0.115335 0.802000 13544359
-0.342095 0.119619 0.800000 10326416
-0.343126 0.106699 0.806000 11176550
-0.341423 0.110752 0.802000 12553866
-0.341423 0.115335 0.802000 13874072
-0.340571 0.119619 0.800000 12101032
-0.341590 0.106699 0.806000 11569792
-0.339895 0.110752 0.802000 11969418
-0.339895 0.115335 0.802000 14269081
-0.339048 0.119619 0.800000 13875120
-0.340055 0.106699 0.806000 11835802
-0.338368 0.110752 0.802000 13218186
-0.338368 0.115335 0.802000 14203033
-0.337524 0.119619 0.800000 14403256
-0.337680 0.106434 0.804000 12034186
-0.336840 0.110752 0.802000 14397074
-0.336840 0.115335 0.802000 14136988
-0.336000 0.119619 0.800000 14860727
-0.336985 0.106699 0.806000 12492410
-0.336149 0.111029 0.804000 14267802
-0.335312 0.115335 0.802000 14137247
-0.334476 0.119619 0.800000 14662582
-0.334476 0.124190 0.800000 10915253
-0.336282 0.102347 0.808000 12427415
-0.335450 0.106699 0.806000 12883592
-0.334617 0.111029 0.804000 14137241
-0.333785 0.115335 0.802000 14136995
-0.332952 0.119619 0.800000 14466739
-0.332952 0.124190 0.800000 10919110
-0.335571 0.102600 0.810000 12163482
-0.333914 0.106699 0.806000 13413270
-0.333086 0.111029 0.804000 14136984
-0.332257 0.115335 0.802000 14202790
-0.331429 0.119619 0.800000 13616304
-0.331429 0.124190 0.800000 11708887
-0.336090 0.098576 0.815000 11505049
-0.334029 0.102600 0.810000 11837847
-0.332379 0.106699 0.806000 13940883
-0.330730 0.110752 0.802000 14071194
-0.330730 0.115335 0.802000 14202794
-0.329905 0.119619 0.800000 12693928
-0.328668 0.123725 0.797000 12565709
-0.334538 0.098576 0.815000 11968689
-0.334128 0.103107 0.814000 12757141
-0.330844 0.106699 0.806000 13808527
-0.330023 0.111029 0.804000 14070940
-0.329202 0.115335 0.802000 13875629
-0.328381 0.119619 0.800000 11704993
-0.327150 0.123725 0.797000 12498627
-0.325508 0.127635 0.793000 9078950
-0.332986 0.098576 0.815000 12430482
-0.331760 0.102853 0.812000 13674896
-0.329309 0.106699 0.806000 13676680
-0.327674 0.110752 0.802000 14005659
-0.326857 0.115048 0.800000 13483965
-0.326040 0.119320 0.798000 10719902
-0.324814 0.123414 0.795000 12498885
-0.323180 0.127313 0.791000 10787253
-0.331433 0.098576 0.815000 12690035
-0.330213 0.102853 0.812000 13412492
-0.327773 0.106699 0.806000 13412993
-0.326960 0.111029 0.804000 14005658
-0.325333 0.115048 0.800000 13090252
-0.324520 0.119320 0.798000 10586779
-0.323300 0.123414 0.795000 12433095
-0.322487 0.127635 0.793000 11642819
-0.322487 0.132167 0.793000 8678004
-0.330690 0.094150 0.817000 12492704
-0.329476 0.098455 0.814000 12949891
-0.328667 0.102853 0.812000 13150603
-0.326238 0.106699 0.806000 13150088
-0.325429 0.111029 0.804000 13940370
-0.323810 0.115048 0.800000 12699055
-0.323000 0.119320 0.798000 10457239
-0.321786 0.123414 0.795000 12434110
-0.320976 0.127635 0.793000 12495557
-0.320976 0.132167 0.793000 8284807
-0.329134 0.094150 0.817000 12098727
-0.327926 0.098455 0.814000 13215635
-0.326314 0.102600 0.810000 13215370
-0.324703 0.106699 0.806000 13216143
-0.323897 0.111029 0.804000 13809546
-0.322286 0.115048 0.800000 12233362
-0.321480 0.119320 0.798000 10917010
-0.321077 0.123725 0.797000 12233652
-0.320271 0.127957 0.795000 12496840
-0.319466 0.132167 0.793000 9272985
-0.327578 0.094150 0.817000 11640982
-0.326375 0.098455 0.814000 13415312
-0.324771 0.102600 0.810000 13214603
-0.323168 0.106699 0.806000 13281411
-0.322366 0.111029 0.804000 13609818
-0.320762 0.115048 0.800000 11768421
-0.319960 0.119320 0.798000 11376245
-0.319559 0.123725 0.797000 12035751
-0.318757 0.127957 0.795000 12495027
-0.317955 0.132167 0.793000 10195637
-0.327618 0.089919 0.821000 11902622
-0.326022 0.094150 0.817000 12755846
-0.324825 0.098455 0.814000 13545357
-0.323229 0.102600 0.810000 13282189
-0.321632 0.106699 0.806000 13544311
-0.321632 0.111305 0.806000 13607722
-0.319238 0.115048 0.800000 11041848
-0.318440 0.119320 0.798000 10981208
-0.318041 0.123725 0.797000 10196890
-0.316445 0.127635 0.793000 9077918
-0.315647 0.131833 0.791000 11050960
-0.326054 0.089919 0.821000 12166299
-0.324466 0.094150 0.817000 13806222
-0.323274 0.098455 0.814000 13612179
-0.320891 0.102347 0.808000 13280646
-0.320097 0.106699 0.806000 13806179
-0.320097 0.111305 0.806000 13542430
-0.317714 0.115048 0.800000 10316595
-0.316920 0.119320 0.798000 10516047
-0.316523 0.123725 0.797000 8420464
-0.315729 0.127957 0.795000 5593215
-0.314140 0.131833 0.791000 11907531
-0.323700 0.089700 0.819000 12823960
-0.322910 0.094150 0.817000 13742487
-0.320933 0.098213 0.812000 13874328
-0.319352 0.102347 0.808000 12358783
-0.318562 0.106699 0.806000 13677647
-0.318562 0.111305 0.806000 12228627
-0.316981 0.115335 0.802000 9921838
-0.315400 0.119320 0.798000 10048326
-0.314214 0.123414 0.795000 8939077
-0.313424 0.127635 0.793000 6758752
-0.312633 0.131833 0.791000 12300485
-0.321353 0.084812 0.817000 10261145
-0.322140 0.089700 0.819000 13415327
-0.321353 0.094150 0.817000 13677208
-0.320173 0.098455 0.814000 14201758
-0.317813 0.102347 0.808000 11443841
-0.317027 0.106699 0.806000 13615167
-0.316240 0.111029 0.804000 10910238
-0.314667 0.115048 0.800000 9529899
-0.313880 0.119320 0.798000 9595726
-0.313487 0.123725 0.797000 9472624
-0.312700 0.127957 0.795000 7895950
-0.311913 0.132167 0.793000 12698825
-0.319797 0.084812 0.817000 10647431
-0.319797 0.089481 0.817000 12758438
-0.319014 0.093919 0.815000 13808280
-0.318623 0.098455 0.814000 13940643
-0.316274 0.102347 0.808000 11442052
-0.315491 0.106699 0.806000 13413678
-0.314709 0.111029 0.804000 10907434
-0.313926 0.115335 0.802000 10449192
-0.312360 0.119320 0.798000 10782294
-0.311969 0.123725 0.797000 10592155
-0.311186 0.127957 0.795000 10596284
-0.310403 0.132167 0.793000 12826829
-0.307663 0.135491 0.786000 11837887
-0.319020 0.085020 0.819000 10978690
-0.319020 0.089700 0.819000 12036263
-0.317462 0.093919 0.815000 13874333
-0.317072 0.098455 0.814000 13678760
-0.314735 0.102347 0.808000 11444356
-0.313956 0.106699 0.806000 13281056
-0.312398 0.110752 0.802000 10843687
-0.311619 0.115048 0.800000 11302972
-0.310840 0.119320 0.798000 11901509
-0.310450 0.123725 0.797000 11706776
-0.308892 0.127635 0.793000 13217716
-0.308892 0.132167 0.793000 12957391
-0.307334 0.136009 0.789000 13417423
-0.317460 0.085020 0.819000 11245438
-0.316685 0.089481 0.817000 11902632
-0.315910 0.093919 0.815000 14070946
-0.315522 0.098455 0.814000 12822701
-0.313196 0.102347 0.808000 11575172
-0.311646 0.106434 0.804000 12753937
-0.310870 0.110752 0.802000 10976293
-0.310095 0.115048 0.800000 11896911
-0.309320 0.119320 0.798000 11837492
-0.308932 0.123725 0.797000 11574677
-0.307382 0.127635 0.793000 12756652
-0.307382 0.132167 0.793000 13551056
-0.306607 0.136353 0.791000 13885919
-0.318986 0.081125 0.827000 3629475
-0.316671 0.085228 0.821000 11434620
-0.315129 0.089481 0.817000 11770777
-0.314357 0.093919 0.815000 14203823
-0.313971 0.098455 0.814000 12037042
-0.311657 0.102347 0.808000 11706519
-0.310886 0.106699 0.806000 12232225
-0.309343 0.110752 0.802000 11041564
-0.308571 0.115048 0.800000 12488751
-0.307800 0.119320 0.798000 11704909
-0.306643 0.123414 0.795000 11445156
-0.305871 0.127635 0.793000 12299189
-0.305100 0.131833 0.791000 14208727
-0.304329 0.136009 0.789000 14337491
-0.318178 0.076584 0.829000 8092300
-0.317410 0.081125 0.827000 4020900
-0.315108 0.085228 0.821000 8413050
-0.313572 0.089481 0.817000 11899786
-0.312805 0.093919 0.815000 14206653
-0.312421 0.098455 0.814000 12759990
-0.310118 0.102347 0.808000 11703723
-0.309350 0.106699 0.806000 12427825
-0.307815 0.110752 0.802000 11895828
-0.307048 0.115048 0.800000 12822031
-0.306280 0.119320 0.798000 9597031
-0.305129 0.123414 0.795000 12036530
-0.304361 0.127635 0.793000 12497343
-0.303593 0.131833 0.791000 13683166
-0.302826 0.136009 0.789000 12757959
-0.304361 0.141230 0.793000 12562652
-0.316599 0.076584 0.829000 4879764
-0.315071 0.080929 0.825000 4348063
-0.313544 0.085228 0.821000 5393280
-0.312016 0.089481 0.817000 12091268
-0.311252 0.093919 0.815000 14204089
-0.310870 0.098455 0.814000 13416118
-0.308579 0.102347 0.808000 11642029
-0.307051 0.106434 0.804000 12691551
-0.306288 0.110752 0.802000 12752703
-0.305524 0.115048 0.800000 13086001
-0.304378 0.119170 0.797000 7502444
-0.303614 0.123414 0.795000 12694444
-0.302850 0.127635 0.793000 12631237
-0.302087 0.131833 0.791000 13158613
-0.301323 0.136009 0.789000 11114933
-0.302850 0.141230 0.793000 13619404
-0.315020 0.076584 0.829000 4876188
-0.313500 0.080929 0.825000 4281242
-0.312740 0.085435 0.823000 4063622
-0.311980 0.089919 0.821000 12163197
-0.309320 0.093804 0.814000 13148341
-0.309320 0.098455 0.814000 12886453
-0.307040 0.102347 0.808000 12297648
-0.305520 0.106434 0.804000 12165004
-0.304000 0.110476 0.800000 13478763
-0.304000 0.115048 0.800000 11306323
-0.303240 0.119320 0.798000 9011057
-0.302100 0.123414 0.795000 11773862
-0.300580 0.127313 0.791000 12828362
-0.300580 0.131833 0.791000 13287627
-0.299820 0.136009 0.789000 11565731
-0.299820 0.140517 0.789000 14405564
-0.301340 0.145761 0.793000 11966397
-0.313441 0.076584 0.829000 4808348
-0.311929 0.080929 0.825000 4215183
-0.311172 0.085435 0.823000 2771601
-0.309660 0.089700 0.819000 12297851
-0.308148 0.093919 0.815000 12034465
-0.307770 0.098455 0.814000 12292512
-0.305501 0.102347 0.808000 12887203
-0.303989 0.106434 0.804000 11705502
-0.303232 0.110752 0.802000 14204316
-0.302476 0.115048 0.800000 9598089
-0.301342 0.119170 0.797000 10521223
-0.300586 0.123414 0.795000 10853265
-0.299073 0.127313 0.791000 13021610
-0.299073 0.131833 0.791000 13421008
-0.298317 0.136009 0.789000 11973309
-0.298317 0.140517 0.789000 15256748
-0.299830 0.145761 0.793000 12497867
-0.311110 0.076399 0.827000 4807069
-0.310357 0.080929 0.825000 4538499
-0.309605 0.085435 0.823000 7175580
-0.308100 0.089700 0.819000 12688760
-0.306595 0.093919 0.815000 13283726
-0.305467 0.098213 0.812000 12953227
-0.303962 0.102347 0.808000 12690582
-0.302457 0.106434 0.804000 12231343
-0.301705 0.110752 0.802000 14669773
-0.300952 0.115048 0.800000 11247038
-0.300200 0.119320 0.798000 11312541
-0.299071 0.123414 0.795000 9798012
-0.297567 0.127313 0.791000 11443082
-0.297567 0.131833 0.791000 13222100
-0.296814 0.136009 0.789000 13755351
-0.296814 0.140517 0.789000 15126939
-0.298319 0.145761 0.793000 14144218
-0.310283 0.076584 0.829000 4740504
-0.308786 0.080929 0.825000 4864916
-0.308037 0.085435 0.823000 11570315
-0.306540 0.089700 0.819000 13148812
-0.304669 0.093804 0.814000 14529688
-0.303920 0.098213 0.812000 13546885
-0.302423 0.102347 0.808000 12493982
-0.301674 0.106699 0.806000 12689327
-0.300177 0.110752 0.802000 15063770
-0.299429 0.115048 0.800000 12960722
-0.298306 0.119170 0.797000 12102321
-0.296809 0.123104 0.793000 8808041
-0.296060 0.127313 0.791000 9859942
-0.296060 0.131833 0.791000 13022404
-0.295311 0.136009 0.789000 15455693
-0.295311 0.140517 0.789000 15061414
-0.298306 0.146496 0.797000 15719650
-0.298680 0.151240 0.798000 12229276
-0.309449 0.072020 0.831000 4808100
-0.308704 0.076584 0.829000 3756435
-0.307214 0.080929 0.825000 7827109
-0.306470 0.085435 0.823000 12685435
-0.304980 0.089700 0.819000 13809056
-0.303490 0.093919 0.815000 13941410
-0.302373 0.098213 0.812000 13207679
-0.300884 0.102347 0.808000 12488103
-0.300139 0.106699 0.806000 12755374
-0.298650 0.110752 0.802000 15262439
-0.297905 0.115048 0.800000 13422054
-0.297160 0.119320 0.798000 12960198
-0.295298 0.123104 0.793000 8344406
-0.294553 0.127313 0.791000 8338499
-0.294553 0.131833 0.791000 12496051
-0.293809 0.136009 0.789000 13876418
-0.294553 0.140873 0.791000 14865841
-0.296043 0.146129 0.795000 15265515
-0.297160 0.151240 0.798000 11635859
-0.309348 0.072367 0.835000 4281755
-0.307125 0.076584 0.829000 2706583
-0.305643 0.080929 0.825000 10789273
-0.304161 0.085228 0.821000 13804163
-0.302679 0.089481 0.817000 14532255
-0.301938 0.093919 0.815000 13348517
-0.301938 0.098576 0.815000 12945018
-0.299345 0.102347 0.808000 12493733
-0.298604 0.106699 0.806000 12817839
-0.297122 0.110752 0.802000 15460331
-0.296381 0.115048 0.800000 13884650
-0.295640 0.119320 0.798000 13746871
-0.293788 0.123104 0.793000 7932764
-0.293788 0.127635 0.793000 6837066
-0.293047 0.131833 0.791000 11908771
-0.292306 0.136009 0.789000 12298683
-0.293788 0.141230 0.793000 14736075
-0.294529 0.146129 0.795000 14730963
-0.295640 0.151240 0.798000 11036571
-0.308494 0.067757 0.837000 5464476
-0.307757 0.072367 0.835000 4083601
-0.305546 0.076584 0.829000 6508700
-0.304071 0.080929 0.825000 11901837
-0.303334 0.085435 0.823000 13606283
-0.301860 0.089700 0.819000 13874334
-0.300386 0.093919 0.815000 13682600
-0.300017 0.098455 0.814000 13077621
-0.297806 0.102347 0.808000 12688546
-0.297069 0.106699 0.806000 12625584
-0.295594 0.110752 0.802000 15789551
-0.294857 0.115048 0.800000 13225197
-0.294120 0.119320 0.798000 14008232
-0.292277 0.123104 0.793000 8077153
-0.292277 0.127635 0.793000 8347730
-0.291540 0.131833 0.791000 11772050
-0.291540 0.136353 0.791000 12750004
-0.292277 0.141230 0.793000 14800869
-0.293751 0.146496 0.797000 12623034
-0.294120 0.151240 0.798000 11703715
-0.306900 0.067757 0.837000 4414877
-0.306167 0.072367 0.835000 3818124
-0.303967 0.076584 0.829000 10255774
-0.302500 0.080929 0.825000 13017741
-0.301767 0.085435 0.823000 13408402
-0.300300 0.089700 0.819000 13214616
-0.298833 0.093919 0.815000 13935250
-0.298467 0.098455 0.814000 13222032
-0.296267 0.102347 0.808000 12890527
-0.295533 0.106699 0.806000 12495016
-0.294067 0.110752 0.802000 16052722
-0.293333 0.115048 0.800000 12634850
-0.292600 0.119320 0.798000 14198699
-0.290767 0.123104 0.793000 8257893
-0.290767 0.127635 0.793000 9856857
-0.290767 0.132167 0.793000 11641241
-0.290033 0.136353 0.791000 13219526
-0.291500 0.141586 0.795000 14866402
-0.292233 0.146496 0.797000 10459566
-0.293333 0.151619 0.800000 12366504
-0.305306 0.067757 0.837000 4282526
-0.304576 0.072367 0.835000 5066631
-0.302388 0.076584 0.829000 11640992
-0.300929 0.080929 0.825000 13143180
-0.300199 0.085435 0.823000 13412762
-0.298740 0.089700 0.819000 12753042
-0.297281 0.093919 0.815000 13541245
-0.296187 0.098213 0.812000 14074538
-0.294728 0.102347 0.808000 12823965
-0.293998 0.106699 0.806000 11838111
-0.292539 0.110752 0.802000 16381941
-0.291810 0.115048 0.800000 12563415
-0.291080 0.119320 0.798000 11502511
-0.289256 0.123104 0.793000 9396328
-0.289256 0.127635 0.793000 9594977
-0.289256 0.132167 0.793000 12166303
-0.289256 0.136698 0.793000 13421785
-0.290715 0.141942 0.797000 13746655
-0.291080 0.146680 0.798000 11112098
-0.291810 0.151619 0.800000 11575981
-0.296916 0.158924 0.814000 4194625
-0.304437 0.063125 0.839000 5459618
-0.303711 0.067757 0.837000 4150425
-0.302986 0.072367 0.835000 6377116
-0.300809 0.076584 0.829000 12953493
-0.298631 0.080732 0.823000 13211526
-0.297906 0.085228 0.821000 13409435
-0.296454 0.089481 0.817000 12288150
-0.295729 0.093919 0.815000 13150089
-0.294640 0.098213 0.812000 14929326
-0.293189 0.102347 0.808000 12685711
-0.292463 0.106699 0.806000 11243344
-0.291011 0.110752 0.802000 16640989
-0.290286 0.115048 0.800000 12494794
-0.289560 0.119320 0.798000 8816557
-0.288471 0.123414 0.795000 10458523
-0.287746 0.127635 0.793000 9339261
-0.287746 0.132167 0.793000 12622268
-0.288471 0.137043 0.795000 13550286
-0.289560 0.142120 0.798000 12563912
-0.290286 0.147048 0.800000 11703448
-0.291737 0.152377 0.804000 10854576
-0.295366 0.158924 0.814000 2504001
-0.302839 0.058330 0.839000 9872059
-0.302839 0.063125 0.839000 4806558
-0.302117 0.067757 0.837000 3429012
-0.300673 0.072193 0.833000 8944305
-0.298508 0.076399 0.827000 13083787
-0.297064 0.080732 0.823000 13542528
-0.295620 0.085020 0.819000 12224156
-0.295620 0.089700 0.819000 12093338
-0.294176 0.093919 0.815000 14205845
-0.293093 0.098213 0.812000 14532785
-0.291650 0.102347 0.808000 11240833
-0.290928 0.106699 0.806000 10779393
-0.289484 0.110752 0.802000 14671045
-0.288762 0.115048 0.800000 12497597
-0.288040 0.119320 0.798000 10065579
-0.286957 0.123414 0.795000 11575757
-0.286957 0.127957 0.795000 10782873
-0.286957 0.132500 0.795000 12561113
-0.286957 0.137043 0.795000 13609668
-0.288762 0.142476 0.800000 12823217
-0.290206 0.147783 0.804000 11900047
-0.291650 0.153135 0.808000 10920114
-0.294176 0.159119 0.815000 5647681
-0.301241 0.058330 0.839000 7767984
-0.301241 0.063125 0.839000 4151449
-0.300523 0.067757 0.837000 2705297
-0.299805 0.072367 0.835000 11511704
-0.297650 0.076584 0.829000 13210767
-0.295496 0.080732 0.823000 13937553
-0.295496 0.085435 0.823000 11044498
-0.293342 0.089481 0.817000 11833498
-0.292624 0.093919 0.815000 15189404
-0.292265 0.098455 0.814000 14075051
-0.291547 0.102853 0.812000 9728390
-0.288674 0.106434 0.804000 10392156
-0.287956 0.110752 0.802000 12629684
-0.287238 0.115048 0.800000 12495293
-0.286520 0.119320 0.798000 11245988
-0.286161 0.123725 0.797000 12759743
-0.285443 0.127957 0.795000 12233133
-0.286161 0.132833 0.797000 12436163
-0.286520 0.137560 0.798000 13614804
-0.287956 0.142832 0.802000 13022401
-0.289392 0.148150 0.806000 12103857
-0.290110 0.153135 0.808000 10989207
-0.292624 0.159119 0.815000 8740455
-0.296214 0.165786 0.825000 9866644
-0.299643 0.058330 0.839000 8224166
-0.299643 0.063125 0.839000 4019091
-0.299643 0.067919 0.839000 5455502
-0.298214 0.072367 0.835000 12297086
-0.295357 0.076399 0.827000 13271188
-0.293929 0.080732 0.823000 13085602
-0.293929 0.085435 0.823000 10838920
-0.291786 0.089481 0.817000 13084569
-0.290714 0.093804 0.814000 14927267
-0.290714 0.098455 0.814000 14005925
-0.290000 0.102853 0.812000 9000332
-0.287143 0.106434 0.804000 11510967
-0.285714 0.110476 0.800000 11508899
-0.285714 0.115048 0.800000 11508925
-0.285000 0.119320 0.798000 10980765
-0.285000 0.123880 0.798000 11706033
-0.285000 0.128440 0.798000 12963009
-0.285000 0.133000 0.798000 12891565
-0.285000 0.137560 0.798000 14210532
-0.287857 0.143545 0.806000 13550033
-0.288571 0.148518 0.808000 13290963
-0.290000 0.153893 0.812000 11372156
-0.292500 0.159900 0.819000 12171406
-0.294643 0.165786 0.825000 12039622
-0.301952 0.054238 0.850000 12896978
-0.299466 0.058609 0.843000 8682144
-0.298045 0.063125 0.839000 3886992
-0.298045 0.067919 0.839000 8153993
-0.296624 0.072367 0.835000 13086868
-0.293782 0.076399 0.827000 13343384
-0.292361 0.080732 0.823000 12301718
-0.291650 0.085228 0.821000 10650506
-0.289519 0.089262 0.815000 14338707
-0.289164 0.093804 0.814000 14664872
-0.289164 0.098455 0.814000 13936031
-0.287032 0.102347 0.808000 8288134
-0.285611 0.106434 0.804000 12632260
-0.284901 0.110752 0.802000 10393763
-0.284190 0.115048 0.800000 10528174
-0.284190 0.119619 0.800000 10717342
-0.283480 0.123880 0.798000 10655637
-0.284190 0.128762 0.800000 13613242
-0.284901 0.133667 0.802000 13413570
-0.284901 0.138250 0.802000 14799581
-0.286322 0.143545 0.806000 14009042
-0.287743 0.148886 0.810000 14402768
-0.289164 0.154272 0.814000 11761041
-0.291650 0.160290 0.821000 15584438
-0.293782 0.166188 0.827000 14273738
-0.300333 0.054238 0.850000 12629704
-0.297860 0.058609 0.843000 10327194
-0.296447 0.063125 0.839000 4407181
-0.295740 0.067757 0.837000 10259331
-0.294327 0.072193 0.833000 13019817
-0.292207 0.076399 0.827000 13416860
-0.290793 0.080732 0.823000 11965066
-0.290087 0.085228 0.821000 12103564
-0.287967 0.089262 0.815000 14204557
-0.287613 0.093804 0.814000 14992045
-0.286907 0.098213 0.812000 12493977
-0.286200 0.102600 0.810000 10250625
-0.284080 0.106434 0.804000 12237008
-0.283373 0.110752 0.802000 10260388
-0.282667 0.115048 0.800000 11049375
-0.282667 0.119619 0.800000 11240351
-0.281960 0.123880 0.798000 10781816
-0.282667 0.128762 0.800000 13415604
-0.283373 0.133667 0.802000 13416919
-0.285493 0.139284 0.808000 14470103
-0.285493 0.143901 0.808000 13943763
-0.286907 0.149253 0.812000 14074830
-0.287967 0.154462 0.815000 12494246
-0.290087 0.160290 0.821000 14666206
-0.292913 0.166590 0.829000 13158350
-0.298011 0.049265 0.848000 15126224
-0.298714 0.054238 0.850000 12368855
-0.296254 0.058609 0.843000 11898015
-0.294849 0.063125 0.839000 4996496
-0.294146 0.067757 0.837000 12295574
-0.292740 0.072193 0.833000 12889261
-0.290631 0.076399 0.827000 13478045
-0.288523 0.080536 0.821000 11633296
-0.288523 0.085228 0.821000 13541009
-0.286414 0.089262 0.815000 14006931
-0.286063 0.093804 0.814000 15319715
-0.286063 0.098455 0.814000 11051678
-0.283954 0.102347 0.808000 12226180
-0.282549 0.106434 0.804000 11842254
-0.281846 0.110752 0.802000 10127541
-0.281143 0.115048 0.800000 11571098
-0.281143 0.119619 0.800000 11709857
-0.281143 0.124190 0.800000 10905692
-0.281143 0.128762 0.800000 13153461
-0.283251 0.134333 0.806000 13482971
-0.284657 0.139629 0.810000 14143194
-0.285360 0.144613 0.812000 13812684
-0.286414 0.149805 0.815000 13680583
-0.287820 0.155220 0.819000 13282991
-0.289929 0.161071 0.825000 13744075
-0.291334 0.166590 0.829000 12108225
-0.297095 0.049381 0.850000 13482973
-0.297095 0.054238 0.850000 13224677
-0.295348 0.058748 0.845000 11373732
-0.293250 0.063125 0.839000 7496339
-0.292551 0.067757 0.837000 13150633
-0.291153 0.072193 0.833000 13087665
-0.289056 0.076399 0.827000 13474461
-0.286959 0.080536 0.821000 12227989
-0.286959 0.085228 0.821000 12880533
-0.286260 0.089700 0.819000 14005657
-0.284862 0.093919 0.815000 14598298
-0.284512 0.098455 0.814000 8482979
-0.282415 0.102347 0.808000 12700807
-0.281017 0.106434 0.804000 12430284
-0.280318 0.110752 0.802000 11303622
-0.279619 0.115048 0.800000 11967124
-0.279619 0.119619 0.800000 13815203
-0.280318 0.124501 0.802000 12358976
-0.281716 0.129728 0.806000 13218742
-0.282415 0.134667 0.808000 13550302
-0.283114 0.139629 0.810000 14144478
-0.284512 0.144970 0.814000 13547973
-0.286260 0.150540 0.819000 13416384
-0.287658 0.155978 0.823000 12562360
-0.289056 0.161462 0.827000 12617144
-0.289755 0.166590 0.829000 11379636
-0.295476 0.049381 0.850000 11843270
-0.295476 0.054238 0.850000 14144486
-0.293738 0.058748 0.845000 10785962
-0.291652 0.063125 0.839000 9990799
-0.290957 0.067757 0.837000 13940388
-0.289567 0.072193 0.833000 13219497
-0.287481 0.076399 0.827000 13411479
-0.286090 0.080732 0.823000 12885147
-0.285395 0.085228 0.821000 12163736
-0.284700 0.089700 0.819000 13942932
-0.282267 0.093573 0.812000 13808798
-0.281571 0.097971 0.810000 5922189
-0.280876 0.102347 0.808000 13085598
-0.278790 0.106170 0.802000 13084844
-0.277400 0.110200 0.798000 12434655
-0.277400 0.114760 0.798000 12427156
-0.277400 0.119320 0.798000 15913863
-0.278095 0.124190 0.800000 13808201
-0.280876 0.130050 0.808000 13285544
-0.280876 0.134667 0.808000 13681875
-0.282267 0.139973 0.812000 14141635
-0.283310 0.145148 0.815000 13217451
-0.284700 0.150540 0.819000 13087405
-0.286090 0.155978 0.823000 11841190
-0.288176 0.161852 0.829000 11509165
-0.293166 0.044419 0.848000 13027567
-0.293166 0.049265 0.848000 11837871
-0.292129 0.053919 0.845000 14145254
-0.290746 0.058470 0.841000 10257841
-0.289363 0.062974 0.837000 11505546
-0.287980 0.067433 0.833000 14008224
-0.286597 0.071847 0.829000 13087392
-0.285214 0.076214 0.825000 13417106
-0.283140 0.080340 0.819000 12427424
-0.283140 0.085020 0.819000 13219995
-0.281757 0.089262 0.815000 13741966
-0.280720 0.093573 0.812000 13217443
-0.280029 0.097971 0.810000 4807542
-0.279337 0.102347 0.808000 9475766
-0.277263 0.106170 0.802000 13417355
-0.276571 0.110476 0.800000 14213368
-0.275880 0.114760 0.798000 12755603
-0.277263 0.119918 0.802000 16047212
-0.277954 0.124811 0.804000 14795602
-0.280029 0.130371 0.810000 13284506
-0.280720 0.135333 0.812000 13153735
-0.281411 0.140318 0.814000 13417128
-0.282449 0.145504 0.817000 13282449
-0.283831 0.150908 0.821000 13085339
-0.284523 0.155978 0.823000 11175828
-0.286597 0.161852 0.829000 12959907
-0.286597 0.166590 0.829000 11111563
-0.291550 0.044419 0.848000 12569281
-0.291550 0.049265 0.848000 11836330
-0.290519 0.053919 0.845000 14147298
-0.289144 0.058470 0.841000 9669781
-0.287769 0.062974 0.837000 13082504
-0.286393 0.067433 0.833000 14006685
-0.285018 0.071847 0.829000 12893604
-0.283643 0.076214 0.825000 13410964
-0.281580 0.080340 0.819000 12038559
-0.280892 0.084812 0.817000 14197655
-0.280205 0.089262 0.815000 13613725
-0.279173 0.093573 0.812000 12623001
-0.278486 0.097971 0.810000 3754655
-0.277798 0.102347 0.808000 5867975
-0.275735 0.106170 0.802000 13745549
-0.275048 0.110476 0.800000 15983596
-0.275048 0.115048 0.800000 13077894
-0.276423 0.120217 0.804000 16107611
-0.277110 0.125122 0.806000 15774279
-0.279173 0.130693 0.812000 13287859
-0.279173 0.135333 0.812000 12629449
-0.280205 0.140490 0.815000 12624252
-0.281580 0.145860 0.819000 13280600
-0.282268 0.150908 0.821000 13086097
-0.283643 0.156357 0.825000 10525340
-0.285018 0.161852 0.829000 14340544
-0.289935 0.044419 0.848000 10918290
-0.289935 0.049265 0.848000 12231845
-0.288910 0.053919 0.845000 12895198
-0.287542 0.058470 0.841000 9923449
-0.286174 0.062974 0.837000 13018245
-0.284807 0.067433 0.833000 13675418
-0.283439 0.071847 0.829000 12559528
-0.281388 0.076030 0.823000 13278871
-0.280020 0.080340 0.819000 12099229
-0.280020 0.085020 0.819000 13275027
-0.278652 0.089262 0.815000 13678251
-0.277627 0.093573 0.812000 9013392
-0.276943 0.097971 0.810000 4352199
-0.276259 0.102347 0.808000 4943064
-0.274891 0.106434 0.804000 13485710
-0.274208 0.110752 0.802000 14276832
-0.273524 0.115048 0.800000 13610873
-0.275575 0.120516 0.806000 14329929
-0.276943 0.125743 0.810000 14591804
-0.277627 0.130693 0.812000 14405580
-0.278310 0.135667 0.814000 13681866
-0.279336 0.140835 0.817000 11765073
-0.280704 0.146216 0.821000 13407519
-0.281388 0.151275 0.823000 14139016
-0.282755 0.156736 0.827000 11775396
-0.289000 0.039667 0.850000 13415342
-0.289000 0.044524 0.850000 9331330
-0.288320 0.049265 0.848000 12560294
-0.287300 0.053919 0.845000 11648177
-0.285260 0.058330 0.839000 10124925
-0.284580 0.062974 0.837000 12951439
-0.282540 0.067271 0.831000 13346968
-0.281180 0.071673 0.827000 12163204
-0.279820 0.076030 0.823000 13149600
-0.278460 0.080340 0.819000 12162185
-0.278460 0.085020 0.819000 12363419
-0.277100 0.089262 0.815000 13741221
-0.276080 0.093573 0.812000 5398420
-0.275400 0.097971 0.810000 4950228
-0.274720 0.102347 0.808000 3964894
-0.273360 0.106434 0.804000 13295793
-0.272680 0.110752 0.802000 12501438
-0.272680 0.115335 0.802000 14134671
-0.274040 0.120516 0.806000 12490057
-0.275400 0.125743 0.810000 13411194
-0.276760 0.131015 0.814000 15453636
-0.277100 0.135833 0.815000 14733771
-0.279140 0.141525 0.821000 10845000
-0.279820 0.146572 0.823000 13536794
-0.280500 0.151643 0.825000 15126180
-0.281860 0.157115 0.829000 12950940
-0.288057 0.039760 0.852000 10391976
-0.287381 0.044524 0.850000 9005169
-0.286705 0.049265 0.848000 12760232
-0.285690 0.053919 0.845000 11771011
-0.283662 0.058330 0.839000 11050112
-0.282310 0.062824 0.835000 13020569
-0.280957 0.067271 0.831000 13149079
-0.279605 0.071673 0.827000 12161887
-0.278252 0.076030 0.823000 13941417
-0.277576 0.080536 0.821000 12289909
-0.276900 0.085020 0.819000 13417123
-0.275548 0.089262 0.815000 11773599
-0.275210 0.093804 0.814000 4342937
-0.274533 0.098213 0.812000 5277153
-0.273181 0.102347 0.808000 5277413
-0.272505 0.106699 0.806000 10531283
-0.271829 0.111029 0.804000 13216413
-0.271829 0.115623 0.804000 12752293
-0.273181 0.120815 0.808000 12552520
-0.273857 0.125743 0.810000 13939128
-0.275210 0.131015 0.814000 14988732
-0.276900 0.136500 0.819000 14205644
-0.278929 0.142214 0.825000 10837567
-0.280281 0.147641 0.829000 13473300
-0.280281 0.152378 0.829000 14801088
-0.281633 0.157873 0.833000 11633043
-0.286434 0.039760 0.852000 7302286
-0.285762 0.044524 0.850000 8743784
-0.285090 0.049265 0.848000 12890270
-0.284081 0.053919 0.845000 11900031
-0.281391 0.058191 0.837000 11965826
-0.280719 0.062824 0.835000 13090978
-0.279374 0.067271 0.831000 12884630
-0.278702 0.071847 0.829000 12156286
-0.277357 0.076214 0.825000 14729642
-0.276012 0.080536 0.821000 12349570
-0.275340 0.085020 0.819000 14464163
-0.273995 0.089262 0.815000 9807766
-0.272987 0.093573 0.812000 3299246
-0.272987 0.098213 0.812000 5605343
-0.271642 0.102347 0.808000 6592232
-0.270970 0.106699 0.806000 7701446
-0.270970 0.111305 0.806000 13932194
-0.270970 0.115910 0.806000 11442068
-0.272314 0.121114 0.810000 12557952
-0.272987 0.126053 0.812000 14469038
-0.273995 0.131176 0.815000 14465715
-0.276685 0.137167 0.823000 13748157
-0.278702 0.142904 0.829000 10841405
-0.280047 0.148353 0.833000 13475665
-0.280047 0.153113 0.833000 14467263
-0.284811 0.034891 0.852000 11179668
-0.284811 0.039760 0.852000 7885173
-0.284143 0.044524 0.850000 9074271
-0.283474 0.049265 0.848000 12235156
-0.282471 0.053919 0.845000 12166011
-0.279797 0.058191 0.837000 12029572
-0.279129 0.062824 0.835000 12626346
-0.277791 0.067271 0.831000 12753301
-0.276454 0.071673 0.827000 13478556
-0.275786 0.076214 0.825000 14729643
-0.274449 0.080536 0.821000 13280911
-0.273780 0.085020 0.819000 13673892
-0.272443 0.089262 0.815000 7037836
-0.271440 0.093573 0.812000 4358850
-0.271440 0.098213 0.812000 5867740
-0.270103 0.102347 0.808000 6464492
-0.269434 0.106699 0.806000 6252473
-0.269434 0.111305 0.806000 10319015
-0.270103 0.116198 0.808000 12493187
-0.271440 0.121413 0.812000 13873336
-0.272109 0.126364 0.814000 14268835
-0.273780 0.131820 0.819000 15390378
-0.275786 0.137500 0.825000 13348270
-0.277791 0.143249 0.831000 11632700
-0.279129 0.148710 0.835000 14007694
-0.279797 0.153849 0.837000 13081534
-0.283189 0.034891 0.852000 11509656
-0.283189 0.039760 0.852000 8487821
-0.282524 0.044524 0.850000 9339521
-0.281859 0.049265 0.848000 11575446
-0.280197 0.053791 0.843000 12432287
-0.278868 0.058330 0.839000 12099989
-0.277538 0.062824 0.835000 12102296
-0.276209 0.067271 0.831000 12559761
-0.274879 0.071673 0.827000 14796705
-0.274214 0.076214 0.825000 14729903
-0.272885 0.080536 0.821000 14136984
-0.272220 0.085020 0.819000 12819101
-0.270890 0.089262 0.815000 4329117
-0.269893 0.093573 0.812000 5408208
-0.269893 0.098213 0.812000 6064614
-0.268564 0.102347 0.808000 6329055
-0.267899 0.106699 0.806000 4742325
-0.268564 0.111581 0.808000 6645158
-0.269229 0.116486 0.810000 13610650
-0.270558 0.121712 0.814000 15189175
-0.271555 0.126830 0.817000 14070935
-0.272220 0.131820 0.819000 16303778
-0.274879 0.137833 0.827000 12888717
-0.276209 0.143249 0.831000 12356430
-0.277538 0.148710 0.835000 14472621
-0.278203 0.153849 0.837000 11708607
-0.281566 0.034891 0.852000 12036251
-0.281566 0.039760 0.852000 10461606
-0.280905 0.044524 0.850000 11050403
-0.279252 0.049090 0.845000 11045528
-0.277930 0.053664 0.841000 12298946
-0.276609 0.058191 0.837000 12231847
-0.275948 0.062824 0.835000 12360582
-0.274626 0.067271 0.831000 13875597
-0.273304 0.071673 0.827000 14795686
-0.272643 0.076214 0.825000 14860466
-0.271321 0.080536 0.821000 13348256
-0.271321 0.085228 0.821000 7961495
-0.269338 0.089262 0.815000 4674733
-0.269008 0.093804 0.814000 5670622
-0.268347 0.098213 0.812000 6461935
-0.267025 0.102347 0.808000 6126290
-0.267025 0.106964 0.808000 4413360
-0.268347 0.112133 0.812000 8933542
-0.269338 0.117205 0.815000 14465968
-0.270660 0.122460 0.819000 15522486
-0.270660 0.127140 0.819000 13869707
-0.271321 0.132142 0.821000 16175002
-0.273304 0.137833 0.827000 12950380
-0.275287 0.143593 0.833000 13151328
-0.275948 0.148710 0.835000 14141132
-0.280600 0.030093 0.854000 13681079
-0.279943 0.034891 0.852000 12563317
-0.279943 0.039760 0.852000 12367226
-0.278629 0.044419 0.848000 12694676
-0.277643 0.049090 0.845000 10527398
-0.276329 0.053664 0.841000 12165310
-0.275014 0.058191 0.837000 12363690
-0.274357 0.062824 0.835000 12626585
-0.273043 0.067271 0.831000 15121047
-0.271729 0.071673 0.827000 14795436
-0.271071 0.076214 0.825000 14924199
-0.270414 0.080732 0.823000 12557985
-0.269100 0.085020 0.819000 3105692
-0.268443 0.089481 0.817000 5014216
-0.266800 0.093573 0.812000 5933791
-0.266800 0.098213 0.812000 6860013
-0.266143 0.102600 0.810000 5861572
-0.266800 0.107493 0.812000 4018599
-0.267457 0.112410 0.814000 11177905
-0.267786 0.117205 0.815000 15386810
-0.269100 0.122460 0.819000 15845300
-0.269757 0.127450 0.821000 13666465
-0.269757 0.132142 0.821000 16040102
-0.271729 0.137833 0.827000 12947313
-0.274357 0.143938 0.835000 13873021
-0.275014 0.149066 0.837000 13748167
-0.278973 0.030093 0.854000 13484725
-0.278320 0.034891 0.852000 13086542
-0.278320 0.039760 0.852000 13749839
-0.277013 0.044419 0.848000 13021829
-0.276033 0.049090 0.845000 12104116
-0.274727 0.053664 0.841000 12035769
-0.273420 0.058191 0.837000 12426668
-0.272113 0.062673 0.833000 13746091
-0.270807 0.067110 0.829000 14991777
-0.270153 0.071673 0.827000 14467761
-0.269500 0.076214 0.825000 13804955
-0.268193 0.080536 0.821000 8877217
-0.267540 0.085020 0.819000 3888801
-0.266233 0.089262 0.815000 5342691
-0.265253 0.093573 0.812000 6131424
-0.265253 0.098213 0.812000 6393323
-0.265253 0.102853 0.812000 5137335
-0.265907 0.107758 0.814000 6974365
-0.266887 0.112824 0.817000 13090748
-0.267540 0.117780 0.819000 15060931
-0.268193 0.122759 0.821000 14463665
-0.270153 0.128382 0.827000 14529206
-0.270153 0.133108 0.827000 15187379
-0.272113 0.138833 0.833000 12621430
-0.273420 0.144283 0.837000 12493979
-0.274073 0.149422 0.839000 13022658
-0.279295 0.025390 0.860000 12429219
-0.277996 0.030164 0.856000 13221302
-0.276697 0.034891 0.852000 13609289
-0.276048 0.039667 0.850000 15121982
-0.274424 0.044262 0.845000 13347451
-0.273774 0.048974 0.843000 13614273
-0.272475 0.053536 0.839000 11905468
-0.271826 0.058191 0.837000 12495791
-0.271176 0.062824 0.835000 14861726
-0.269228 0.067110 0.829000 14859423
-0.268578 0.071673 0.827000 14140065
-0.267929 0.076214 0.825000 12621468
-0.267279 0.080732 0.823000 5196440
-0.265980 0.085020 0.819000 4681662
-0.264681 0.089262 0.815000 5671137
-0.264356 0.093804 0.814000 6329832
-0.264356 0.098455 0.814000 5995726
-0.264356 0.103107 0.814000 4346543
-0.264681 0.107890 0.815000 9932210
-0.265980 0.113100 0.819000 14986416
-0.266630 0.118068 0.821000 14799803
-0.268578 0.123656 0.827000 13018276
-0.269877 0.129003 0.831000 15451055
-0.269877 0.133751 0.831000 14265762
-0.271826 0.139500 0.837000 12294812
-0.278303 0.025450 0.862000 12166307
-0.276366 0.030164 0.856000 13617846
-0.275074 0.034891 0.852000 13478467
-0.274429 0.039667 0.850000 14265901
-0.272814 0.044262 0.845000 13087857
-0.272169 0.048974 0.843000 13552078
-0.270877 0.053536 0.839000 12564159
-0.270231 0.058191 0.837000 12760242
-0.269586 0.062824 0.835000 13741456
-0.267649 0.067110 0.829000 13806238
-0.267003 0.071673 0.827000 12756625
-0.266357 0.076214 0.825000 8158110
-0.265711 0.080732 0.823000 4676238
-0.264420 0.085020 0.819000 5146331
-0.263774 0.089481 0.817000 6130910
-0.263129 0.093919 0.815000 6263793
-0.262806 0.098455 0.814000 5139377
-0.262806 0.103107 0.814000 6305448
-0.263774 0.108155 0.817000 12364998
-0.265066 0.113376 0.821000 14840485
-0.266357 0.118643 0.825000 14333875
-0.267003 0.123656 0.827000 13933463
-0.268294 0.129003 0.831000 15518376
-0.269586 0.134395 0.835000 12160146
-0.272169 0.140500 0.843000 12694722
-0.276661 0.025450 0.862000 11903399
-0.274735 0.030164 0.856000 14006435
-0.273451 0.034891 0.852000 13347882
-0.272810 0.039667 0.850000 13345069
-0.271205 0.044262 0.845000 12826474
-0.270563 0.048974 0.843000 13483972
-0.269279 0.053536 0.839000 13221574
-0.268637 0.058191 0.837000 12955564
-0.267353 0.062673 0.833000 12624017
-0.266070 0.067110 0.829000 12689049
-0.265428 0.071673 0.827000 11441288
-0.264144 0.076030 0.823000 3628450
-0.263502 0.080536 0.821000 4228019
-0.262860 0.085020 0.819000 5540316
-0.262860 0.089700 0.819000 6589931
-0.261576 0.093919 0.815000 6194396
-0.261576 0.098576 0.815000 4350127
-0.261576 0.103233 0.815000 8288689
-0.263502 0.108685 0.821000 14732223
-0.264144 0.113652 0.823000 14720928
-0.264786 0.118643 0.825000 13872272
-0.265428 0.123656 0.827000 14857899
-0.267353 0.129313 0.833000 15585462
-0.268637 0.134717 0.837000 10062209
-0.275019 0.025450 0.862000 11969707
-0.273105 0.030164 0.856000 12494736
-0.271829 0.034891 0.852000 12093713
-0.271190 0.039667 0.850000 12160814
-0.269595 0.044262 0.845000 12693602
-0.268957 0.048974 0.843000 13153466
-0.267681 0.053536 0.839000 13091020
-0.267043 0.058191 0.837000 11049638
-0.266405 0.062824 0.835000 11574161
-0.264490 0.067110 0.829000 10656661
-0.263852 0.071673 0.827000 10581374
-0.262576 0.076030 0.823000 4283814
-0.261938 0.080536 0.821000 4949463
-0.261300 0.085020 0.819000 5802461
-0.260662 0.089481 0.817000 6329591
-0.260024 0.093919 0.815000 5989574
-0.260024 0.098576 0.815000 5527980
-0.260662 0.103487 0.817000 11776955
-0.261938 0.108685 0.821000 14923191
-0.263214 0.113929 0.825000 15060892
-0.263852 0.118930 0.827000 13539180
-0.265129 0.124254 0.831000 15519678
-0.266405 0.129624 0.835000 14205123
-0.267681 0.135039 0.839000 10516848
-0.272743 0.025390 0.860000 12101811
-0.271474 0.030164 0.856000 10915953
-0.270206 0.034891 0.852000 10904081
-0.269571 0.039667 0.850000 10978345
-0.267986 0.044262 0.845000 12628326
-0.267351 0.048974 0.843000 12824768
-0.266083 0.053536 0.839000 12893884
-0.266083 0.058330 0.839000 9074304
-0.264180 0.062673 0.833000 10588566
-0.262911 0.067110 0.829000 8615809
-0.262277 0.071673 0.827000 9792402
-0.261009 0.076030 0.823000 4885419
-0.260374 0.080536 0.821000 5605851
-0.259740 0.085020 0.819000 6065891
-0.259740 0.089700 0.819000 6069479
-0.259106 0.094150 0.817000 5727163
-0.259740 0.099060 0.819000 6771893
-0.259740 0.103740 0.819000 15252920
-0.261643 0.109214 0.825000 15115181
-0.262277 0.114205 0.827000 15316900
-0.262911 0.119218 0.829000 13280912
-0.264180 0.124553 0.833000 16109752
-0.265449 0.129934 0.837000 12823727
-0.267986 0.136005 0.845000 10971780
-0.271735 0.025450 0.862000 12365499
-0.269844 0.030164 0.856000 10777171
-0.268583 0.034891 0.852000 10445329
-0.267952 0.039667 0.850000 11040805
-0.266376 0.044262 0.845000 12428394
-0.265746 0.048974 0.843000 12827334
-0.264485 0.053536 0.839000 11905963
-0.264485 0.058330 0.839000 7557467
-0.262593 0.062673 0.833000 10061978
-0.261332 0.067110 0.829000 7688557
-0.260702 0.071673 0.827000 10656166
-0.259441 0.076030 0.823000 8759471
-0.258810 0.080536 0.821000 5146335
-0.258180 0.085020 0.819000 6002409
-0.258180 0.089700 0.819000 5799383
-0.258180 0.094380 0.819000 4677040
-0.258180 0.099060 0.819000 9603262
-0.258810 0.103993 0.821000 14989493
-0.260702 0.109479 0.827000 14856098
-0.261332 0.114481 0.829000 13603244
-0.263224 0.120081 0.835000 13874611
-0.263854 0.125151 0.837000 15846579
-0.264485 0.130245 0.839000 10189210
-0.265746 0.135683 0.843000 7813272
-0.270093 0.025450 0.862000 12629942
-0.268213 0.030164 0.856000 10585183
-0.266960 0.034891 0.852000 10053675
-0.266333 0.039667 0.850000 11042340
-0.264767 0.044262 0.845000 12295811
-0.264140 0.048974 0.843000 12824505
-0.262887 0.053536 0.839000 10921873
-0.262260 0.058191 0.837000 6050136
-0.261007 0.062673 0.833000 9475989
-0.259753 0.067110 0.829000 6709088
-0.259127 0.071673 0.827000 11442570
-0.257873 0.076030 0.823000 12630186
-0.257247 0.080536 0.821000 4752347
-0.256620 0.085020 0.819000 5935332
-0.256620 0.089700 0.819000 5596358
-0.257247 0.094610 0.821000 3627695
-0.257247 0.099302 0.821000 12434624
-0.258500 0.104500 0.825000 14725041
-0.259753 0.109744 0.829000 14597027
-0.260380 0.114757 0.831000 11837864
-0.261633 0.120081 0.835000 14528921
-0.262887 0.125450 0.839000 15517358
-0.263513 0.130555 0.841000 7556240
-0.264767 0.136005 0.845000 4609962
-0.268451 0.025450 0.862000 12496561
-0.266583 0.030164 0.856000 11044715
-0.265337 0.034891 0.852000 10647876
-0.264714 0.039667 0.850000 12025124
-0.263157 0.044262 0.845000 12428955
-0.262534 0.048974 0.843000 12624299
-0.261289 0.053536 0.839000 10457206
-0.260666 0.058191 0.837000 5983829
-0.259420 0.062673 0.833000 8947088
-0.258174 0.067110 0.829000 8013396
-0.257551 0.071673 0.827000 10451822
-0.256306 0.076030 0.823000 13554853
-0.255683 0.080536 0.821000 5803478
-0.255683 0.085228 0.821000 5931999
-0.255683 0.089919 0.821000 5006261
-0.255683 0.094610 0.821000 6970031
-0.256306 0.099544 0.823000 13679041
-0.257551 0.104753 0.827000 14920621
-0.258797 0.110009 0.831000 14003108
-0.258797 0.114757 0.831000 13152420
-0.260043 0.120081 0.835000 14329215
-0.261911 0.125750 0.841000 13680553
-0.263157 0.131176 0.845000 6049670
-0.266810 0.025450 0.862000 12429994
-0.264952 0.030164 0.856000 11439981
-0.263714 0.034891 0.852000 11178042
-0.263095 0.039667 0.850000 13014584
-0.261548 0.044262 0.845000 12561082
-0.260929 0.048974 0.843000 12365491
-0.260310 0.053664 0.841000 10061392
-0.259071 0.058191 0.837000 5856608
-0.257833 0.062673 0.833000 8358271
-0.256595 0.067110 0.829000 9270898
-0.255976 0.071673 0.827000 9469588
-0.254738 0.076030 0.823000 14467244
-0.254119 0.080536 0.821000 6919383
-0.254119 0.085228 0.821000 5928395
-0.254119 0.089919 0.821000 4480689
-0.254738 0.094841 0.823000 10257841
-0.255976 0.100028 0.827000 14928070
-0.256595 0.105007 0.829000 15118251
-0.257833 0.110273 0.833000 13409191
-0.258452 0.115310 0.835000 14396582
-0.259071 0.120369 0.837000 14132643
-0.261548 0.126348 0.845000 11830941
-0.262476 0.131642 0.848000 4543641
-0.265168 0.025450 0.862000 12429218
-0.263322 0.030164 0.856000 11438959
-0.262707 0.034973 0.854000 12757039
-0.261476 0.039667 0.850000 12952653
-0.259938 0.044262 0.845000 13156825
-0.259323 0.048974 0.843000 13159866
-0.257477 0.053409 0.837000 9927977
-0.257477 0.058191 0.837000 6840427
-0.256247 0.062673 0.833000 8027245
-0.255016 0.067110 0.829000 10723473
-0.254401 0.071673 0.827000 11445689
-0.253170 0.076030 0.823000 13808564
-0.252555 0.080536 0.821000 9613015
-0.252555 0.085228 0.821000 4808632
-0.253170 0.090138 0.823000 5527468
-0.254401 0.095302 0.827000 12561588
-0.255016 0.100270 0.829000 14600907
-0.255631 0.105260 0.831000 15318186
-0.256862 0.110538 0.835000 13410729
-0.257477 0.115586 0.837000 13147816
-0.259323 0.121231 0.843000 13942470
-0.260861 0.126796 0.848000 7752592
-0.263526 0.025450 0.862000 12429475
-0.262303 0.030234 0.858000 11376251
-0.261080 0.034973 0.854000 14333757
-0.259857 0.039667 0.850000 12823637
-0.258329 0.044262 0.845000 13819879
-0.257717 0.048974 0.843000 13943486
-0.256494 0.053536 0.839000 9860385
-0.255883 0.058191 0.837000 7827812
-0.254660 0.062673 0.833000 7634277
-0.253437 0.067110 0.829000 12163979
-0.252826 0.071673 0.827000 13418442
-0.251603 0.076030 0.823000 13093580
-0.250991 0.080536 0.821000 12304816
-0.251603 0.085435 0.823000 3696570
-0.251603 0.090138 0.823000 6574004
-0.252826 0.095302 0.827000 14860983
-0.254049 0.100511 0.831000 14338761
-0.254049 0.105260 0.831000 15514791
-0.255883 0.110803 0.837000 13347751
-0.257106 0.116138 0.841000 11904680
-0.258329 0.121519 0.845000 13679535
-0.259857 0.127095 0.850000 3626905
-0.260061 0.030164 0.856000 11180680
-0.259453 0.034973 0.854000 12099146
-0.258238 0.039667 0.850000 12360542
-0.256719 0.044262 0.845000 14474740
-0.256111 0.048974 0.843000 13158850
-0.254896 0.053536 0.839000 9599256
-0.254289 0.058191 0.837000 7960413
-0.253073 0.062673 0.833000 7036508
-0.251858 0.067110 0.829000 11702150
-0.251250 0.071673 0.827000 13683162
-0.250035 0.076030 0.823000 14276325
