# .PCD v.7 - Point Cloud Data file format
VERSION .7
FIELDS x y z rgb
SIZE 4 4 4 4
TYPE F F F I
COUNT 1 1 1 1
WIDTH 1298
HEIGHT 1
POINTS 1298
DATA ascii
-0.120026 0.056854 0.603000 14269093
-0.119628 0.060100 0.601000 12758446
-0.119230 0.063323 0.599000 12688763
-0.118632 0.066411 0.596000 11708341
-0.118035 0.069466 0.593000 13813442
-0.117438 0.072486 0.590000 13812682
-0.117040 0.075600 0.588000 11060689
-0.116443 0.078557 0.585000 9532324
-0.116045 0.081620 0.583000 10918593
-0.116045 0.084951 0.583000 11637137
-0.116642 0.088737 0.586000 10320744
-0.117239 0.092557 0.589000 10715751
-0.117836 0.096411 0.592000 10781553
-0.118831 0.100637 0.597000 10716012
-0.119628 0.104746 0.601000 11044718
-0.120026 0.108540 0.603000 11109744
-0.123609 0.030454 0.627000 11908779
-0.122820 0.033820 0.623000 11831219
-0.122031 0.037140 0.619000 12094301
-0.121637 0.040546 0.617000 12360348
-0.121243 0.043929 0.615000 14268848
-0.120849 0.047289 0.613000 11627392
-0.119863 0.050377 0.608000 11037540
-0.119271 0.053586 0.605000 13678484
-0.118877 0.056854 0.603000 14268832
-0.118483 0.060100 0.601000 13748136
-0.118089 0.063323 0.599000 12162929
-0.117497 0.066411 0.596000 12427194
-0.116906 0.069466 0.593000 13811898
-0.116314 0.072486 0.590000 13747401
-0.115723 0.075471 0.587000 11051458
-0.115329 0.078557 0.585000 11052213
-0.115131 0.081760 0.584000 10986181
-0.115329 0.085243 0.585000 11238282
-0.115723 0.088889 0.587000 10057563
-0.116314 0.092714 0.590000 10386533
-0.116906 0.096574 0.593000 10716270
-0.117891 0.100806 0.598000 10782061
-0.118483 0.104746 0.601000 11109743
-0.119666 0.109260 0.607000 11110519
-0.122219 0.030406 0.626000 12627298
-0.121633 0.033820 0.623000 11840689
-0.121048 0.037200 0.620000 11830687
-0.120267 0.040480 0.616000 12492957
-0.120071 0.043929 0.615000 14137512
-0.119486 0.047211 0.612000 11771032
-0.118705 0.050377 0.608000 9391747
-0.118314 0.053674 0.606000 14399127
-0.117729 0.056854 0.603000 14333601
-0.117338 0.060100 0.601000 14728099
-0.116948 0.063323 0.599000 11635338
-0.116362 0.066411 0.596000 13153980
-0.115776 0.069466 0.593000 13876654
-0.115190 0.072486 0.590000 13615305
-0.114605 0.075471 0.587000 11052223
-0.114019 0.078423 0.584000 12557501
-0.114019 0.081760 0.584000 11121341
-0.114214 0.085243 0.585000 10851724
-0.114605 0.088889 0.587000 9860968
-0.115190 0.092714 0.590000 10058605
-0.116362 0.097063 0.596000 10585195
-0.116948 0.100974 0.599000 10781803
-0.118119 0.105443 0.605000 11240299
-0.118900 0.109620 0.609000 11044466
-0.121413 0.026914 0.628000 12295779
-0.121220 0.030454 0.627000 12098073
-0.120447 0.033820 0.623000 12700592
-0.119673 0.037140 0.619000 12561633
-0.119093 0.040480 0.616000 12621983
-0.118900 0.043929 0.615000 14072480
-0.118513 0.047289 0.613000 12632240
-0.117547 0.050377 0.608000 11240865
-0.116967 0.053586 0.605000 14401178
-0.116387 0.056760 0.602000 14268321
-0.116193 0.060100 0.601000 14005918
-0.115807 0.063323 0.599000 11177634
-0.115227 0.066411 0.596000 13815486
-0.114840 0.069583 0.594000 13941666
-0.114260 0.072609 0.591000 13615561
-0.113487 0.075471 0.587000 11635899
-0.112907 0.078423 0.584000 12172997
-0.113100 0.081900 0.585000 11314612
-0.113293 0.085389 0.586000 11972239
-0.113680 0.089040 0.588000 11441012
-0.114260 0.092871 0.591000 11108981
-0.115227 0.097063 0.596000 10715495
-0.115807 0.100974 0.599000 10716264
-0.116967 0.105443 0.605000 10846823
-0.118127 0.109980 0.611000 10715246
-0.120217 0.026914 0.628000 12033120
-0.120026 0.030454 0.627000 11569174
-0.119260 0.033820 0.623000 13483415
-0.118686 0.037200 0.620000 13288922
-0.117920 0.040480 0.616000 12689053
-0.117729 0.043929 0.615000 14074016
-0.117346 0.047289 0.613000 13408144
-0.116389 0.050377 0.608000 13148583
-0.116006 0.053674 0.606000 14334877
-0.115431 0.056854 0.603000 14202786
-0.115049 0.060100 0.601000 13279386
-0.114666 0.063323 0.599000 10722958
-0.114091 0.066411 0.596000 14467520
-0.113517 0.069466 0.593000 14006175
-0.112943 0.072486 0.590000 13548981
-0.112369 0.075471 0.587000 12227509
-0.111986 0.078557 0.585000 11771585
-0.111986 0.081900 0.585000 11513519
-0.112177 0.085389 0.586000 13083783
-0.112751 0.089191 0.589000 13017976
-0.113326 0.093029 0.592000 12096887
-0.114091 0.097063 0.596000 10847100
-0.114857 0.101143 0.600000 10585712
-0.116197 0.105791 0.607000 10518642
-0.116963 0.109980 0.611000 10387308
-0.119021 0.026914 0.628000 12164446
-0.118642 0.030406 0.626000 11569682
-0.118073 0.033820 0.623000 13284735
-0.117315 0.037140 0.619000 13155539
-0.116747 0.040480 0.616000 12818843
-0.116557 0.043929 0.615000 13348768
-0.116178 0.047289 0.613000 11622256
-0.115420 0.050460 0.609000 13084076
-0.114851 0.053674 0.606000 14268832
-0.114283 0.056854 0.603000 14203042
-0.113904 0.060100 0.601000 12617878
-0.113335 0.063217 0.598000 10846585
-0.112767 0.066300 0.595000 14536130
-0.112388 0.069466 0.593000 14137500
-0.111819 0.072486 0.590000 13809825
-0.111250 0.075471 0.587000 13482158
-0.110871 0.078557 0.585000 9599678
-0.110871 0.081900 0.585000 12299689
-0.111250 0.085534 0.587000 12294528
-0.112009 0.089494 0.591000 12031100
-0.112388 0.093186 0.593000 11967097
-0.113146 0.097226 0.597000 11835537
-0.113904 0.101311 0.601000 11702647
-0.115041 0.105791 0.607000 11110524
-0.117825 0.026914 0.628000 12232836
-0.117450 0.030406 0.626000 11636002
-0.116887 0.033820 0.623000 13085568
-0.116136 0.037140 0.619000 12958935
-0.115573 0.040480 0.616000 12886171
-0.115386 0.043929 0.615000 12696488
-0.115010 0.047289 0.613000 9860738
-0.114260 0.050460 0.609000 13017010
-0.113697 0.053674 0.606000 14137505
-0.113134 0.056854 0.603000 14268582
-0.112759 0.060100 0.601000 11902611
-0.112196 0.063217 0.598000 10963595
-0.111821 0.066411 0.596000 14601155
-0.111070 0.069349 0.592000 14268319
-0.110695 0.072486 0.590000 14071972
-0.110132 0.075471 0.587000 14729902
-0.109757 0.078557 0.585000 7374780
-0.109945 0.082040 0.586000 13087137
-0.110132 0.085534 0.587000 11440505
-0.111070 0.089646 0.592000 11111031
-0.111446 0.093343 0.594000 11832441
-0.112196 0.097389 0.598000 12819577
-0.112947 0.101480 0.602000 12818041
-0.114072 0.105966 0.608000 11769723
-0.116814 0.026957 0.629000 12496554
-0.116443 0.030454 0.627000 11704114
-0.115700 0.033820 0.623000 11838338
-0.115143 0.037200 0.620000 13155547
-0.114400 0.040480 0.616000 12818843
-0.114214 0.043929 0.615000 13220016
-0.113657 0.047211 0.612000 11047827
-0.112914 0.050377 0.608000 13675447
-0.112543 0.053674 0.606000 14136995
-0.111986 0.056854 0.603000 13808554
-0.111429 0.060000 0.600000 12232336
-0.111057 0.063217 0.598000 10318493
-0.110500 0.066300 0.595000 14336964
-0.109943 0.069349 0.592000 14268834
-0.109571 0.072486 0.590000 14399910
-0.109014 0.075471 0.587000 14074285
-0.108643 0.078557 0.585000 7957946
-0.108829 0.082040 0.586000 12426905
-0.109014 0.085534 0.587000 11109747
-0.110314 0.089949 0.594000 10847090
-0.110500 0.093500 0.595000 11501689
-0.111057 0.097389 0.598000 11897185
-0.111986 0.101649 0.603000 11897467
-0.113100 0.106140 0.609000 11966842
-0.115616 0.026957 0.629000 12695740
-0.115249 0.030454 0.627000 11772009
-0.114513 0.033820 0.623000 10522502
-0.114330 0.037320 0.622000 13356495
-0.113227 0.040480 0.616000 12755104
-0.113043 0.043929 0.615000 13746351
-0.112491 0.047211 0.612000 12159115
-0.111756 0.050377 0.608000 14399154
-0.111205 0.053586 0.605000 14137511
-0.110837 0.056854 0.603000 13417365
-0.110286 0.060000 0.600000 12552575
-0.109918 0.063217 0.598000 9670819
-0.109367 0.066300 0.595000 14008763
-0.108815 0.069349 0.592000 14334367
-0.108448 0.072486 0.590000 14661796
-0.107896 0.075471 0.587000 13420988
-0.107529 0.078557 0.585000 8490681
-0.107712 0.082040 0.586000 11763325
-0.108080 0.085680 0.588000 10716275
-0.109367 0.090100 0.595000 10650228
-0.109734 0.093814 0.597000 11110002
-0.110102 0.097551 0.599000 10977903
-0.110837 0.101649 0.603000 10913659
-0.112308 0.106489 0.611000 12161134
-0.114964 0.023474 0.632000 12692657
-0.114418 0.026957 0.629000 12762575
-0.114054 0.030454 0.627000 11774111
-0.113327 0.033820 0.623000 9205131
-0.112781 0.037200 0.620000 12694210
-0.112235 0.040546 0.617000 12623014
-0.111871 0.043929 0.615000 12690349
-0.111326 0.047211 0.612000 10903684
-0.110598 0.050377 0.608000 14399660
-0.110234 0.053674 0.606000 14268844
-0.109689 0.056854 0.603000 13082751
-0.109325 0.060100 0.601000 9466991
-0.108779 0.063217 0.598000 11118249
-0.108233 0.066300 0.595000 13875633
-0.107688 0.069349 0.592000 13940891
-0.107324 0.072486 0.590000 14399650
-0.106778 0.075471 0.587000 12499403
-0.106414 0.078557 0.585000 10788792
-0.106596 0.082040 0.586000 11896672
-0.107324 0.085971 0.590000 11045235
-0.108233 0.090100 0.595000 10847093
-0.108597 0.093814 0.597000 11832683
-0.109143 0.097714 0.600000 11636604
-0.109870 0.101817 0.604000 11175291
-0.110780 0.106140 0.609000 11503201
-0.113760 0.023474 0.632000 12100020
-0.113580 0.027043 0.631000 12827334
-0.112860 0.030454 0.627000 11776684
-0.112140 0.033820 0.623000 7892865
-0.111600 0.037200 0.620000 11969701
-0.111240 0.040611 0.618000 12426663
-0.110700 0.043929 0.615000 11637941
-0.110160 0.047211 0.612000 9597059
-0.109440 0.050377 0.608000 14399913
-0.109080 0.053674 0.606000 14334117
-0.108360 0.056760 0.602000 12680342
-0.108180 0.060100 0.601000 6310777
-0.107640 0.063217 0.598000 12638401
-0.106920 0.066189 0.594000 13679037
-0.106380 0.069231 0.591000 13548487
-0.106200 0.072486 0.590000 14072491
-0.105840 0.075600 0.588000 11586506
-0.105480 0.078691 0.586000 13020092
-0.105660 0.082180 0.587000 12028022
-0.106740 0.086409 0.593000 11307887
-0.107460 0.090403 0.597000 11109752
-0.108000 0.094286 0.600000 12489841
-0.108360 0.098040 0.602000 12295299
-0.108720 0.101817 0.604000 11440258
-0.109620 0.106140 0.609000 10912366
-0.112556 0.023474 0.632000 12100534
-0.112022 0.026957 0.629000 12498364
-0.111666 0.030454 0.627000 11577785
-0.110953 0.033820 0.623000 7822200
-0.110419 0.037200 0.620000 11376263
-0.110063 0.040611 0.618000 12226472
-0.109707 0.044000 0.616000 12822717
-0.108994 0.047211 0.612000 10772355
-0.108460 0.050460 0.609000 14400165
-0.107926 0.053674 0.606000 13809055
-0.107213 0.056760 0.602000 11901612
-0.107035 0.060100 0.601000 6422916
-0.106501 0.063217 0.598000 13224920
-0.105967 0.066300 0.595000 13874633
-0.105254 0.069231 0.591000 14209010
-0.105076 0.072486 0.590000 13942453
-0.104720 0.075600 0.588000 11446728
-0.104364 0.078691 0.586000 13419969
-0.104542 0.082180 0.587000 11966604
-0.105967 0.086700 0.595000 11175274
-0.106501 0.090554 0.598000 11175802
-0.106857 0.094286 0.600000 12163191
-0.107570 0.098366 0.604000 12492681
-0.107748 0.101986 0.605000 12363402
-0.108816 0.106489 0.611000 12031098
-0.111352 0.023474 0.632000 12035253
-0.111176 0.027043 0.631000 12168119
-0.110471 0.030454 0.627000 11447224
-0.109767 0.033820 0.623000 7760777
-0.109590 0.037320 0.622000 10718853
-0.108886 0.040611 0.618000 11967398
-0.108357 0.043929 0.615000 14073272
-0.107829 0.047211 0.612000 11969947
-0.107124 0.050377 0.608000 14465706
-0.106771 0.053674 0.606000 13212825
-0.106067 0.056760 0.602000 11056805
-0.105890 0.060100 0.601000 6504838
-0.105538 0.063323 0.599000 13883088
-0.104657 0.066189 0.594000 14010066
-0.104129 0.069231 0.591000 14868198
-0.103952 0.072486 0.590000 13810351
-0.103600 0.075600 0.588000 11309771
-0.103248 0.078691 0.586000 13808561
-0.103424 0.082180 0.587000 11901829
-0.104833 0.086700 0.595000 10977645
-0.105538 0.090706 0.599000 11241332
-0.105890 0.094443 0.601000 11767160
-0.106595 0.098529 0.605000 12753781
-0.106948 0.102323 0.607000 13278598
-0.108005 0.106837 0.613000 13148024
-0.110149 0.023474 0.632000 11838131
-0.109974 0.027043 0.631000 11903921
-0.109277 0.030454 0.627000 11511479
-0.108580 0.033820 0.623000 8681626
-0.108406 0.037320 0.622000 10848387
-0.107709 0.040611 0.618000 12226980
-0.107360 0.044000 0.616000 14139314
-0.106663 0.047211 0.612000 13487283
-0.105966 0.050377 0.608000 13875374
-0.105791 0.053763 0.607000 12614291
-0.104920 0.056760 0.602000 9861022
-0.104746 0.060100 0.601000 9004424
-0.104397 0.063323 0.599000 13418183
-0.103700 0.066300 0.595000 14144731
-0.103177 0.069349 0.592000 13159130
-0.102829 0.072486 0.590000 13279913
-0.102654 0.075729 0.589000 11246797
-0.102306 0.078826 0.587000 12623521
-0.102654 0.082460 0.589000 11241854
-0.103874 0.086846 0.596000 10846575
-0.104397 0.090706 0.599000 11175277
-0.104920 0.094600 0.602000 11370106
-0.105443 0.098529 0.605000 11831904
-0.105966 0.102491 0.608000 12093827
-0.108945 0.023474 0.632000 11640244
-0.108772 0.027043 0.631000 11640491
-0.108083 0.030454 0.627000 11577533
-0.107393 0.033820 0.623000 9602979
-0.107221 0.037320 0.622000 10910334
-0.106531 0.040611 0.618000 12495547
-0.106187 0.044000 0.616000 14270097
-0.105497 0.047211 0.612000 14926252
-0.104980 0.050460 0.609000 13351580
-0.104635 0.053763 0.607000 11966619
-0.103773 0.056760 0.602000 8673930
-0.103601 0.060100 0.601000 11442599
-0.103256 0.063323 0.599000 12892876
-0.102394 0.066189 0.594000 14207449
-0.102050 0.069349 0.592000 11518170
-0.101705 0.072486 0.590000 12753575
-0.101532 0.075729 0.589000 11238828
-0.101360 0.078960 0.588000 11376277
-0.101877 0.082740 0.591000 10586493
-0.102911 0.086991 0.597000 10650735
-0.103429 0.090857 0.600000 11175269
-0.103773 0.094600 0.602000 10913395
-0.104463 0.098691 0.606000 10977898
-0.104980 0.102660 0.609000 10848122
-0.107911 0.023511 0.633000 11245493
-0.107570 0.027043 0.631000 11113636
-0.106889 0.030454 0.627000 12103106
-0.106207 0.033820 0.623000 10459820
-0.105695 0.037200 0.620000 10979704
-0.105184 0.040546 0.617000 13286866
-0.104843 0.043929 0.615000 12950384
-0.104331 0.047211 0.612000 13612453
-0.103820 0.050460 0.609000 12817289
-0.103479 0.053763 0.607000 11315364
-0.102797 0.056854 0.603000 8809845
-0.102456 0.060100 0.601000 12763335
-0.102115 0.063323 0.599000 13090001
-0.101263 0.066189 0.594000 13748952
-0.100922 0.069349 0.592000 10917337
-0.100581 0.072486 0.590000 12628901
-0.100410 0.075729 0.589000 9530506
-0.100410 0.079094 0.589000 11831944
-0.100922 0.082880 0.592000 11177339
-0.101774 0.086991 0.597000 11438192
-0.102456 0.091009 0.601000 11568477
-0.102797 0.094757 0.603000 12162668
-0.103479 0.098854 0.607000 11702388
-0.104161 0.102997 0.611000 11241074
-0.106874 0.019926 0.634000 11904444
-0.106706 0.023511 0.633000 10850219
-0.106369 0.027043 0.631000 10592638
-0.105694 0.030454 0.627000 12628644
-0.105020 0.033820 0.623000 11246239
-0.104514 0.037200 0.620000 10980509
-0.104177 0.040611 0.618000 14009048
-0.103671 0.043929 0.615000 11702417
-0.103166 0.047211 0.612000 12227482
-0.102660 0.050460 0.609000 12223650
-0.102323 0.053763 0.607000 10584228
-0.101649 0.056854 0.603000 9013412
-0.101311 0.060100 0.601000 14007755
-0.100974 0.063323 0.599000 13286612
-0.100131 0.066189 0.594000 13287639
-0.099963 0.069466 0.593000 10331844
-0.099457 0.072486 0.590000 12495502
-0.099457 0.075857 0.590000 7814780
-0.099626 0.079363 0.591000 12294285
-0.099963 0.083020 0.593000 11767164
-0.100806 0.087137 0.598000 12159602
-0.101311 0.091009 0.601000 11962217
-0.101986 0.095071 0.605000 13343852
-0.102491 0.099017 0.608000 12426620
-0.103166 0.103166 0.612000 11571839
-0.105500 0.019894 0.633000 12037832
-0.105500 0.023511 0.633000 11705249
-0.105167 0.027043 0.631000 12628311
-0.104500 0.030454 0.627000 13352069
-0.103833 0.033820 0.623000 11114131
-0.103667 0.037320 0.622000 11905986
-0.102833 0.040546 0.617000 13481950
-0.102500 0.043929 0.615000 12492978
-0.101833 0.047134 0.611000 12549007
-0.101500 0.050460 0.609000 11574459
-0.101000 0.053674 0.606000 10176420
-0.100500 0.056854 0.603000 10986707
-0.100167 0.060100 0.601000 13946319
-0.099833 0.063323 0.599000 13286103
-0.099167 0.066300 0.595000 13351126
-0.098833 0.069466 0.593000 10056623
-0.098333 0.072486 0.590000 12693879
-0.098167 0.075729 0.589000 8676205
-0.098833 0.079631 0.593000 12757394
-0.099000 0.083160 0.594000 11372157
-0.099667 0.087137 0.598000 11503476
-0.100333 0.091160 0.602000 11569013
-0.100833 0.095071 0.605000 12425069
-0.101500 0.099180 0.609000 12492675
-0.102167 0.103334 0.613000 12429196
-0.104294 0.019894 0.633000 12102334
-0.104294 0.023511 0.633000 12558481
-0.103965 0.027043 0.631000 14595402
-0.103306 0.030454 0.627000 14074711
-0.102647 0.033820 0.623000 10984844
-0.102152 0.037200 0.620000 12766933
-0.101658 0.040546 0.617000 12892893
-0.101329 0.043929 0.615000 13287110
-0.100670 0.047134 0.611000 12889780
-0.100340 0.050460 0.609000 10922166
-0.099846 0.053674 0.606000 9801155
-0.099516 0.056949 0.604000 13027551
-0.099022 0.060100 0.601000 13812939
-0.098692 0.063323 0.599000 13348295
-0.098033 0.066300 0.595000 13420255
-0.097704 0.069466 0.593000 9797030
-0.097045 0.072363 0.589000 12825227
-0.097210 0.075857 0.590000 9595514
-0.097869 0.079766 0.594000 13148295
-0.098198 0.083440 0.596000 10977391
-0.098692 0.087283 0.599000 10847346
-0.099187 0.091160 0.602000 11175541
-0.100010 0.095386 0.607000 11438958
-0.100670 0.099506 0.611000 12556664
-0.100999 0.103334 0.613000 13212544
-0.103251 0.019926 0.634000 12560309
-0.103089 0.023511 0.633000 12822912
-0.102437 0.026957 0.629000 14070332
-0.102111 0.030454 0.627000 13941289
-0.101460 0.033820 0.623000 11575684
-0.100971 0.037200 0.620000 13357288
-0.100483 0.040546 0.617000 13154013
-0.100157 0.043929 0.615000 13682393
-0.099506 0.047134 0.611000 13093081
-0.099180 0.050460 0.609000 11773616
-0.098691 0.053674 0.606000 12569569
-0.098203 0.056854 0.603000 13618154
-0.097877 0.060100 0.601000 13681351
-0.097389 0.063217 0.598000 13613495
-0.096900 0.066300 0.595000 13094888
-0.096574 0.069466 0.593000 12039069
-0.095923 0.072363 0.589000 11713951
-0.096086 0.075857 0.590000 10059911
-0.096737 0.079766 0.594000 12358013
-0.097063 0.083440 0.596000 10911585
-0.097551 0.087283 0.599000 10912369
-0.098203 0.091311 0.603000 11175540
-0.098854 0.095386 0.607000 11174000
-0.099506 0.099506 0.611000 11765868
-0.099994 0.103503 0.614000 12222836
-0.101883 0.019894 0.633000 13021880
-0.101883 0.023511 0.633000 13022118
-0.101239 0.026957 0.629000 13544027
-0.100917 0.030454 0.627000 13874981
-0.100273 0.033820 0.623000 12102012
-0.099790 0.037200 0.620000 14014184
-0.099308 0.040546 0.617000 13354208
-0.098986 0.043929 0.615000 14075606
-0.098342 0.047134 0.611000 13222880
-0.098020 0.050460 0.609000 12632013
-0.097537 0.053674 0.606000 15261419
-0.097054 0.056854 0.603000 14275560
-0.096732 0.060100 0.601000 13483724
-0.096250 0.063217 0.598000 13946308
-0.095767 0.066300 0.595000 12692924
-0.095445 0.069466 0.593000 14336942
-0.094801 0.072363 0.589000 10523032
-0.094962 0.075857 0.590000 10591618
-0.095606 0.079766 0.594000 11504763
-0.096089 0.083580 0.597000 10780267
-0.096732 0.087574 0.601000 10912372
-0.097054 0.091311 0.603000 11175281
-0.097859 0.095543 0.608000 10912880
-0.098825 0.099994 0.614000 10977907
-0.098825 0.103503 0.614000 11175801
-0.100677 0.019894 0.633000 12761788
-0.100518 0.023474 0.632000 13352140
-0.100041 0.026957 0.629000 13343355
-0.099723 0.030454 0.627000 13477152
-0.099087 0.033820 0.623000 12492915
-0.098610 0.037200 0.620000 13748711
-0.098132 0.040546 0.617000 13618147
-0.097814 0.043929 0.615000 14208467
-0.097178 0.047134 0.611000 13290727
-0.096701 0.050377 0.608000 13421546
-0.096383 0.053674 0.606000 15065333
-0.095906 0.056854 0.603000 14275045
-0.095588 0.060100 0.601000 13353425
-0.095110 0.063217 0.598000 12629969
-0.094633 0.066300 0.595000 8348048
-0.094315 0.069466 0.593000 12432574
-0.093838 0.072486 0.590000 9268369
-0.093838 0.075857 0.590000 11112828
-0.094633 0.079900 0.595000 11436410
-0.095110 0.083720 0.598000 10780789
-0.095588 0.087574 0.601000 10780791
-0.096224 0.091614 0.605000 11175277
-0.096860 0.095700 0.609000 11110256
-0.097814 0.100157 0.615000 11043706
-0.097814 0.103671 0.615000 11572095
-0.099471 0.019894 0.633000 12429465
-0.099314 0.023474 0.632000 13682332
-0.098843 0.026957 0.629000 13087130
-0.098529 0.030454 0.627000 13018993
-0.097900 0.033820 0.623000 12889232
-0.097743 0.037320 0.622000 13549523
-0.097114 0.040611 0.618000 13879509
-0.096643 0.043929 0.615000 14273495
-0.096014 0.047134 0.611000 13288933
-0.095543 0.050377 0.608000 14208487
-0.095229 0.053674 0.606000 14803189
-0.094757 0.056854 0.603000 14340069
-0.094443 0.060100 0.601000 13220042
-0.093971 0.063217 0.598000 11380924
-0.093500 0.066300 0.595000 3948933
-0.093186 0.069466 0.593000 10595490
-0.092714 0.072486 0.590000 8026767
-0.092871 0.075986 0.591000 11638134
-0.093657 0.080034 0.596000 11306615
-0.094129 0.083860 0.599000 10716029
-0.094600 0.087720 0.602000 10650742
-0.095229 0.091766 0.606000 11241343
-0.095700 0.095700 0.609000 11308670
-0.096643 0.100157 0.615000 11108987
-0.096643 0.103671 0.615000 11898489
-0.098266 0.019894 0.633000 12361845
-0.098110 0.023474 0.632000 12096363
-0.097645 0.026957 0.629000 13158586
-0.097179 0.030406 0.626000 13417154
-0.096713 0.033820 0.623000 13090476
-0.096248 0.037200 0.620000 12693439
-0.095937 0.040611 0.618000 13221064
-0.095471 0.043929 0.615000 13946330
-0.094850 0.047134 0.611000 13483492
-0.094385 0.050377 0.608000 13879268
-0.094074 0.053674 0.606000 14934261
-0.093609 0.056854 0.603000 14339812
-0.093298 0.060100 0.601000 12234948
-0.092832 0.063217 0.598000 10721958
-0.092367 0.066300 0.595000 5114235
-0.092056 0.069466 0.593000 10523270
-0.091746 0.072609 0.591000 9470604
-0.091746 0.075986 0.591000 11903600
-0.092677 0.080169 0.597000 11307380
-0.092988 0.083860 0.599000 11111556
-0.093453 0.087720 0.602000 11374197
-0.094230 0.091917 0.607000 12163984
-0.094540 0.095700 0.609000 12297356
-0.095627 0.100320 0.616000 12096636
-0.097060 0.019894 0.633000 12227956
-0.096907 0.023474 0.632000 10508892
-0.096293 0.026914 0.628000 13213560
-0.096140 0.030454 0.627000 13814190
-0.095527 0.033820 0.623000 13287353
-0.095067 0.037200 0.620000 11837120
-0.094607 0.040546 0.617000 12496569
-0.094300 0.043929 0.615000 13684696
-0.093687 0.047134 0.611000 13617384
-0.093227 0.050377 0.608000 13614308
-0.092920 0.053674 0.606000 15065326
-0.092460 0.056854 0.603000 14338527
-0.092000 0.060000 0.600000 11181725
-0.091540 0.063111 0.597000 10067340
-0.091233 0.066300 0.595000 6247552
-0.090927 0.069466 0.593000 10455176
-0.090620 0.072609 0.591000 10916499
-0.090773 0.076114 0.592000 12233590
-0.091693 0.080303 0.598000 11306607
-0.092000 0.084000 0.600000 11569533
-0.092460 0.087866 0.603000 12029558
-0.093073 0.091917 0.607000 13082753
-0.093687 0.096014 0.611000 13278595
-0.094607 0.100483 0.617000 13083772
-0.095854 0.019894 0.633000 11966578
-0.095551 0.023437 0.631000 10513740
-0.095097 0.026914 0.628000 11103287
-0.094946 0.030454 0.627000 12494233
-0.094340 0.033820 0.623000 13418949
-0.093734 0.037140 0.619000 12298689
-0.093583 0.040611 0.618000 12033962
-0.093129 0.043929 0.615000 13748694
-0.092674 0.047211 0.612000 14144237
-0.092220 0.050460 0.609000 13879524
-0.091766 0.053674 0.606000 14672103
-0.091311 0.056854 0.603000 13682137
-0.091009 0.060100 0.601000 9863543
-0.090403 0.063111 0.597000 9468529
-0.090100 0.066300 0.595000 8356742
-0.089797 0.069466 0.593000 10258058
-0.089646 0.072731 0.592000 11377818
-0.089797 0.076243 0.593000 11638139
-0.090554 0.080303 0.598000 11108202
-0.090706 0.083860 0.599000 11306357
-0.091614 0.088157 0.605000 11634551
-0.092069 0.092069 0.608000 11963762
-0.092977 0.096486 0.614000 12094330
-0.093431 0.100483 0.617000 13083004
-0.094649 0.019894 0.633000 11638914
-0.094350 0.023437 0.631000 10584384
-0.093901 0.026914 0.628000 8939057
-0.093751 0.030454 0.627000 11173197
-0.093153 0.033820 0.623000 13545639
-0.092555 0.037140 0.619000 12761292
-0.092406 0.040611 0.618000 11577784
-0.091957 0.043929 0.615000 13817809
-0.091359 0.047134 0.611000 14604270
-0.090910 0.050377 0.608000 14143981
-0.090462 0.053586 0.605000 14275030
-0.090013 0.056760 0.602000 13092045
-0.089864 0.060100 0.601000 8483137
-0.089266 0.063111 0.597000 8940651
-0.088817 0.066189 0.594000 10390670
-0.088668 0.069466 0.593000 10060689
-0.088518 0.072731 0.592000 11768723
-0.088668 0.076243 0.593000 10981244
-0.089565 0.080437 0.599000 10846576
-0.089864 0.084140 0.601000 11043701
-0.090611 0.088303 0.606000 11175281
-0.091060 0.092220 0.609000 10847604
-0.091957 0.096643 0.615000 10914169
-0.092256 0.100483 0.617000 13148033
-0.093590 0.019926 0.634000 12429713
-0.093148 0.023437 0.631000 10516532
-0.092705 0.026914 0.628000 9529644
-0.092410 0.030406 0.626000 10642177
-0.091819 0.033766 0.622000 12160904
-0.091376 0.037140 0.619000 13222615
-0.091229 0.040611 0.618000 12762822
-0.090786 0.043929 0.615000 13289676
-0.090195 0.047134 0.611000 14275823
-0.089752 0.050377 0.608000 14145014
-0.089310 0.053586 0.605000 14074564
-0.089014 0.056854 0.603000 12427456
-0.088719 0.060100 0.601000 9728011
-0.088129 0.063111 0.597000 9600612
-0.087686 0.066189 0.594000 10522261
-0.087538 0.069466 0.593000 10258327
-0.087538 0.072854 0.593000 12030605
-0.087833 0.076500 0.595000 11242620
-0.088571 0.080571 0.600000 11044471
-0.088867 0.084280 0.602000 11109748
-0.089457 0.088303 0.606000 11174763
-0.090195 0.092523 0.611000 10716278
-0.091081 0.096957 0.617000 10978168
-0.091229 0.100646 0.618000 12292486
-0.092383 0.019926 0.634000 13217683
-0.091946 0.023437 0.631000 10448707
-0.091509 0.026914 0.628000 10120251
-0.091363 0.030454 0.627000 10057245
-0.090634 0.033766 0.622000 10789791
-0.090197 0.037140 0.619000 13745110
-0.090051 0.040611 0.618000 13874102
-0.089614 0.043929 0.615000 12762245
-0.089177 0.047211 0.612000 13880028
-0.088594 0.050377 0.608000 14146020
-0.088157 0.053586 0.605000 13878201
-0.087720 0.056760 0.602000 11831464
-0.087574 0.060100 0.601000 10910500
-0.086991 0.063111 0.597000 10261339
-0.086409 0.066077 0.593000 10589335
-0.086263 0.069349 0.592000 10456727
-0.086409 0.072854 0.593000 12292755
-0.086846 0.076629 0.596000 11571065
-0.087574 0.080706 0.601000 11176312
-0.087720 0.084280 0.602000 11241334
-0.088594 0.088594 0.608000 11110005
-0.089177 0.092674 0.612000 10584954
-0.089760 0.096800 0.616000 11043699
-0.091175 0.019926 0.634000 12823189
-0.090744 0.023437 0.631000 11372369
-0.090312 0.026914 0.628000 10712394
-0.090025 0.030406 0.626000 10783800
-0.089018 0.033603 0.619000 11842485
-0.088874 0.037080 0.618000 13220309
-0.088587 0.040480 0.616000 11768742
-0.088155 0.043786 0.613000 11966270
-0.087580 0.046980 0.609000 13745353
-0.087436 0.050377 0.608000 13616082
-0.086861 0.053497 0.604000 14139053
-0.086430 0.056666 0.601000 11434639
-0.086286 0.060000 0.600000 12032573
-0.085710 0.063006 0.596000 11180882
-0.085279 0.066077 0.593000 10788250
-0.085279 0.069466 0.593000 10652823
-0.085279 0.072854 0.593000 12817817
-0.085710 0.076629 0.596000 11241590
-0.086286 0.080571 0.600000 11176314
-0.086573 0.084280 0.602000 11307896
-0.087436 0.088594 0.608000 11373695
-0.088011 0.092674 0.612000 11176829
-0.088587 0.096800 0.616000 11175023
-0.089826 0.019894 0.633000 12362134
-0.089258 0.023363 0.629000 12360005
-0.088974 0.026871 0.627000 11240766
-0.088832 0.030406 0.626000 11511633
-0.087839 0.033603 0.619000 12889784
-0.087697 0.037080 0.618000 12768478
-0.087413 0.040480 0.616000 9672883
-0.086988 0.043786 0.613000 11248271
-0.086420 0.046980 0.609000 13551053
-0.086278 0.050377 0.608000 13155282
-0.085710 0.053497 0.604000 14403769
-0.085285 0.056666 0.601000 10963016
-0.085143 0.060000 0.600000 13145389
-0.084575 0.063006 0.596000 12097871
-0.084291 0.066189 0.594000 10917780
-0.084008 0.069349 0.592000 10912913
-0.084150 0.072854 0.593000 13277327
-0.084575 0.076629 0.596000 10975848
-0.085285 0.080706 0.601000 11110009
-0.085710 0.084560 0.604000 11438964
-0.086278 0.088594 0.608000 11569524
-0.086988 0.092826 0.613000 11833725
-0.087555 0.096957 0.617000 11307125
-0.088620 0.019894 0.633000 10650008
-0.088060 0.023363 0.629000 12821048
-0.087780 0.026871 0.627000 11439922
-0.087500 0.030357 0.625000 11509609
-0.086660 0.033603 0.619000 12560826
-0.086520 0.037080 0.618000 13356262
-0.086240 0.040480 0.616000 11312832
-0.085820 0.043786 0.613000 12565215
-0.085260 0.046980 0.609000 13749202
-0.085120 0.050377 0.608000 13616337
-0.084700 0.053586 0.605000 14080452
-0.084140 0.056666 0.601000 9520897
-0.084000 0.060000 0.600000 12817436
-0.083440 0.063006 0.596000 11572044
-0.083160 0.066189 0.594000 10717839
-0.083020 0.069466 0.593000 10980490
-0.083020 0.072854 0.593000 12291205
-0.083580 0.076757 0.597000 10517082
-0.084140 0.080706 0.601000 10846328
-0.085260 0.085260 0.609000 11241327
-0.085260 0.088740 0.609000 11239786
-0.085960 0.092977 0.614000 11372669
-0.086520 0.097114 0.618000 11372924
-0.087414 0.019894 0.633000 8881301
-0.086862 0.023363 0.629000 13281107
-0.086586 0.026871 0.627000 11639122
-0.086171 0.030309 0.624000 11442289
-0.085481 0.033603 0.619000 12167353
-0.085343 0.037080 0.618000 14010584
-0.085067 0.040480 0.616000 12957899
-0.084652 0.043786 0.613000 13880536
-0.084100 0.046980 0.609000 13945557
-0.083824 0.050294 0.607000 14077398
-0.083410 0.053497 0.604000 13741200
-0.082995 0.056666 0.601000 8065569
-0.082719 0.059900 0.599000 12420639
-0.082305 0.063006 0.596000 11049037
-0.082029 0.066189 0.594000 10458004
-0.081890 0.069466 0.593000 11048847
-0.082029 0.072977 0.594000 11242628
-0.082443 0.076757 0.597000 10123889
-0.083133 0.080840 0.602000 10518648
-0.083962 0.085120 0.608000 11110525
-0.084376 0.089031 0.611000 10848121
-0.084790 0.092977 0.614000 10912129
-0.085343 0.097114 0.618000 11438462
-0.086209 0.019894 0.633000 8940178
-0.085664 0.023363 0.629000 12558190
-0.085391 0.026871 0.627000 11771507
-0.085119 0.030357 0.625000 11175800
-0.084302 0.033603 0.619000 12362423
-0.084166 0.037080 0.618000 13352137
-0.083893 0.040480 0.616000 13090519
-0.083485 0.043786 0.613000 13880017
-0.082940 0.046980 0.609000 14011352
-0.082668 0.050294 0.607000 13880538
-0.082395 0.053586 0.605000 11699548
-0.081850 0.056666 0.601000 8601152
-0.081578 0.059900 0.599000 11236130
-0.081170 0.063006 0.596000 11639885
-0.080897 0.066189 0.594000 11248026
-0.080761 0.069466 0.593000 11639188
-0.080897 0.072977 0.594000 12096642
-0.081306 0.076757 0.597000 11504776
-0.082123 0.080974 0.603000 11568761
-0.082804 0.085120 0.608000 12097931
-0.083212 0.089031 0.611000 12032137
-0.083757 0.093129 0.615000 11833733
-0.084438 0.097429 0.620000 11897472
-0.085003 0.019894 0.633000 9011608
-0.084466 0.023363 0.629000 11772564
-0.084197 0.026871 0.627000 11903631
-0.083929 0.030357 0.625000 10842754
-0.083123 0.033603 0.619000 12495535
-0.082989 0.037080 0.618000 12759235
-0.082720 0.040480 0.616000 13221843
-0.082317 0.043786 0.613000 13945044
-0.081780 0.046980 0.609000 14076887
-0.081511 0.050294 0.607000 13684682
-0.081377 0.053674 0.606000 9596497
-0.080706 0.056666 0.601000 9200710
-0.080437 0.059900 0.599000 10054955
-0.080034 0.063006 0.596000 12228943
-0.079766 0.066189 0.594000 11969180
-0.079631 0.069466 0.593000 12295838
-0.079900 0.073100 0.595000 12886163
-0.080303 0.076886 0.598000 12885653
-0.081243 0.081243 0.605000 12621704
-0.081646 0.085120 0.608000 13082766
-0.082183 0.089177 0.612000 13148298
-0.082586 0.093129 0.615000 12820616
-0.083135 0.023326 0.628000 12036794
-0.083003 0.026871 0.627000 11838379
-0.082738 0.030357 0.625000 10320012
-0.081944 0.033603 0.619000 12628904
-0.081811 0.037080 0.618000 12562620
-0.081547 0.040480 0.616000 13549520
-0.081150 0.043786 0.613000 14010582
-0.080620 0.046980 0.609000 14010839
-0.080355 0.050294 0.607000 13547193
-0.080223 0.053674 0.606000 9658183
-0.079561 0.056666 0.601000 9529164
-0.079296 0.059900 0.599000 10248501
-0.078899 0.063006 0.596000 12164945
-0.078634 0.066189 0.594000 11836318
-0.078634 0.069583 0.594000 12230823
-0.079031 0.073346 0.597000 13349285
-0.079429 0.077143 0.600000 13216417
-0.080223 0.081377 0.606000 12821654
-0.080885 0.085540 0.611000 13148304
-0.081017 0.089177 0.612000 13083020
-0.081414 0.093129 0.615000 12885642
-0.081809 0.023289 0.627000 12235192
-0.081678 0.026829 0.626000 11707309
-0.081548 0.030357 0.625000 9795989
-0.080765 0.033603 0.619000 12691108
-0.080634 0.037080 0.618000 12432324
-0.080373 0.040480 0.616000 13877970
-0.080112 0.043857 0.614000 14075864
-0.079460 0.046980 0.609000 13879256
-0.079199 0.050294 0.607000 13416107
-0.078938 0.053586 0.605000 9663315
-0.078416 0.056666 0.601000 9857615
-0.078155 0.059900 0.599000 10382646
-0.077764 0.063006 0.596000 12171141
-0.077503 0.066189 0.594000 11706281
-0.077633 0.069700 0.595000 12229028
-0.077894 0.073346 0.597000 13741210
-0.078286 0.077143 0.600000 13479831
-0.079199 0.081511 0.607000 12953497
-0.079721 0.085540 0.611000 13279641
-0.079982 0.089323 0.613000 12952216
-0.080243 0.093129 0.615000 13016467
-0.080614 0.023289 0.627000 12167862
-0.080486 0.026829 0.626000 11771054
-0.080229 0.030309 0.624000 10059678
-0.079586 0.033603 0.619000 12494497
-0.079457 0.037080 0.618000 12498379
-0.079200 0.040480 0.616000 14077397
-0.078943 0.043857 0.614000 14076633
-0.078300 0.046980 0.609000 13944536
-0.078043 0.050294 0.607000 13546653
-0.077786 0.053586 0.605000 11437408
-0.077271 0.056666 0.601000 10580562
-0.077014 0.059900 0.599000 10516536
-0.076757 0.063111 0.597000 12696249
-0.076371 0.066189 0.594000 11641525
-0.076629 0.069817 0.596000 11835041
-0.076886 0.073469 0.598000 12951184
-0.077271 0.077271 0.601000 12425869
-0.078171 0.081646 0.608000 12757403
-0.078557 0.085540 0.611000 13018273
-0.078814 0.089323 0.613000 13084581
-0.079457 0.093583 0.618000 13215388
-0.079293 0.026829 0.626000 11837626
-0.078913 0.030260 0.623000 10390411
-0.078280 0.033549 0.618000 12230554
-0.078153 0.037020 0.617000 12629201
-0.078153 0.040546 0.617000 14207447
-0.077773 0.043857 0.614000 14077403
-0.077140 0.046980 0.609000 14012131
-0.076887 0.050294 0.607000 13676720
-0.076633 0.053586 0.605000 13212493
-0.076127 0.056666 0.601000 11302980
-0.075873 0.059900 0.599000 10584653
-0.075620 0.063111 0.597000 13227215
-0.075367 0.066300 0.595000 11510710
-0.075620 0.069934 0.597000 11443099
-0.075873 0.073591 0.599000 12095878
-0.076380 0.077529 0.603000 11436416
-0.077013 0.081646 0.608000 12490371
-0.077140 0.085260 0.609000 12755853
-0.077647 0.089323 0.613000 13214352
-0.078533 0.093886 0.620000 13479308
-0.077727 0.030260 0.623000 11047031
-0.077103 0.033549 0.618000 12295571
-0.077103 0.037080 0.618000 13222358
-0.076978 0.040546 0.617000 14405080
-0.076604 0.043857 0.614000 14142684
-0.076230 0.047134 0.611000 14471661
-0.075730 0.050294 0.607000 12754627
-0.075481 0.053586 0.605000 13085499
-0.074982 0.056666 0.601000 11700790
-0.074732 0.059900 0.599000 11831906
-0.074483 0.063111 0.597000 13684709
-0.074358 0.066411 0.596000 11640759
-0.074608 0.070051 0.598000 11967380
-0.074857 0.073714 0.600000 11240828
-0.075356 0.077657 0.604000 11371378
-0.075855 0.081646 0.608000 11764075
-0.076230 0.085540 0.611000 12030329
-0.076604 0.089469 0.614000 12356219
-0.077602 0.094189 0.622000 12491131
-0.076540 0.030260 0.623000 11700867
-0.075926 0.033549 0.618000 12301489
-0.075926 0.037080 0.618000 13751775
-0.075680 0.040480 0.616000 14601947
-0.075434 0.043857 0.614000 14273739
-0.075066 0.047134 0.611000 14865891
-0.074574 0.050294 0.607000 11828926
-0.074329 0.053586 0.605000 12884568
-0.073837 0.056666 0.601000 12161338
-0.073591 0.059900 0.599000 13086352
-0.073346 0.063111 0.597000 14142946
-0.073223 0.066411 0.596000 11773109
-0.073591 0.070169 0.599000 12428182
-0.073837 0.073837 0.601000 10323321
-0.074206 0.077657 0.604000 11306595
-0.074820 0.081780 0.609000 11043436
-0.075311 0.085820 0.613000 11373164
-0.075926 0.090051 0.618000 11438969
-0.076417 0.094189 0.622000 11570298
-0.074749 0.033549 0.618000 13159888
-0.074749 0.037080 0.618000 14144232
-0.074507 0.040480 0.616000 14274014
-0.074265 0.043857 0.614000 13153722
-0.073902 0.047134 0.611000 13553881
-0.073418 0.050294 0.607000 11835832
-0.073176 0.053586 0.605000 11634292
-0.072692 0.056666 0.601000 11373118
-0.072330 0.059800 0.598000 13221822
-0.072209 0.063111 0.597000 13682399
-0.072209 0.066523 0.597000 11901876
-0.072450 0.070169 0.599000 12559256
-0.072692 0.073837 0.601000 9992054
-0.073055 0.077657 0.604000 10122324
-0.073902 0.082049 0.611000 10320749
-0.074265 0.085960 0.614000 10386527
-0.074990 0.090343 0.620000 10978424
-0.075474 0.094491 0.624000 11175545
-0.073690 0.033603 0.619000 13943753
-0.073571 0.037080 0.618000 14537950
-0.073333 0.040480 0.616000 13876928
-0.073095 0.043857 0.614000 12030601
-0.072738 0.047134 0.611000 12166572
-0.072262 0.050294 0.607000 11838396
-0.072024 0.053586 0.605000 10391955
-0.071548 0.056666 0.601000 10650482
-0.071190 0.059800 0.598000 13284534
-0.071071 0.063111 0.597000 13223119
-0.071190 0.066634 0.598000 12034217
-0.071429 0.070286 0.600000 12692115
-0.071548 0.073837 0.601000 9598321
-0.072143 0.077914 0.606000 9004126
-0.072976 0.082317 0.613000 9598572
-0.073214 0.086100 0.615000 9467232
-0.074048 0.090634 0.622000 10450538
-0.072394 0.037080 0.618000 13616596
-0.072160 0.040480 0.616000 12824227
-0.071926 0.043857 0.614000 10977368
-0.071574 0.047134 0.611000 11432319
-0.071106 0.050294 0.607000 11904703
-0.070754 0.053497 0.604000 10852787
-0.070403 0.056666 0.601000 11048614
-0.070051 0.059800 0.598000 12561581
-0.069934 0.063111 0.597000 12497086
-0.070051 0.066634 0.598000 12165535
-0.070403 0.070403 0.601000 12033421
-0.070637 0.074083 0.603000 9597548
-0.071340 0.078300 0.609000 9400167
-0.071926 0.082451 0.614000 9531499
-0.072394 0.086520 0.618000 9070433
-0.072863 0.090634 0.622000 9657693
-0.071217 0.037080 0.618000 12696242
-0.070987 0.040480 0.616000 11706737
-0.070641 0.043786 0.613000 9929309
-0.070180 0.046980 0.609000 10654103
-0.069950 0.050294 0.607000 11970496
-0.069604 0.053497 0.604000 11312310
-0.069258 0.056666 0.601000 11509158
-0.069028 0.059900 0.599000 11839142
-0.068797 0.063111 0.597000 11774124
-0.068912 0.066634 0.598000 12296097
-0.069258 0.070403 0.601000 11443326
-0.069604 0.074206 0.604000 9596516
-0.070526 0.078686 0.612000 9794917
-0.070871 0.082586 0.615000 9400422
-0.071332 0.086660 0.619000 8676181
-0.071793 0.090780 0.623000 8808802
-0.070040 0.037080 0.618000 12691344
-0.069813 0.040480 0.616000 11901759
-0.069473 0.043786 0.613000 10587745
-0.069020 0.046980 0.609000 11642286
-0.068793 0.050294 0.607000 12036800
-0.068567 0.053586 0.605000 11507897
-0.068227 0.056760 0.602000 11311781
-0.068000 0.060000 0.600000 11772062
-0.067660 0.063111 0.597000 11442330
-0.067887 0.066746 0.599000 12690595
-0.068227 0.070520 0.602000 11308143
-0.068680 0.074451 0.606000 9463387
-0.069473 0.078814 0.613000 9729379
-0.069700 0.082586 0.615000 9269602
-0.070153 0.086660 0.619000 8545609
-0.070607 0.090780 0.623000 9336423
-0.068306 0.043786 0.613000 11245159
-0.067860 0.046980 0.609000 12561592
-0.067637 0.050294 0.607000 12167873
-0.067414 0.053586 0.605000 11641020
-0.067080 0.056760 0.602000 11179423
-0.066857 0.060000 0.600000 11705758
-0.066523 0.063111 0.597000 11178405
-0.066857 0.066857 0.600000 13083809
-0.067414 0.070871 0.605000 11172974
-0.068083 0.075066 0.611000 9333858
-0.068306 0.078814 0.613000 9598819
-0.068529 0.082586 0.615000 9072737
-0.069309 0.087080 0.622000 8480338
-0.069531 0.090926 0.624000 9795943
-0.067138 0.043786 0.613000 11310700
-0.066700 0.046980 0.609000 12629187
-0.066481 0.050294 0.607000 12299202
-0.066262 0.053586 0.605000 12035520
-0.065824 0.056666 0.601000 11047577
-0.065714 0.060000 0.600000 11574686
-0.065495 0.063217 0.598000 11574192
-0.065714 0.066857 0.600000 13149600
-0.066481 0.071106 0.607000 10582893
-0.067029 0.075189 0.612000 9005416
-0.067248 0.078943 0.614000 9729635
-0.067467 0.082720 0.616000 9073504
-0.068124 0.087080 0.622000 8676955
-0.068343 0.090926 0.624000 10126184
-0.065432 0.046903 0.608000 12693693
-0.065325 0.050294 0.607000 12430274
-0.065110 0.053586 0.605000 12431305
-0.064679 0.056666 0.601000 10916497
-0.064571 0.060000 0.600000 11443891
-0.064464 0.063323 0.599000 12034994
-0.064679 0.066969 0.601000 13215385
-0.065325 0.071106 0.607000 9990755
-0.065863 0.075189 0.612000 8679267
-0.066078 0.078943 0.614000 9860196
-0.066401 0.082854 0.617000 9006427
-0.067047 0.087220 0.623000 8873311
-0.067262 0.091071 0.625000 10386022
-0.064274 0.046903 0.608000 12432568
-0.064063 0.050211 0.606000 12497602
-0.063957 0.053586 0.605000 12761809
-0.063640 0.056760 0.602000 10521992
-0.063429 0.060000 0.600000 12428232
-0.063323 0.063323 0.599000 12231603
-0.063534 0.066969 0.601000 13148562
-0.064274 0.071223 0.608000 9794137
-0.064697 0.075189 0.612000 9138525
-0.064909 0.078943 0.614000 9664100
-0.065437 0.083123 0.619000 8676694
-0.065860 0.087220 0.623000 9071458
-0.062909 0.050211 0.606000 12627893
-0.062805 0.053586 0.605000 13090775
-0.062493 0.056760 0.602000 10188685
-0.062390 0.060100 0.601000 13347007
-0.062286 0.063429 0.600000 12495022
-0.062701 0.067303 0.604000 13080454
-0.063116 0.071223 0.608000 9599585
-0.063635 0.075311 0.613000 9532263
-0.063739 0.078943 0.614000 9467747
-0.064258 0.083123 0.619000 8283993
-0.064673 0.087220 0.623000 9268582
-0.061754 0.050211 0.606000 12364199
-0.061652 0.053586 0.605000 13289693
-0.061347 0.056760 0.602000 11047569
-0.061245 0.060100 0.601000 12427190
-0.061245 0.063534 0.601000 12560040
-0.061652 0.067414 0.605000 11898234
-0.062060 0.071340 0.609000 9335401
-0.062468 0.075311 0.613000 9861233
-0.062671 0.079071 0.615000 9401698
-0.063589 0.083794 0.624000 8480349
-0.063792 0.087640 0.626000 9400937
-0.060600 0.050211 0.606000 12164015
-0.060500 0.053586 0.605000 13417681
-0.060100 0.056666 0.601000 11901869
-0.060100 0.060100 0.601000 11443119
-0.060200 0.063640 0.602000 12691367
-0.060400 0.067303 0.604000 10651255
-0.061100 0.071574 0.611000 9072494
-0.061400 0.075434 0.614000 10188655
-0.061700 0.079329 0.617000 9335653
-0.062500 0.083929 0.625000 8676958
-0.062700 0.087780 0.627000 9597033
-0.059348 0.053586 0.605000 12758470
-0.058955 0.056666 0.601000 11838920
-0.058955 0.060100 0.601000 10982057
-0.059151 0.063746 0.603000 12690598
-0.059348 0.067414 0.605000 10055795
-0.060034 0.071691 0.612000 9137011
-0.060427 0.075680 0.616000 9861230
-0.060623 0.079457 0.618000 9269351
-0.061408 0.084063 0.626000 8873056
-0.061702 0.088060 0.629000 9795689
-0.057810 0.056666 0.601000 11841473
-0.057810 0.060100 0.601000 10522009
-0.058195 0.063957 0.605000 12689314
-0.058291 0.067526 0.606000 9468538
-0.058965 0.071809 0.613000 9199983
-0.059253 0.075680 0.616000 9532521
-0.059446 0.079457 0.618000 9202784
-0.060215 0.084063 0.626000 9004118
-0.060504 0.088060 0.629000 9994344
-0.056666 0.056666 0.601000 11904442
-0.056666 0.060100 0.601000 11176585
-0.057043 0.063957 0.605000 12952734
-0.057137 0.067526 0.606000 10713473
-0.057891 0.071926 0.614000 10318443
-0.058174 0.075803 0.617000 10121060
-0.058646 0.079971 0.622000 9070168
-0.059117 0.084197 0.627000 8740173
-0.056722 0.071926 0.614000 11440024
-0.056999 0.075803 0.617000 10653329
-0.057461 0.079971 0.622000 8939656
-0.057923 0.084197 0.627000 8482427
-0.055552 0.071926 0.614000 12693445
-0.055733 0.075680 0.616000 12301247
-0.054383 0.071926 0.614000 13940927
-0.054649 0.075803 0.617000 13940923
-0.053473 0.075803 0.617000 13742519
-0.207774 0.064679 0.601000 11112587
-0.206630 0.064679 0.601000 10387848
-0.205598 0.067773 0.598000 11506312
-0.204910 0.070952 0.596000 11309192
-0.205485 0.061245 0.601000 11575229
-0.205143 0.064571 0.600000 9855621
-0.204459 0.067773 0.598000 10255243
-0.203775 0.070952 0.596000 10915465
-0.202750 0.073984 0.593000 11177598
-0.204340 0.061245 0.601000 12368582
-0.203660 0.064464 0.599000 9275552
-0.202980 0.067660 0.597000 9071762
-0.202300 0.070833 0.595000 10518147
-0.201620 0.073984 0.593000 11178117
-0.201280 0.077242 0.592000 10914173
-0.202857 0.061143 0.600000 12499150
-0.202519 0.064464 0.599000 10921403
-0.201843 0.067660 0.597000 10191768
-0.200829 0.070714 0.594000 10053501
-0.200490 0.073984 0.593000 10584459
-0.200152 0.077242 0.592000 10848636
-0.201714 0.061143 0.600000 12693926
-0.201378 0.064464 0.599000 12561849
-0.200706 0.067660 0.597000 11312822
-0.199697 0.070714 0.594000 9605022
-0.199361 0.073984 0.593000 10057353
-0.198352 0.076981 0.590000 10778742
-0.200906 0.057810 0.601000 12954265
-0.200571 0.061143 0.600000 13153405
-0.200237 0.064464 0.599000 12431286
-0.199234 0.067547 0.596000 12433619
-0.198231 0.070595 0.593000 11252672
-0.197897 0.073859 0.592000 9601927
-0.197229 0.076981 0.590000 9260401
-0.196226 0.079944 0.587000 10388337
-0.199761 0.057810 0.601000 13744810
-0.199429 0.061143 0.600000 13612629
-0.199096 0.064464 0.599000 12300719
-0.198099 0.067547 0.596000 13551321
-0.197102 0.070595 0.593000 12893125
-0.196437 0.073734 0.591000 9212007
-0.195440 0.076720 0.588000 7758190
-0.195108 0.079944 0.587000 9863285
-0.198616 0.057810 0.601000 13881531
-0.198286 0.061143 0.600000 13942829
-0.197625 0.064356 0.598000 12233384
-0.196303 0.067320 0.594000 13157087
-0.195972 0.070595 0.593000 12632267
-0.195311 0.073734 0.591000 7954503
-0.194320 0.076720 0.588000 9403754
-0.193990 0.079944 0.587000 9468792
-0.193990 0.083298 0.587000 9663860
-0.197800 0.057907 0.602000 13942969
-0.197471 0.061245 0.601000 14337393
-0.196814 0.064464 0.599000 12169398
-0.195829 0.067547 0.596000 12763090
-0.194843 0.070595 0.593000 12364979
-0.194186 0.073734 0.591000 6630718
-0.193200 0.076720 0.588000 10981002
-0.192543 0.079808 0.586000 9078413
-0.192543 0.083156 0.586000 8675156
-0.197307 0.058099 0.604000 12168376
-0.196327 0.061245 0.601000 13615028
-0.195673 0.064464 0.599000 12365507
-0.194693 0.067547 0.596000 12629188
-0.193713 0.070595 0.593000 11050652
-0.193060 0.073734 0.591000 7428149
-0.191753 0.076590 0.587000 11445161
-0.191100 0.079671 0.585000 7497889
-0.191100 0.083014 0.585000 5978676
-0.189793 0.085767 0.581000 7824727
-0.189793 0.089087 0.581000 9664875
-0.196156 0.058099 0.604000 10329249
-0.195507 0.061347 0.602000 12954525
-0.194532 0.064464 0.599000 12498376
-0.192909 0.067320 0.594000 12496838
-0.192584 0.070595 0.593000 9732753
-0.191934 0.073734 0.591000 8217946
-0.190310 0.076459 0.586000 11838124
-0.189986 0.079671 0.585000 5913980
-0.189336 0.082730 0.583000 3288123
-0.188687 0.085767 0.581000 5588546
-0.188037 0.088780 0.579000 9595222
-0.195006 0.058099 0.604000 10191754
-0.194360 0.061347 0.602000 12098438
-0.193391 0.064464 0.599000 12563405
-0.191777 0.067320 0.594000 12168904
-0.191454 0.070595 0.593000 9003655
-0.190809 0.073734 0.591000 9208959
-0.189194 0.076459 0.586000 11380398
-0.188871 0.079671 0.585000 5651287
-0.188226 0.082730 0.583000 3483458
-0.187257 0.085619 0.580000 4141612
-0.186934 0.088780 0.579000 5982273
-0.194176 0.054738 0.605000 11836568
-0.193855 0.058099 0.604000 9996688
-0.193213 0.061347 0.602000 11248017
-0.192250 0.064464 0.599000 12630224
-0.190646 0.067320 0.594000 11842506
-0.190325 0.070595 0.593000 8221836
-0.189683 0.073734 0.591000 10199445
-0.188399 0.076590 0.587000 10915475
-0.187757 0.079671 0.585000 5388153
-0.186794 0.082589 0.582000 3614785
-0.186473 0.085767 0.581000 2698294
-0.185831 0.088780 0.579000 2301990
-0.193024 0.054738 0.605000 11441042
-0.192705 0.058099 0.604000 9995671
-0.191748 0.061245 0.601000 11445403
-0.191110 0.064464 0.599000 12696275
-0.189514 0.067320 0.594000 11775435
-0.189195 0.070595 0.593000 8484241
-0.188557 0.073734 0.591000 10395819
-0.187600 0.076720 0.588000 10118775
-0.186643 0.079671 0.585000 7104154
-0.185686 0.082589 0.582000 3155265
-0.185048 0.085619 0.580000 2826815
-0.184729 0.088780 0.579000 2294794
-0.184090 0.091770 0.577000 7226939
-0.191871 0.054738 0.605000 11114150
-0.191554 0.058099 0.604000 9930410
-0.190603 0.061245 0.601000 11642551
-0.189969 0.064464 0.599000 12762064
-0.188383 0.067320 0.594000 11710391
-0.188066 0.070595 0.593000 8682126
-0.187431 0.073734 0.591000 10659490
-0.186163 0.076590 0.587000 9338233
-0.185211 0.079535 0.584000 8884377
-0.184577 0.082589 0.582000 2632775
-0.183943 0.085619 0.580000 2957101
-0.183309 0.088627 0.578000 2235173
-0.182991 0.091770 0.577000 7299700
-0.182040 0.094573 0.574000 8484732
-0.182040 0.097853 0.574000 8019823
-0.193241 0.051959 0.613000 11900054
