# .PCD v.7 - Point Cloud Data file format
VERSION .7
FIELDS x y z rgb
SIZE 4 4 4 4
TYPE F F F I
COUNT 1 1 1 1
WIDTH 1304
HEIGHT 1
POINTS 1304
DATA ascii
-0.168071 0.043957 0.543000 7496856
-0.167452 0.046887 0.541000 3044518
-0.165905 0.049516 0.536000 4095958
-0.164667 0.052187 0.532000 12572294
-0.163738 0.054915 0.529000 15388624
-0.162810 0.057610 0.526000 10057860
-0.160952 0.059924 0.520000 11375770
-0.160643 0.062774 0.519000 10320265
-0.159095 0.065107 0.514000 13083809
-0.158476 0.067779 0.512000 10639965
-0.159095 0.070981 0.514000 11832717
-0.159714 0.074206 0.516000 13747659
-0.160024 0.077304 0.517000 12359347
-0.160643 0.080569 0.519000 14735812
-0.160952 0.083695 0.520000 14404311
-0.158786 0.085500 0.513000 14996958
-0.159405 0.088776 0.515000 14535644
-0.160024 0.092075 0.517000 14470347
-0.160024 0.095030 0.517000 14074314
-0.160333 0.098173 0.518000 15124185
-0.160333 0.101133 0.518000 13546944
-0.160024 0.103892 0.517000 11439002
-0.159714 0.106640 0.516000 9859433
-0.161262 0.110650 0.521000 14601884
-0.184264 0.007416 0.599000 13606470
-0.183033 0.010767 0.595000 13147979
-0.181188 0.014024 0.589000 12101549
-0.180265 0.017301 0.586000 13745608
-0.179342 0.020544 0.583000 11967650
-0.177189 0.023589 0.576000 12753833
-0.175650 0.026647 0.571000 14860434
-0.173805 0.029595 0.565000 15386029
-0.172574 0.032591 0.561000 15254192
-0.170729 0.035414 0.555000 14267293
-0.170421 0.038516 0.554000 14253199
-0.168268 0.041155 0.547000 10394593
-0.167037 0.043957 0.543000 5643405
-0.166422 0.046887 0.541000 4291545
-0.164884 0.049516 0.536000 4357078
-0.163653 0.052187 0.532000 12172418
-0.162730 0.054915 0.529000 15656151
-0.162115 0.057719 0.527000 11047316
-0.160270 0.060039 0.521000 11574169
-0.159962 0.062895 0.520000 12098206
-0.161192 0.066373 0.524000 14470331
-0.160885 0.069235 0.523000 10248741
-0.158424 0.071119 0.515000 11967880
-0.159039 0.074350 0.517000 13415591
-0.159039 0.077304 0.517000 12758460
-0.159654 0.080569 0.519000 14269121
-0.159962 0.083695 0.520000 14336721
-0.162115 0.087833 0.527000 14666455
-0.163653 0.091707 0.532000 14730708
-0.159654 0.092431 0.519000 14470109
-0.159347 0.095213 0.518000 13809355
-0.159347 0.098173 0.518000 14598615
-0.159347 0.101133 0.518000 13744066
-0.159039 0.103892 0.517000 12624553
-0.158731 0.106640 0.516000 11904425
-0.183123 0.007416 0.599000 14526265
-0.181594 0.010749 0.594000 13745030
-0.180066 0.014024 0.589000 12757940
-0.179149 0.017301 0.586000 13547175
-0.178231 0.020544 0.583000 10717828
-0.175786 0.023548 0.575000 11971480
-0.174257 0.026600 0.570000 14065549
-0.172729 0.029595 0.565000 15453598
-0.171506 0.032591 0.561000 15251358
-0.169671 0.035414 0.555000 12815249
-0.169060 0.038447 0.553000 13934758
-0.167226 0.041155 0.547000 7244707
-0.166003 0.043957 0.543000 3818408
-0.165391 0.046887 0.541000 5474780
-0.163863 0.049516 0.536000 4620505
-0.162640 0.052187 0.532000 11851158
-0.161417 0.054811 0.528000 15917269
-0.161111 0.057719 0.527000 12033737
-0.159277 0.060039 0.521000 11771035
-0.159277 0.063016 0.521000 13810337
-0.160194 0.066373 0.524000 15782568
-0.159889 0.069235 0.523000 9787952
-0.157443 0.071119 0.515000 12102005
-0.158054 0.074350 0.517000 13019804
-0.158054 0.077304 0.517000 13152445
-0.158971 0.080724 0.520000 13807567
-0.159583 0.084017 0.522000 14205906
-0.161111 0.087833 0.527000 14337752
-0.162029 0.091362 0.530000 14929625
-0.158666 0.092431 0.519000 14534360
-0.162640 0.097787 0.532000 13480386
-0.158360 0.098173 0.518000 14074833
-0.161417 0.103086 0.528000 13876160
-0.158054 0.103892 0.517000 13876140
-0.181982 0.007416 0.599000 13611820
-0.180463 0.010749 0.594000 13746112
-0.178944 0.014024 0.589000 12888251
-0.178032 0.017301 0.586000 12756358
-0.177121 0.020544 0.583000 9727591
-0.174690 0.023548 0.575000 11572615
-0.172868 0.026553 0.569000 13467272
-0.171652 0.029595 0.565000 13606798
-0.170437 0.032591 0.561000 13669260
-0.168614 0.035414 0.555000 13411972
-0.167703 0.038377 0.552000 10663358
-0.166184 0.041155 0.547000 5000037
-0.164969 0.043957 0.543000 4748227
-0.164361 0.046887 0.541000 5540063
-0.162842 0.049516 0.536000 4751324
-0.161930 0.052285 0.533000 11975081
-0.160715 0.054915 0.529000 15726034
-0.160108 0.057719 0.527000 13417981
-0.159804 0.060615 0.526000 11509148
-0.158285 0.063016 0.521000 14401700
-0.159804 0.066627 0.526000 16243606
-0.159196 0.069368 0.524000 13283130
-0.159500 0.072500 0.525000 14272867
-0.157070 0.074350 0.517000 13939088
-0.157981 0.080724 0.520000 13811164
-0.158892 0.084178 0.523000 14009043
-0.160108 0.087833 0.527000 14009561
-0.161019 0.091362 0.530000 14405342
-0.161019 0.094390 0.530000 14270930
-0.161323 0.097603 0.531000 13543353
-0.161019 0.100448 0.530000 13876426
-0.160411 0.103086 0.528000 13680575
-0.180539 0.007404 0.598000 12682565
-0.179030 0.010730 0.593000 13817554
-0.177822 0.014024 0.589000 13021374
-0.176916 0.017301 0.586000 11962973
-0.176010 0.020544 0.583000 8679528
-0.173293 0.023507 0.574000 11241873
-0.172086 0.026600 0.570000 12884373
-0.170576 0.029595 0.565000 11765414
-0.169369 0.032591 0.561000 12097189
-0.167557 0.035414 0.555000 13947288
-0.166651 0.038377 0.552000 7298974
-0.165142 0.041155 0.547000 2706576
-0.163632 0.043876 0.542000 5669072
-0.163029 0.046800 0.540000 5539550
-0.161821 0.049516 0.536000 4816858
-0.160915 0.052285 0.533000 12045484
-0.160010 0.055019 0.530000 15453899
-0.159104 0.057719 0.527000 14800371
-0.158802 0.060615 0.526000 11182237
-0.160010 0.064105 0.530000 14988673
-0.158802 0.066627 0.526000 16699741
-0.158802 0.069632 0.526000 16699197
-0.158802 0.072638 0.526000 16434509
-0.158802 0.075644 0.526000 14858351
-0.158802 0.084661 0.526000 13744329
-0.159104 0.087833 0.527000 13611968
-0.159708 0.091190 0.529000 13875905
-0.160010 0.094390 0.530000 14009272
-0.160010 0.097419 0.530000 13543837
-0.160613 0.100827 0.532000 13744799
-0.160010 0.103476 0.530000 13480603
-0.179400 0.007404 0.598000 10171742
-0.177900 0.010730 0.593000 14012644
-0.176700 0.014024 0.589000 13154754
-0.175800 0.017301 0.586000 11898676
-0.174600 0.020509 0.582000 7753578
-0.171900 0.023466 0.573000 10587034
-0.171300 0.026647 0.571000 11119523
-0.169500 0.029595 0.565000 11904701
-0.168600 0.032650 0.562000 10991550
-0.166500 0.035414 0.555000 7954603
-0.165600 0.038377 0.552000 5711743
-0.164100 0.041155 0.547000 4157627
-0.162600 0.043876 0.542000 5604829
-0.162000 0.046800 0.540000 5605084
-0.160800 0.049516 0.536000 5144792
-0.159900 0.052285 0.533000 11648943
-0.159000 0.055019 0.530000 14660804
-0.158100 0.057719 0.527000 14142441
-0.158700 0.060961 0.529000 12820383
-0.159000 0.064105 0.530000 15055198
-0.158100 0.066753 0.527000 15582244
-0.158100 0.069765 0.527000 15381568
-0.157800 0.072638 0.526000 15119671
-0.157500 0.075500 0.525000 14858317
-0.157800 0.084661 0.526000 13739967
-0.158100 0.087833 0.527000 13213095
-0.158700 0.091190 0.529000 13411492
-0.159000 0.094390 0.530000 13282461
-0.159600 0.097787 0.532000 13347202
-0.159600 0.100827 0.532000 14003315
-0.159600 0.103867 0.532000 13673847
-0.178261 0.007404 0.598000 7691886
-0.176770 0.010730 0.593000 14216943
-0.175280 0.014000 0.588000 13219522
-0.174684 0.017301 0.586000 11895609
-0.173491 0.020509 0.582000 6839399
-0.170809 0.023466 0.573000 9935520
-0.169318 0.026507 0.568000 9268865
-0.168424 0.029595 0.565000 12032401
-0.167231 0.032591 0.561000 9858958
-0.165443 0.035414 0.555000 1966488
-0.164847 0.038447 0.553000 4150695
-0.163356 0.041230 0.548000 5540302
-0.161866 0.043957 0.543000 5474014
-0.160971 0.046800 0.540000 5670624
-0.159779 0.049516 0.536000 5474528
-0.158885 0.052285 0.533000 11318728
-0.158289 0.055123 0.531000 13809591
-0.157096 0.057719 0.527000 13477305
-0.158587 0.061307 0.532000 14462626
-0.158289 0.064226 0.531000 15120752
-0.157096 0.066753 0.527000 14457397
-0.157096 0.069765 0.527000 14062881
-0.156798 0.072638 0.526000 13734191
-0.156500 0.075500 0.525000 14922623
-0.159183 0.082897 0.534000 14667992
-0.158587 0.085627 0.532000 13745100
-0.157394 0.088000 0.528000 12825802
-0.157990 0.091362 0.530000 12952719
-0.158289 0.094569 0.531000 12554345
-0.158587 0.097787 0.532000 13144918
-0.158587 0.100827 0.532000 14262616
-0.158289 0.103671 0.531000 13806427
-0.177122 0.007404 0.598000 8605822
-0.175641 0.010730 0.593000 14607609
-0.174456 0.014024 0.589000 13681346
-0.173568 0.017301 0.586000 11305790
-0.171790 0.020438 0.580000 7027556
-0.170013 0.023507 0.574000 10129573
-0.169125 0.026647 0.571000 9114208
-0.167348 0.029595 0.565000 8865636
-0.166163 0.032591 0.561000 6095198
-0.164386 0.035414 0.555000 3819653
-0.163497 0.038377 0.552000 4882384
-0.162312 0.041230 0.548000 5540064
-0.160831 0.043957 0.543000 5604831
-0.160535 0.046973 0.542000 5736419
-0.159054 0.049609 0.537000 5739240
-0.159054 0.052677 0.537000 8164064
-0.160535 0.056265 0.542000 11052971
-0.157277 0.058157 0.531000 13280393
-0.157573 0.061307 0.532000 13739685
-0.157573 0.064347 0.532000 13541762
-0.156981 0.067133 0.530000 13194053
-0.158462 0.070824 0.535000 13007105
-0.158758 0.074019 0.536000 13327143
-0.158462 0.076938 0.535000 14925233
-0.158166 0.082897 0.534000 14601445
-0.157573 0.085627 0.532000 14010329
-0.156981 0.088333 0.530000 14271468
-0.157277 0.091534 0.531000 13214074
-0.157573 0.094747 0.532000 12023861
-0.157573 0.097787 0.532000 12609834
-0.157277 0.100637 0.531000 13735228
-0.157573 0.103867 0.532000 14858816
-0.175689 0.007391 0.597000 9466242
-0.174511 0.010730 0.593000 15071227
-0.173334 0.014024 0.589000 14073538
-0.172451 0.017301 0.586000 10711614
-0.170686 0.020438 0.580000 7235171
-0.168920 0.023507 0.574000 10327424
-0.168037 0.026647 0.571000 9004393
-0.166271 0.029595 0.565000 5734523
-0.165094 0.032591 0.561000 2380180
-0.163329 0.035414 0.555000 5666224
-0.162740 0.038447 0.553000 5539030
-0.160974 0.041155 0.547000 5474016
-0.159797 0.043957 0.543000 5670882
-0.159503 0.046973 0.542000 5868011
-0.158326 0.049701 0.538000 6000868
-0.158326 0.052775 0.538000 5078477
-0.159209 0.056161 0.541000 8220584
-0.158914 0.059143 0.540000 13149846
-0.156560 0.061307 0.532000 13014690
-0.157443 0.064710 0.535000 11964801
-0.157737 0.067893 0.536000 11962484
-0.157737 0.070956 0.536000 11960144
-0.158326 0.074295 0.538000 12883048
-0.157737 0.077082 0.536000 14992042
-0.157737 0.080145 0.536000 14664128
-0.157443 0.083052 0.535000 14597318
-0.156560 0.085627 0.532000 14269625
-0.155971 0.088333 0.530000 15712707
-0.156560 0.091707 0.532000 13410945
-0.156560 0.094747 0.532000 11498051
-0.156854 0.097970 0.533000 12089917
-0.156560 0.100827 0.532000 13208115
-0.174551 0.007391 0.597000 9922438
-0.173382 0.010730 0.593000 15265021
-0.172212 0.014024 0.589000 13554114
-0.171628 0.017330 0.587000 10122814
-0.168996 0.020368 0.578000 8219746
-0.167534 0.023466 0.573000 9141594
-0.166657 0.026600 0.570000 9275506
-0.165195 0.029595 0.565000 8757394
-0.164026 0.032591 0.561000 3768523
-0.162564 0.035478 0.556000 5669595
-0.161687 0.038447 0.553000 5539548
-0.159932 0.041155 0.547000 5539808
-0.158763 0.043957 0.543000 5802213
-0.158470 0.046973 0.542000 6000370
-0.157593 0.049793 0.539000 6064608
-0.157301 0.052775 0.538000 5598905
-0.158178 0.056161 0.541000 6834853
-0.157886 0.059143 0.540000 8809890
-0.157886 0.062229 0.540000 10187424
-0.157009 0.064951 0.537000 12423296
-0.157301 0.068147 0.538000 12429987
-0.156716 0.070956 0.536000 13410462
-0.156716 0.074019 0.536000 14070698
-0.158470 0.077945 0.542000 15251107
-0.156424 0.079995 0.535000 14069407
-0.156424 0.083052 0.535000 15187366
-0.155547 0.085627 0.532000 15183257
-0.154962 0.088333 0.530000 14854297
-0.155547 0.091707 0.532000 13870216
-0.155839 0.094925 0.533000 11695952
-0.156131 0.098154 0.534000 12222544
-0.155547 0.100827 0.532000 13206570
-0.173705 0.007404 0.598000 10388371
-0.171962 0.010712 0.592000 15464446
-0.171090 0.014024 0.589000 13018536
-0.170510 0.017330 0.587000 9600075
-0.167314 0.020297 0.576000 9139815
-0.166443 0.023466 0.573000 8026466
-0.165862 0.026647 0.571000 9535859
-0.164119 0.029595 0.565000 11846300
-0.162957 0.032591 0.561000 5079763
-0.161505 0.035478 0.556000 5605339
-0.160633 0.038447 0.553000 5539550
-0.159471 0.041306 0.549000 5605604
-0.158310 0.044119 0.545000 5934054
-0.157438 0.046973 0.542000 6131942
-0.156857 0.049886 0.540000 6127313
-0.156857 0.052971 0.540000 6186163
-0.157438 0.056265 0.542000 5462955
-0.157438 0.059362 0.542000 4477861
-0.157438 0.062459 0.542000 7299496
-0.156567 0.065193 0.539000 12882337
-0.156567 0.068273 0.539000 12889767
-0.155695 0.070956 0.536000 14855849
-0.157438 0.074848 0.542000 15254193
-0.157438 0.077945 0.542000 15577769
-0.155405 0.079995 0.535000 13474974
-0.155405 0.083052 0.535000 15777400
-0.154533 0.085627 0.532000 16105638
-0.153952 0.088333 0.530000 14064797
-0.154533 0.091707 0.532000 14331798
-0.155114 0.095103 0.534000 11826250
-0.155114 0.098154 0.534000 12289345
-0.154533 0.100827 0.532000 13206585
-0.172277 0.007391 0.597000 10515617
-0.171123 0.010730 0.593000 15725310
-0.169969 0.014024 0.589000 11238287
-0.169391 0.017330 0.587000 9533016
-0.166506 0.020332 0.577000 9667692
-0.165351 0.023466 0.573000 8088426
-0.164774 0.026647 0.571000 8745076
-0.163043 0.029595 0.565000 11778725
-0.161889 0.032591 0.561000 5080284
-0.160446 0.035478 0.556000 5671130
-0.159580 0.038447 0.553000 5670624
-0.158426 0.041306 0.549000 5802727
-0.157271 0.044119 0.545000 6263270
-0.156694 0.047060 0.543000 6194905
-0.156406 0.050070 0.542000 5990851
-0.156406 0.053168 0.542000 6186157
-0.156406 0.056265 0.542000 5530290
-0.156406 0.059362 0.542000 5066407
-0.156406 0.062459 0.542000 9655473
-0.155829 0.065314 0.540000 13543362
-0.155829 0.068400 0.540000 13938603
-0.154963 0.071089 0.537000 15647155
-0.156694 0.074986 0.543000 15982777
-0.156694 0.078089 0.543000 15646382
-0.154386 0.079995 0.535000 13329565
-0.158137 0.085070 0.548000 14581833
-0.157849 0.088041 0.547000 16239538
-0.157849 0.091167 0.547000 14460065
-0.157560 0.094120 0.546000 14469797
-0.154097 0.098154 0.534000 13078322
-0.153809 0.101016 0.533000 13671240
-0.171140 0.007391 0.597000 10586026
-0.170280 0.010749 0.594000 15924222
-0.168847 0.014024 0.589000 9469587
-0.168273 0.017330 0.587000 9468766
-0.165407 0.020332 0.577000 10190952
-0.164260 0.023466 0.573000 8215136
-0.163687 0.026647 0.571000 7961741
-0.161967 0.029595 0.565000 11716001
-0.160533 0.032533 0.560000 5079771
-0.159387 0.035478 0.556000 5802204
-0.158813 0.038516 0.554000 5802210
-0.157667 0.041381 0.550000 6065901
-0.156520 0.044200 0.546000 6589921
-0.155947 0.047147 0.544000 6193355
-0.155373 0.050070 0.542000 5859258
-0.155373 0.053168 0.542000 6251441
-0.155373 0.056265 0.542000 5591466
-0.155373 0.059362 0.542000 5719989
-0.155660 0.062574 0.543000 12030897
-0.155087 0.065435 0.541000 14269616
-0.155087 0.068527 0.541000 14924464
-0.153940 0.071089 0.537000 16439990
-0.155947 0.075124 0.544000 16632751
-0.155947 0.078232 0.544000 15780015
-0.153367 0.079995 0.535000 13145244
-0.157093 0.085070 0.548000 13410182
-0.156807 0.088041 0.547000 16369328
-0.156807 0.091167 0.547000 14855843
-0.156520 0.094120 0.546000 14593436
-0.153080 0.098154 0.534000 13801562
-0.152793 0.101016 0.533000 14199421
-0.170003 0.007391 0.597000 10052020
-0.169149 0.010749 0.594000 15527934
-0.168010 0.014048 0.590000 9793688
-0.167155 0.017330 0.587000 9403491
-0.166016 0.020544 0.583000 9076580
-0.163169 0.023466 0.573000 9204565
-0.162314 0.026600 0.570000 9072806
-0.160890 0.029595 0.565000 11975837
-0.159467 0.032533 0.560000 4947931
-0.158328 0.035478 0.556000 5867742
-0.157758 0.038516 0.554000 6065124
-0.156904 0.041456 0.551000 6197491
-0.155765 0.044281 0.547000 6390493
-0.154910 0.047147 0.544000 6123453
-0.158043 0.051271 0.555000 6121138
-0.154341 0.053168 0.542000 5660084
-0.154341 0.056265 0.542000 7025058
-0.154341 0.059362 0.542000 9866946
-0.156050 0.063150 0.548000 13746354
-0.154626 0.065677 0.543000 14791069
-0.154626 0.068780 0.543000 15650742
-0.155480 0.072280 0.546000 16371896
-0.155195 0.075262 0.545000 14789542
-0.155195 0.078376 0.545000 14857136
-0.156050 0.081939 0.548000 14132123
-0.156050 0.085070 0.548000 14727106
-0.155765 0.088041 0.547000 16303789
-0.155765 0.091167 0.547000 14788773
-0.169149 0.007404 0.598000 9534135
-0.168017 0.010749 0.594000 15071994
-0.166886 0.014048 0.590000 10060441
-0.165754 0.017301 0.586000 9404520
-0.164623 0.020509 0.582000 7892832
-0.162077 0.023466 0.573000 10189682
-0.161229 0.026600 0.570000 10130103
-0.159814 0.029595 0.565000 12242075
-0.158400 0.032533 0.560000 4752344
-0.157269 0.035478 0.556000 5933793
-0.156703 0.038516 0.554000 6262758
-0.156420 0.041607 0.553000 6329313
-0.155571 0.044524 0.550000 6190794
-0.156703 0.048013 0.554000 6121144
-0.156703 0.051179 0.554000 6317232
-0.156137 0.054149 0.552000 5132711
-0.156137 0.057303 0.552000 8418736
-0.155006 0.063150 0.548000 15382962
-0.155571 0.066524 0.550000 15309475
-0.153591 0.068780 0.543000 16303272
-0.154723 0.072412 0.547000 16372391
-0.154440 0.075400 0.546000 12886169
-0.154723 0.078664 0.547000 13932436
-0.155854 0.082388 0.551000 15053735
-0.155571 0.085381 0.550000 16044980
-0.154440 0.087880 0.546000 16239018
-0.154723 0.091167 0.547000 14715554
-0.168010 0.007404 0.598000 9383098
-0.166886 0.010749 0.594000 13883382
-0.165481 0.014024 0.589000 10522523
-0.164357 0.017271 0.585000 8746860
-0.163514 0.020509 0.582000 7428443
-0.160986 0.023466 0.573000 10718350
-0.160143 0.026600 0.570000 11245511
-0.158738 0.029595 0.565000 12501913
-0.157333 0.032533 0.560000 4487892
-0.157052 0.035670 0.559000 6130915
-0.155367 0.038447 0.553000 6328552
-0.155367 0.041607 0.553000 6455759
-0.155086 0.044686 0.552000 6186936
-0.155648 0.048013 0.554000 6186931
-0.155648 0.051179 0.554000 5464751
-0.155086 0.054149 0.552000 8022681
-0.155086 0.057303 0.552000 11645630
-0.154524 0.063381 0.550000 15446451
-0.154524 0.066524 0.550000 15237800
-0.152557 0.068780 0.543000 16500634
-0.153962 0.072545 0.548000 14592917
-0.153681 0.075538 0.547000 13408908
-0.154524 0.079095 0.550000 14196855
-0.154805 0.082388 0.551000 15778739
-0.155929 0.086157 0.555000 16042662
-0.153400 0.087880 0.546000 16042919
-0.153681 0.091167 0.547000 14199199
-0.166870 0.007404 0.598000 9273264
-0.165754 0.010749 0.594000 12635598
-0.164359 0.014024 0.589000 10913941
-0.163243 0.017271 0.585000 8155742
-0.162127 0.020473 0.581000 6969423
-0.159894 0.023466 0.573000 11246225
-0.159057 0.026600 0.570000 12366029
-0.157662 0.029595 0.565000 12833179
-0.156546 0.032591 0.561000 4162267
-0.156267 0.035733 0.560000 6328300
-0.154871 0.038586 0.555000 6392025
-0.154592 0.041682 0.554000 6584258
-0.154034 0.044686 0.552000 6186678
-0.154592 0.048013 0.554000 6252718
-0.154592 0.051179 0.554000 4545712
-0.154034 0.054149 0.552000 10922157
-0.154034 0.057303 0.552000 14794160
-0.153476 0.063381 0.550000 15443108
-0.154034 0.066766 0.552000 15179445
-0.152918 0.072545 0.548000 12871806
-0.152639 0.075538 0.547000 13870228
-0.153476 0.079095 0.550000 14457999
-0.154034 0.082537 0.552000 16435892
-0.155430 0.086468 0.557000 16106923
-0.165731 0.007404 0.598000 11507366
-0.164623 0.010749 0.594000 10714790
-0.163237 0.014024 0.589000 11114895
-0.161851 0.017242 0.584000 7104080
-0.161020 0.020473 0.581000 7101252
-0.158803 0.023466 0.573000 11705748
-0.157971 0.026600 0.570000 13219539
-0.156586 0.029595 0.565000 12960925
-0.155477 0.032591 0.561000 3833058
-0.155477 0.035797 0.561000 6196468
-0.154923 0.038864 0.559000 6322123
-0.154091 0.041832 0.556000 6384309
-0.153260 0.044767 0.553000 6186932
-0.153537 0.048013 0.554000 5660328
-0.153814 0.051271 0.555000 8413873
-0.153814 0.054443 0.555000 12693697
-0.152983 0.066766 0.552000 15122369
-0.152429 0.072810 0.550000 13202535
-0.151597 0.075538 0.547000 14859164
-0.154091 0.079958 0.556000 15318695
-0.153537 0.082836 0.554000 16238005
-0.164592 0.007404 0.598000 13675688
-0.163767 0.010767 0.595000 8856709
-0.162115 0.014024 0.589000 11307900
-0.160739 0.017242 0.584000 6120782
-0.159638 0.020438 0.580000 7233360
-0.157711 0.023466 0.573000 12232351
-0.156610 0.026553 0.569000 14009557
-0.155510 0.029595 0.565000 13095348
-0.155234 0.032766 0.564000 3511254
-0.155234 0.035989 0.564000 6063325
-0.153858 0.038864 0.559000 6254525
-0.153032 0.041832 0.556000 6251700
-0.152207 0.044767 0.553000 6120880
-0.152482 0.048013 0.554000 5067676
-0.152757 0.051271 0.555000 12292272
-0.152757 0.054443 0.555000 14463410
-0.153032 0.079958 0.556000 16173743
-0.152482 0.082836 0.554000 15975857
-0.272600 0.202771 0.470000 13346459
-0.163453 0.007404 0.598000 13874602
-0.162633 0.010767 0.595000 8271972
-0.160720 0.014000 0.588000 10126954
-0.159627 0.017242 0.584000 6775628
-0.158807 0.020473 0.581000 9069148
-0.156620 0.023466 0.573000 12626346
-0.155527 0.026553 0.569000 14141912
-0.154707 0.029648 0.566000 13881803
-0.154707 0.032882 0.566000 8758218
-0.154433 0.036052 0.565000 6846661
-0.154433 0.039281 0.565000 5727664
-0.153067 0.042133 0.560000 6120627
-0.151427 0.044848 0.554000 5530539
-0.151700 0.048100 0.555000 8220815
-0.151700 0.051271 0.555000 13150895
-0.151973 0.079958 0.556000 14989494
-0.151973 0.083135 0.556000 16106926
-0.162043 0.007391 0.597000 14005681
-0.161229 0.010749 0.594000 7668329
-0.160414 0.014071 0.591000 8879194
-0.158514 0.017242 0.584000 7430201
-0.157429 0.020438 0.580000 10915209
-0.156343 0.023589 0.576000 13020095
-0.154443 0.026553 0.569000 14207435
-0.153629 0.029648 0.566000 14734040
-0.153357 0.032824 0.565000 14007228
-0.153357 0.036052 0.565000 7636146
-0.153357 0.039281 0.565000 5202611
-0.152000 0.042133 0.560000 5988791
-0.153900 0.045900 0.567000 4936109
-0.150643 0.048100 0.555000 11380391
-0.150643 0.051271 0.555000 13940139
-0.160906 0.007391 0.597000 14272951
-0.159289 0.010694 0.591000 7486062
-0.158210 0.013976 0.587000 9074506
-0.157132 0.017212 0.583000 9863973
-0.156054 0.020403 0.579000 12695734
-0.154437 0.023466 0.573000 13613267
-0.153359 0.026553 0.569000 14470334
-0.152550 0.029648 0.566000 14864869
-0.152550 0.032882 0.566000 13746605
-0.152281 0.036052 0.565000 10722463
-0.152550 0.039350 0.566000 8681142
-0.152550 0.042585 0.566000 6580154
-0.152820 0.045900 0.567000 6959791
-0.153359 0.049313 0.569000 13019326
-0.149586 0.051271 0.555000 15189159
-0.159769 0.007391 0.597000 14469829
-0.158163 0.010694 0.591000 7283317
-0.157092 0.013976 0.587000 9277030
-0.156290 0.017242 0.584000 12360541
-0.154951 0.020403 0.579000 14469577
-0.153881 0.023548 0.575000 14276576
-0.152810 0.026647 0.571000 14665119
-0.151740 0.029700 0.567000 14993553
-0.151740 0.032940 0.567000 13416334
-0.151740 0.036180 0.567000 13870776
-0.152008 0.039490 0.568000 12162745
-0.151472 0.042585 0.566000 7174564
-0.151740 0.045900 0.567000 9012151
-0.152543 0.049400 0.570000 14657192
-0.153613 0.053027 0.574000 16371898
-0.152810 0.056012 0.571000 13876690
-0.158366 0.007379 0.596000 14536915
-0.157303 0.010712 0.592000 7946876
-0.155974 0.013976 0.587000 11975298
-0.155177 0.017242 0.584000 13021076
-0.153849 0.020403 0.579000 14667997
-0.152786 0.023548 0.575000 15197164
-0.152254 0.026740 0.573000 14395776
-0.150660 0.029700 0.567000 14263357
-0.150926 0.032998 0.568000 13479279
-0.151723 0.036435 0.571000 14337232
-0.150926 0.039490 0.568000 12887741
-0.150394 0.042585 0.566000 10258830
-0.150660 0.045900 0.567000 12109504
-0.151191 0.049313 0.569000 14921361
-0.151989 0.052842 0.572000 16306892
-0.151723 0.056012 0.571000 14601942
-0.157230 0.007379 0.596000 14601163
-0.156175 0.010712 0.592000 8595820
-0.154856 0.013976 0.587000 14598046
-0.154065 0.017242 0.584000 13744815
-0.153010 0.020438 0.580000 14799584
-0.152218 0.023630 0.577000 16111337
-0.151954 0.026880 0.576000 14139051
-0.149844 0.029752 0.568000 13608032
-0.150899 0.033230 0.572000 13542501
-0.150899 0.036499 0.572000 14866372
-0.150635 0.039698 0.571000 13551827
-0.149580 0.042660 0.567000 13409452
-0.149580 0.045900 0.567000 15118264
-0.150108 0.049313 0.569000 15190442
-0.152218 0.053304 0.577000 16174779
-0.150635 0.056012 0.571000 15320249
-0.156095 0.007379 0.596000 14470084
-0.154786 0.010694 0.591000 9329244
-0.153738 0.013976 0.587000 14008251
-0.152952 0.017242 0.584000 13943241
-0.151905 0.020438 0.580000 14999523
-0.151381 0.023670 0.578000 15060453
-0.150857 0.026880 0.576000 14472662
-0.148762 0.029752 0.568000 13939331
-0.150333 0.033347 0.574000 12754267
-0.150333 0.036627 0.574000 13811640
-0.149548 0.039698 0.571000 14411497
-0.148500 0.042660 0.567000 14138825
-0.152429 0.047114 0.582000 14060464
-0.152429 0.050440 0.582000 15715522
-0.150857 0.053211 0.576000 15519402
-0.149548 0.056012 0.571000 14591900
-0.154960 0.007379 0.596000 14270374
-0.153920 0.010712 0.592000 10112065
-0.152880 0.014000 0.588000 13417917
-0.152100 0.017271 0.585000 14141659
-0.151060 0.020473 0.581000 15124433
-0.150800 0.023752 0.580000 14073807
-0.151060 0.027113 0.581000 14731209
-0.151060 0.030433 0.581000 14270886
-0.149240 0.033347 0.574000 11965818
-0.149500 0.036690 0.575000 12820883
-0.151320 0.047114 0.582000 13018280
-0.151320 0.050440 0.582000 16240831
-0.151320 0.053766 0.582000 14791073
-0.148460 0.056012 0.571000 13932199
-0.151580 0.060521 0.583000 12691100
-0.153825 0.007379 0.596000 13744520
-0.153050 0.010730 0.593000 10778150
-0.152018 0.014024 0.589000 14139840
-0.151244 0.017301 0.586000 14208492
-0.149953 0.020473 0.581000 13740224
-0.149953 0.023793 0.581000 13481913
-0.149953 0.027113 0.581000 13937596
-0.149953 0.030433 0.581000 14007496
-0.148147 0.033347 0.574000 11497625
-0.148405 0.036690 0.575000 11632493
-0.151502 0.044165 0.587000 15260414
-0.150470 0.047195 0.583000 13213345
-0.150470 0.050527 0.583000 15779259
-0.150470 0.053858 0.583000 13665689
-0.150470 0.057190 0.583000 13934513
-0.150470 0.060521 0.583000 14205615
-0.150728 0.063962 0.584000 15319985
-0.152690 0.007379 0.596000 13153179
-0.152177 0.010749 0.594000 11500608
-0.150896 0.014024 0.589000 14796999
-0.150128 0.017301 0.586000 14281946
-0.149615 0.020579 0.584000 12300212
-0.149615 0.023916 0.584000 12957338
-0.148847 0.027113 0.581000 13088161
-0.149359 0.030538 0.583000 13809853
-0.150128 0.034044 0.586000 11047337
-0.147310 0.036690 0.575000 10389372
-0.150128 0.044090 0.586000 15727614
-0.150128 0.047438 0.586000 13409188
-0.149615 0.050613 0.584000 15253429
-0.149359 0.053858 0.583000 12493210
-0.149615 0.057288 0.584000 13940137
-0.149359 0.060521 0.583000 15647157
-0.150128 0.064181 0.586000 16108463
-0.151300 0.007367 0.595000 13943214
-0.151046 0.010749 0.594000 12163930
-0.150283 0.014071 0.591000 13943503
-0.149266 0.017330 0.587000 13811400
-0.148757 0.020614 0.585000 13877416
-0.149011 0.023998 0.586000 14597499
-0.150029 0.027533 0.590000 14931077
-0.148249 0.030538 0.583000 14731441
-0.149266 0.034102 0.587000 12362937
-0.149266 0.037456 0.587000 11634826
-0.149266 0.044165 0.587000 15525630
-0.149011 0.047438 0.586000 13270438
-0.148757 0.050700 0.585000 15450031
-0.148249 0.053858 0.583000 13869212
-0.148503 0.057288 0.584000 14729376
-0.148249 0.060521 0.583000 15648700
-0.149011 0.064181 0.586000 15318188
-0.150167 0.007367 0.595000 14663342
-0.149914 0.010749 0.594000 12756130
-0.149410 0.014095 0.592000 13086394
-0.148400 0.017360 0.588000 13410985
-0.147643 0.020614 0.585000 15446651
-0.147895 0.023998 0.586000 16172125
-0.148905 0.027533 0.590000 16697434
-0.148652 0.030852 0.589000 15650944
-0.148148 0.034102 0.587000 13611682
-0.147895 0.037392 0.586000 12884660
-0.148905 0.044390 0.590000 15324649
-0.147895 0.047438 0.586000 13084863
-0.148652 0.051047 0.589000 15581872
-0.147138 0.053858 0.583000 15184547
-0.147390 0.057288 0.584000 15584160
-0.147138 0.060521 0.583000 15643821
-0.146886 0.063743 0.582000 14591908
-0.149033 0.010767 0.595000 13416682
-0.148282 0.014095 0.592000 13212326
-0.147280 0.017360 0.588000 13872010
-0.148031 0.020826 0.591000 13733199
-0.148031 0.024203 0.591000 14263358
-0.148031 0.027580 0.591000 15053102
-0.148031 0.030957 0.591000 15120206
-0.147030 0.034102 0.587000 14334347
-0.146779 0.037392 0.586000 14012126
-0.147781 0.044390 0.590000 15126740
-0.148532 0.048005 0.593000 14271448
-0.148282 0.051307 0.592000 14989745
-0.146028 0.053858 0.583000 14594985
-0.146028 0.057190 0.583000 14396319
-0.147900 0.010767 0.595000 14074093
-0.147403 0.014119 0.593000 13286094
-0.146906 0.017449 0.591000 14267510
-0.147154 0.020861 0.592000 11963216
-0.147154 0.024244 0.592000 12356937
-0.147154 0.027627 0.592000 13403433
-0.147651 0.031114 0.594000 14589484
-0.147651 0.034509 0.594000 14990231
-0.145663 0.037392 0.586000 15126986
-0.149391 0.041784 0.601000 14930139
-0.146657 0.044390 0.590000 14929099
-0.147403 0.048005 0.593000 15456224
-0.147403 0.051393 0.593000 14338000
-0.147651 0.054874 0.594000 13940167
-0.146767 0.010767 0.595000 14868208
-0.146273 0.014119 0.593000 14084598
-0.145780 0.017449 0.591000 14068065
-0.146027 0.020861 0.592000 12751186
-0.146027 0.024244 0.592000 12616276
-0.146273 0.027673 0.593000 12342563
-0.146520 0.031114 0.594000 13536521
-0.147260 0.034683 0.597000 14005156
-0.147753 0.038222 0.599000 14002357
-0.148247 0.041784 0.601000 14336196
-0.148000 0.045143 0.600000 14598338
-0.146767 0.048167 0.595000 15853801
-0.146520 0.051480 0.594000 15063535
-0.147260 0.055151 0.597000 14598116
-0.145633 0.010767 0.595000 15724003
-0.145144 0.014119 0.593000 14860492
-0.144899 0.017478 0.592000 13867628
-0.146123 0.021037 0.597000 13541227
-0.145144 0.027673 0.593000 11302985
-0.145633 0.031167 0.595000 12425304
-0.146368 0.034741 0.598000 13020850
-0.146368 0.038158 0.598000 12890307
-0.146368 0.041575 0.598000 13746376
-0.146857 0.045143 0.600000 14266816
-0.145633 0.048167 0.595000 16246232
-0.145389 0.051480 0.594000 15721712
-0.146368 0.055244 0.598000 15259373
-0.144986 0.021037 0.597000 13544836
-0.144014 0.027673 0.593000 12097648
-0.144257 0.031114 0.594000 12558758
-0.145229 0.034741 0.598000 13285056
-0.145229 0.038158 0.598000 13747920
-0.145714 0.041714 0.600000 14009036
-0.145714 0.045143 0.600000 12884925
-0.144257 0.051480 0.594000 15064817
-0.145229 0.055244 0.598000 15197686
-0.142885 0.027673 0.593000 12885631
-0.144571 0.041714 0.600000 14272979
-0.145053 0.045293 0.602000 11577032
-0.143907 0.045293 0.602000 12958419
-0.223333 0.081429 0.500000 10847886
-0.222826 0.078729 0.501000 10784404
-0.222826 0.081591 0.501000 11048107
-0.222826 0.084454 0.501000 10054264
-0.221429 0.075714 0.500000 13818310
-0.221429 0.078571 0.500000 9533561
-0.221871 0.081591 0.501000 11180425
-0.222314 0.084623 0.502000 8482158
-0.222757 0.087666 0.503000 9990767
-0.220476 0.075714 0.500000 13747923
-0.220476 0.078571 0.500000 9000799
-0.220917 0.081591 0.501000 9992806
-0.221799 0.084791 0.503000 8741477
-0.222240 0.087840 0.504000 9464937
-0.219524 0.075714 0.500000 13679807
-0.219524 0.078571 0.500000 8414297
-0.219963 0.081591 0.501000 8809016
-0.220402 0.084623 0.502000 9004386
-0.221280 0.087840 0.504000 9006709
-0.218571 0.075714 0.500000 13941418
-0.218134 0.078414 0.499000 9394770
-0.219009 0.081591 0.501000 8808202
-0.219883 0.084791 0.503000 9069663
-0.220320 0.087840 0.504000 9599360
-0.220757 0.090900 0.505000 8724290
-0.218925 0.073294 0.503000 11443843
-0.217619 0.075714 0.500000 14272685
-0.217184 0.078414 0.499000 10385493
-0.218054 0.081591 0.501000 8742176
-0.218490 0.084623 0.502000 9072476
-0.219360 0.087840 0.504000 10194577
-0.219795 0.090900 0.505000 8538960
-0.217967 0.073294 0.503000 12492409
-0.216667 0.075714 0.500000 14467504
-0.216233 0.078414 0.499000 11043415
-0.217100 0.081591 0.501000 9465910
-0.217533 0.084623 0.502000 9335386
-0.218400 0.087840 0.504000 10850978
-0.218833 0.090900 0.505000 8870494
-0.219700 0.094157 0.507000 9730169
-0.217440 0.073440 0.504000 13545873
-0.215714 0.075714 0.500000 14730413
-0.215283 0.078414 0.499000 11702114
-0.216146 0.081591 0.501000 10189601
-0.217009 0.084791 0.503000 9533265
-0.217440 0.087840 0.504000 11574431
-0.217871 0.090900 0.505000 9205624
-0.220029 0.094714 0.510000 9797245
-0.216480 0.073440 0.504000 14401450
-0.214762 0.075714 0.500000 14990506
-0.214332 0.078414 0.499000 11573357
-0.214762 0.081429 0.500000 10715916
-0.216050 0.084791 0.503000 10057032
-0.216480 0.087840 0.504000 11573403
-0.216910 0.090900 0.505000 10060946
-0.218628 0.094529 0.509000 9730432
-0.219916 0.098011 0.512000 10848393
-0.216803 0.070980 0.507000 14071188
-0.215948 0.073586 0.505000 15187109
-0.213810 0.075714 0.500000 15251628
-0.213382 0.078414 0.499000 11379349
-0.213810 0.081429 0.500000 11241024
-0.214665 0.084623 0.502000 10518629
-0.215520 0.087840 0.504000 11572370
-0.215948 0.090900 0.505000 10914704
-0.217230 0.094343 0.508000 9663611
-0.218941 0.098011 0.512000 11306372
-0.219369 0.101134 0.513000 9861753
-0.219243 0.066214 0.515000 12757696
-0.215837 0.070980 0.507000 14596786
-0.214986 0.073586 0.505000 15252129
-0.213283 0.075866 0.501000 15188398
-0.212006 0.078257 0.498000 11115709
-0.212431 0.081266 0.499000 11045236
-0.213283 0.084454 0.501000 10585473
-0.214560 0.087840 0.504000 11242889
-0.214986 0.090900 0.505000 11113615
-0.216263 0.094343 0.508000 9662838
-0.217966 0.098011 0.512000 10780542
-0.218391 0.101134 0.513000 9598069
-0.219243 0.104471 0.515000 10124398
-0.218686 0.066343 0.516000 12822166
-0.216990 0.068754 0.512000 13408638
-0.214871 0.070980 0.507000 15187111
-0.213600 0.073440 0.504000 15251873
-0.211905 0.075714 0.500000 15121579
-0.211057 0.078257 0.498000 10854837
-0.211481 0.081266 0.499000 10848384
-0.212329 0.084454 0.501000 10652038
-0.213600 0.087840 0.504000 10979462
-0.214024 0.090900 0.505000 11244170
-0.215719 0.094529 0.509000 9727866
-0.216990 0.098011 0.512000 10188412
-0.217414 0.101134 0.513000 9336435
-0.218686 0.104674 0.516000 9991793
-0.219533 0.108040 0.518000 10650235
-0.219957 0.111214 0.519000 10715260
-0.218547 0.063640 0.518000 12303781
-0.217703 0.066343 0.516000 12752491
-0.216015 0.068754 0.512000 13410950
-0.213484 0.070840 0.506000 15121307
-0.212640 0.073440 0.504000 15185826
-0.210109 0.075411 0.498000 15122344
-0.210109 0.078257 0.498000 11181228
-0.210109 0.081103 0.498000 10256268
-0.211374 0.084454 0.501000 10521739
-0.212640 0.087840 0.504000 10848386
-0.212640 0.090720 0.504000 11112581
-0.214750 0.094529 0.509000 9795710
-0.215593 0.097820 0.511000 9464697
-0.216437 0.101134 0.513000 9269873
-0.217703 0.104674 0.516000 9859700
-0.218547 0.108040 0.518000 10387067
-0.218969 0.111214 0.519000 10384512
-0.217140 0.063517 0.517000 12692632
-0.216300 0.066214 0.515000 12688000
-0.215460 0.068889 0.513000 13411980
-0.212940 0.070980 0.507000 15055516
-0.211680 0.073440 0.504000 15055009
-0.209580 0.075563 0.499000 15122086
-0.209160 0.078257 0.498000 11441830
-0.209580 0.081266 0.499000 9731937
-0.210420 0.084454 0.501000 10321774
-0.211680 0.087840 0.504000 10717060
-0.211680 0.090720 0.504000 10981513
-0.213780 0.094529 0.509000 9928827
-0.215040 0.098011 0.512000 8743534
-0.215460 0.101134 0.513000 9268589
-0.216300 0.104471 0.515000 9662834
-0.216720 0.107623 0.516000 10057337
-0.217980 0.111214 0.519000 9992314
-0.217410 0.060914 0.520000 12560287
-0.216573 0.063640 0.518000 12686219
-0.214901 0.066086 0.514000 13740949
-0.214065 0.068754 0.512000 13279123
-0.211974 0.070980 0.507000 15121308
-0.210720 0.073440 0.504000 14989728
-0.208630 0.075563 0.499000 15122340
-0.208630 0.078414 0.499000 9998239
-0.208630 0.081266 0.499000 7759670
-0.209466 0.084454 0.501000 9659986
-0.210302 0.087666 0.503000 9927558
-0.210720 0.090720 0.504000 11113357
-0.212810 0.094529 0.509000 10126456
-0.214065 0.098011 0.512000 8873315
-0.214483 0.101134 0.513000 8939880
-0.215319 0.104471 0.515000 9596528
-0.215737 0.107623 0.516000 9860214
-0.216991 0.111214 0.519000 10190964
-0.216419 0.060914 0.520000 12694428
-0.215170 0.063517 0.517000 12623499
-0.213922 0.066086 0.514000 14727322
-0.213090 0.068754 0.512000 13150358
-0.211009 0.070980 0.507000 15252381
-0.209344 0.073294 0.503000 14924449
-0.208511 0.075866 0.501000 15055530
-0.208095 0.078571 0.500000 8484261
-0.207679 0.081266 0.499000 5854286
-0.208511 0.084454 0.501000 9003609
-0.209760 0.087840 0.504000 9204068
-0.210176 0.090900 0.505000 11241083
-0.211841 0.094529 0.509000 10324605
-0.213090 0.098011 0.512000 9005667
-0.213506 0.101134 0.513000 8611172
-0.214338 0.104471 0.515000 9531507
-0.215170 0.107831 0.517000 9663350
-0.216003 0.111214 0.519000 10388092
-0.217251 0.114840 0.522000 9265237
-0.215429 0.060914 0.520000 12490648
-0.214600 0.063640 0.518000 13677451
-0.212943 0.066086 0.514000 14595998
-0.211286 0.068486 0.510000 13345178
-0.209629 0.070840 0.506000 15121566
-0.208386 0.073294 0.503000 14924450
-0.207143 0.075714 0.500000 15122352
-0.207143 0.078571 0.500000 8681386
-0.206729 0.081266 0.499000 4337509
-0.207557 0.084454 0.501000 6638176
-0.208386 0.087666 0.503000 8217153
-0.208800 0.090720 0.504000 10055785
-0.210871 0.094529 0.509000 9928321
-0.211700 0.097820 0.511000 9268323
-0.212529 0.101134 0.513000 8874079
-0.213357 0.104471 0.515000 9663350
-0.214186 0.107831 0.517000 9465973
-0.215014 0.111214 0.519000 10586501
-0.216257 0.114840 0.522000 9333345
-0.216500 0.058500 0.525000 13674664
-0.214438 0.060914 0.520000 12356234
-0.213613 0.063640 0.518000 14726547
-0.211551 0.065957 0.513000 14399132
-0.210314 0.068486 0.510000 13478295
-0.209077 0.070980 0.507000 15056032
-0.207015 0.073149 0.502000 14924967
-0.206190 0.075714 0.500000 15122111
-0.206190 0.078571 0.500000 8876714
-0.205778 0.081266 0.499000 2830181
-0.206603 0.084454 0.501000 4209505
-0.207428 0.087666 0.503000 7168084
-0.208252 0.090900 0.505000 8806498
-0.209490 0.094343 0.508000 9532256
-0.210314 0.097629 0.510000 9531228
-0.211551 0.101134 0.513000 9203029
-0.212376 0.104471 0.515000 9729898
-0.213201 0.107831 0.517000 9266278
-0.214026 0.111214 0.519000 10780533
-0.215910 0.058611 0.526000 12689059
-0.213858 0.061031 0.521000 13280380
-0.212627 0.063640 0.518000 14333339
-0.211395 0.066214 0.515000 14200473
-0.209343 0.068486 0.510000 13345940
-0.207701 0.070840 0.506000 15055777
-0.206470 0.073294 0.503000 15056300
-0.205238 0.075714 0.500000 14599373
-0.205238 0.078571 0.500000 9011370
-0.204828 0.081266 0.499000 2829668
-0.205649 0.084454 0.501000 4208483
-0.206470 0.087666 0.503000 5390439
-0.206880 0.090720 0.504000 6377563
-0.208522 0.094343 0.508000 8872510
-0.209343 0.097629 0.510000 9530198
-0.210574 0.101134 0.513000 9728331
-0.211806 0.104674 0.516000 9796190
-0.212216 0.107831 0.517000 9135703
-0.213037 0.111214 0.519000 10255462
-0.214909 0.058611 0.526000 11639440
-0.213274 0.061149 0.522000 14268046
-0.211231 0.063517 0.517000 13872533
-0.209597 0.065957 0.513000 14067606
-0.208780 0.068620 0.511000 13215888
-0.206329 0.070700 0.505000 15121319
-0.205511 0.073294 0.503000 15123382
-0.204286 0.075714 0.500000 14142148
-0.203877 0.078414 0.499000 9140908
-0.203877 0.081266 0.499000 2831204
-0.204286 0.084286 0.500000 4209254
-0.205103 0.087491 0.502000 3553125
-0.205920 0.090720 0.504000 3949408
-0.207146 0.094157 0.507000 8151120
-0.208371 0.097629 0.510000 9462614
-0.209597 0.101134 0.513000 10317906
-0.210823 0.104674 0.516000 9860956
-0.211231 0.107831 0.517000 9070686
-0.212049 0.111214 0.519000 9663591
-0.214313 0.058723 0.527000 12950397
-0.212280 0.061149 0.522000 14005919
-0.210247 0.063517 0.517000 13804688
-0.208620 0.065957 0.513000 14265746
-0.207400 0.068486 0.510000 13080971
-0.205773 0.070840 0.506000 15122348
-0.204147 0.073149 0.502000 14535872
-0.203333 0.075714 0.500000 13482170
-0.202927 0.078414 0.499000 9539246
-0.202520 0.081103 0.498000 2829668
-0.203333 0.084286 0.500000 4078441
-0.204147 0.087491 0.502000 3881315
-0.204960 0.090720 0.504000 4208229
-0.206180 0.094157 0.507000 5980514
-0.206993 0.097437 0.509000 7493718
-0.208213 0.100937 0.512000 9528409
-0.209840 0.104674 0.516000 9926234
-0.210247 0.107831 0.517000 9464677
-0.211060 0.111214 0.519000 9663080
-0.213310 0.058723 0.527000 14198162
-0.210881 0.061031 0.521000 13808531
-0.209667 0.063640 0.518000 13673356
-0.207643 0.065957 0.513000 14464144
-0.206429 0.068486 0.510000 12887186
-0.204810 0.070840 0.506000 15189440
-0.203190 0.073149 0.502000 13941940
-0.202786 0.075866 0.501000 12887472
-0.201976 0.078414 0.499000 9931955
-0.201571 0.081103 0.498000 2895715
-0.202381 0.084286 0.500000 3881831
-0.203190 0.087491 0.502000 4143716
-0.204000 0.090720 0.504000 4405606
-0.205214 0.094157 0.507000 3815013
-0.205619 0.097246 0.508000 5457756
-0.206833 0.100740 0.511000 8739169
-0.209262 0.104877 0.517000 9990745
-0.209667 0.108040 0.518000 9792359
-0.210071 0.111214 0.519000 9597036
-0.214320 0.056240 0.532000 13413277
-0.211903 0.058611 0.526000 14201511
-0.209889 0.061031 0.521000 13476486
-0.208680 0.063640 0.518000 13739400
-0.206666 0.065957 0.513000 14661517
-0.205457 0.068486 0.510000 12817816
-0.204249 0.070980 0.507000 14271700
-0.201831 0.073003 0.501000 12821160
-0.201429 0.075714 0.500000 12954021
-0.200623 0.078257 0.498000 10265272
-0.200623 0.081103 0.498000 2763362
-0.201429 0.084286 0.500000 3881574
-0.201831 0.087317 0.501000 4012900
-0.203443 0.090900 0.505000 4340326
-0.204249 0.094157 0.507000 4012647
-0.204651 0.097246 0.508000 4666467
-0.205457 0.100543 0.510000 7293289
-0.207874 0.104674 0.516000 10450265
-0.208277 0.107831 0.517000 10122601
-0.209083 0.111214 0.519000 9663857
-0.213307 0.056240 0.532000 14463130
-0.210901 0.058611 0.526000 14136225
-0.209297 0.061149 0.522000 13214599
-0.207292 0.063517 0.517000 13741714
-0.205689 0.065957 0.513000 14859153
-0.204486 0.068486 0.510000 12689570
-0.203283 0.070980 0.507000 13352912
-0.200877 0.073003 0.501000 11638176
-0.200476 0.075714 0.500000 13023417
-0.199674 0.078257 0.498000 10524089
-0.199674 0.081103 0.498000 2632801
-0.200075 0.084117 0.499000 3881833
-0.200877 0.087317 0.501000 3882084
-0.202080 0.090720 0.504000 4209255
-0.202882 0.093971 0.506000 4208743
-0.203283 0.097054 0.507000 3815524
-0.204887 0.100740 0.511000 5913452
-0.206891 0.104674 0.516000 10909014
-0.207292 0.107831 0.517000 10517596
-0.207693 0.111000 0.518000 9727334
-0.208896 0.114620 0.521000 10914444
-0.212293 0.056240 0.532000 14398103
-0.210298 0.058723 0.527000 14267547
-0.208303 0.061149 0.522000 13673863
-0.206308 0.063517 0.517000 13875612
-0.205510 0.066214 0.515000 14464916
-0.203514 0.068486 0.510000 11568045
-0.202716 0.071120 0.508000 13483979
-0.199923 0.073003 0.501000 11374744
-0.199125 0.075563 0.499000 13351373
-0.198726 0.078257 0.498000 10656955
-0.198327 0.080940 0.497000 2435168
-0.198726 0.083949 0.498000 4013165
-0.199923 0.087317 0.501000 3881828
-0.201120 0.090720 0.504000 4209000
-0.201918 0.093971 0.506000 4209255
-0.202716 0.097246 0.508000 3881573
-0.203913 0.100740 0.511000 6309486
-0.205510 0.104471 0.515000 11107156
-0.206308 0.107831 0.517000 10381135
-0.206707 0.111000 0.518000 9394524
-0.207904 0.114620 0.521000 9795715
-0.211280 0.056240 0.532000 14398106
-0.209294 0.058723 0.527000 14333342
-0.206911 0.061031 0.521000 14198163
-0.205323 0.063517 0.517000 14002837
-0.203734 0.065957 0.513000 14135959
-0.202146 0.068351 0.509000 10459025
-0.201351 0.070980 0.507000 13620420
-0.198969 0.073003 0.501000 11113370
-0.198174 0.075563 0.499000 13745611
-0.197777 0.078257 0.498000 10786236
-0.197380 0.080940 0.497000 2305377
-0.197777 0.083949 0.498000 4143468
-0.198969 0.087317 0.501000 3881574
-0.200160 0.090720 0.504000 4143463
-0.200954 0.093971 0.506000 4209511
-0.201749 0.097246 0.508000 3947878
-0.202543 0.100543 0.510000 6706534
-0.204131 0.104269 0.514000 11303512
-0.204926 0.107623 0.516000 10309965
-0.205720 0.111000 0.518000 9069914
-0.206911 0.114620 0.521000 8678248
-0.210267 0.053200 0.532000 10251404
-0.209871 0.056134 0.531000 14464156
-0.208290 0.058723 0.527000 14464673
-0.205129 0.060797 0.519000 14135967
-0.204338 0.063517 0.517000 13338255
-0.203943 0.066343 0.516000 14070938
-0.201176 0.068351 0.509000 10978677
-0.200386 0.070980 0.507000 13219260
-0.198014 0.073003 0.501000 11442332
-0.197224 0.075563 0.499000 13877704
-0.196433 0.078100 0.497000 11250364
-0.196433 0.080940 0.497000 2435681
-0.196829 0.083949 0.498000 4012139
-0.198014 0.087317 0.501000 3881831
-0.199200 0.090720 0.504000 4143463
-0.199990 0.093971 0.506000 4209511
-0.200781 0.097246 0.508000 4209766
-0.201571 0.100543 0.510000 7167069
-0.202757 0.104066 0.513000 11502684
-0.203943 0.107623 0.516000 10512971
-0.204733 0.111000 0.518000 9793880
-0.205919 0.114620 0.521000 7886413
-0.210827 0.053600 0.536000 10326413
-0.208860 0.056134 0.531000 14529436
-0.207287 0.058723 0.527000 14595746
-0.204140 0.060797 0.519000 14136979
-0.203353 0.063517 0.517000 12625804
-0.202567 0.066214 0.515000 14070866
-0.199813 0.068217 0.508000 11507816
-0.199420 0.070980 0.507000 12820646
-0.197847 0.073294 0.503000 11705505
-0.195880 0.075411 0.498000 14009545
-0.195487 0.078100 0.497000 11641279
-0.195093 0.080777 0.496000 2632801
-0.195880 0.083949 0.498000 3881578
-0.196667 0.087143 0.500000 3881830
-0.198240 0.090720 0.504000 4143973
-0.198240 0.093600 0.504000 4209257
-0.199813 0.097246 0.508000 4405607
-0.200600 0.100543 0.510000 7629913
-0.201780 0.104066 0.513000 11697492
-0.202960 0.107623 0.516000 10776918
-0.203747 0.111000 0.518000 10449759
-0.204927 0.114620 0.521000 7162963
-0.209806 0.053600 0.536000 10981774
-0.207849 0.056134 0.531000 14595996
-0.206283 0.058723 0.527000 14661282
-0.202760 0.060680 0.518000 13608327
-0.201977 0.063394 0.516000 13678474
-0.201586 0.066214 0.515000 14135818
-0.198063 0.067949 0.506000 11437660
-0.197671 0.070700 0.505000 12427151
-0.196889 0.073294 0.503000 12494246
-0.194931 0.075411 0.498000 13812426
-0.194149 0.077943 0.496000 11446978
-0.194149 0.080777 0.496000 2631776
-0.194931 0.083949 0.498000 3881833
-0.195714 0.087143 0.500000 3947108
-0.196497 0.090360 0.502000 4013412
-0.197280 0.093600 0.504000 4209258
-0.198454 0.097054 0.507000 4077416
-0.199629 0.100543 0.510000 7888980
-0.200803 0.104066 0.513000 11237708
-0.201194 0.107206 0.514000 10184288
-0.202369 0.110786 0.517000 10780261
-0.203151 0.114180 0.519000 6110040
-0.207616 0.053300 0.533000 11641750
-0.206448 0.056029 0.530000 14595998
-0.205279 0.058723 0.527000 14661800
-0.201384 0.060563 0.517000 13146498
-0.200994 0.063394 0.516000 14726495
-0.200215 0.066086 0.514000 14265372
-0.197099 0.067949 0.506000 11372622
-0.196320 0.070560 0.504000 12099946
-0.196320 0.073440 0.504000 13217197
-0.193983 0.075411 0.498000 13549256
-0.193204 0.077943 0.496000 11179450
-0.193204 0.080777 0.496000 2633059
-0.193983 0.083949 0.498000 3881833
-0.194762 0.087143 0.500000 4012646
-0.195541 0.090360 0.502000 3882085
-0.196320 0.093600 0.504000 4209257
-0.197489 0.097054 0.507000 3684200
-0.198657 0.100543 0.510000 8150105
-0.199436 0.103863 0.512000 10775886
-0.200215 0.107206 0.514000 9655388
-0.201384 0.110786 0.517000 11107424
-0.202552 0.114400 0.520000 5058395
-0.212415 0.045406 0.548000 5793194
-0.211252 0.048271 0.545000 5592983
-0.206213 0.053200 0.532000 12497566
-0.205438 0.056029 0.530000 14596256
-0.204275 0.058723 0.527000 14924974
-0.200787 0.060680 0.518000 13411965
-0.200011 0.063394 0.516000 14660660
-0.199236 0.066086 0.514000 13805357
-0.196135 0.067949 0.506000 11105343
-0.195360 0.070560 0.504000 11900485
-0.195360 0.073440 0.504000 12957364
-0.193422 0.075563 0.499000 13153989
-0.192647 0.078100 0.497000 10984626
-0.192259 0.080777 0.496000 2698086
-0.192647 0.083780 0.497000 3881834
-0.193810 0.087143 0.500000 3947367
-0.194585 0.090360 0.502000 4013158
-0.195360 0.093600 0.504000 4274791
-0.196523 0.097054 0.507000 3749481
-0.197298 0.100346 0.509000 8281438
-0.198461 0.103863 0.512000 10839889
-0.199236 0.107206 0.514000 9855063
-0.200399 0.110786 0.517000 11436635
-0.201562 0.114400 0.520000 5455965
-0.211371 0.045406 0.548000 4876200
-0.210986 0.048449 0.547000 5527449
-0.205200 0.053200 0.532000 13282463
-0.204043 0.055923 0.529000 14595752
-0.202886 0.058611 0.526000 15121843
-0.199414 0.060563 0.517000 13609328
-0.199029 0.063394 0.516000 14529338
-0.197871 0.065957 0.513000 13346852
-0.195171 0.067949 0.506000 10776130
-0.194400 0.070560 0.504000 11701062
